# .PCD v0.7 - Point Cloud Data file format
VERSION 0.7
FIELDS x y z
SIZE 4 4 4
TYPE F F F
COUNT 1 1 1
WIDTH 2652
HEIGHT 1
VIEWPOINT 0 0 0 1 0 0 0
POINTS 2652
DATA ascii
0.113 0.478 0.86
0.108 0.472 0.859
0.104 0.468 0.857
0.1 0.467 0.856
0.096 0.466 0.855
0.092 0.456 0.854
0.089 0.45 0.853
0.088 -6.931 0.853
0.146 -6.953 0.871
0.204 -6.945 0.889
0.261 -6.916 0.907
0.318 -6.894 0.924
0.378 -6.939 0.942
0.457 -7.366 0.967
0.538 -7.701 0.992
0.603 -7.697 1.011
0.671 -7.75 1.033
0.756 -7.986 1.059
0.844 -8.21 1.086
0.94 -8.476 1.115
0.132 -0.403 0.867
0.135 -0.402 0.868
0.139 -0.406 0.869
0.143 -0.404 0.87
0.146 -0.402 0.871
0.149 -0.399 0.872
0.151 -0.395 0.873
0.154 -0.392 0.874
0.159 -0.398 0.875
0.161 -0.394 0.876
0.165 -0.393 0.877
0.168 -0.393 0.878
0.17 -0.386 0.878
0.174 -0.387 0.88
0.175 -0.38 0.88
0.179 -0.38 0.881
0.182 -0.38 0.882
0.185 -0.377 0.883
0.189 -0.379 0.884
0.19 -0.373 0.885
0.194 -0.375 0.886
0.199 -0.378 0.887
0.202 -0.379 0.888
0.205 -0.378 0.889
0.21 -0.379 0.891
0.215 -0.385 0.892
0.216 -0.377 0.893
0.22 -0.38 0.894
0.222 -0.374 0.894
0.226 -0.374 0.896
0.229 -0.373 0.896
0.234 -0.377 0.898
0.234 -0.369 0.898
0.24 -0.374 0.9
0.243 -0.372 0.901
0.249 -0.377 0.903
0.248 -0.368 0.903
0.252 -0.368 0.904
0.253 -0.362 0.904
0.258 -0.364 0.905
0.257 -0.354 0.905
0.264 -0.36 0.907
0.265 -0.356 0.908
0.27 -0.358 0.909
0.269 -0.349 0.909
0.275 -0.352 0.911
0.277 -0.349 0.911
0.28 -0.348 0.912
0.285 -0.35 0.914
0.289 -0.35 0.915
0.291 -0.345 0.915
0.293 -0.343 0.916
0.296 -0.341 0.917
0.298 -0.338 0.918
0.299 -0.334 0.918
0.308 -0.342 0.921
0.308 -0.335 0.921
0.315 -0.339 0.923
0.322 -0.344 0.925
0.328 -0.345 0.927
0.334 -0.348 0.929
0.334 -0.342 0.929
0.337 -0.339 0.93
0.342 -0.34 0.931
0.344 -0.337 0.932
0.352 -0.34 0.934
0.355 -0.338 0.935
0.356 -0.333 0.935
0.363 -0.337 0.938
0.367 -0.336 0.939
0.371 -0.335 0.94
0.389 -0.35 0.946
0.511 -0.483 0.983
1.282 -1.339 1.22
1.296 -1.332 1.225
1.348 -1.365 1.241
1.444 -1.443 1.27
5.386 -5.542 2.482
5.474 -5.537 2.509
5.526 -5.493 2.525
5.607 -5.479 2.55
5.671 -5.446 2.57
5.752 -5.43 2.595
5.902 -5.476 2.641
5.886 -5.367 2.636
5.894 -5.28 2.638
6.059 -5.335 2.689
6.59 -5.708 2.852
6.616 -5.63 2.86
6.656 -5.564 2.873
6.727 -5.525 2.895
6.791 -5.479 2.914
6.861 -5.437 2.936
6.922 -5.387 2.954
7.004 -5.354 2.98
7.04 -5.284 2.991
7.196 -5.304 3.039
7.429 -5.377 3.11
7.522 -5.345 3.139
7.61 -5.308 3.166
7.699 -5.27 3.193
7.793 -5.235 3.222
7.891 -5.201 3.252
7.969 -5.152 3.276
8.065 -5.114 3.306
8.105 -5.04 3.318
8.346 -5.089 3.392
8.277 -4.946 3.371
8.214 -4.81 3.352
8.165 -4.684 3.337
5.934 -3.321 2.651
5.898 -3.232 2.64
5.888 -3.159 2.637
5.98 -3.141 2.665
6.038 -3.104 2.683
6.093 -3.064 2.699
6.269 -3.084 2.754
6.323 -3.042 2.77
6.391 -3.005 2.791
6.467 -2.971 2.815
0 0 0
0 0 0
0 0 0
0 0 0
0 0 0
0 0 0
0 0 0
0 0 0
0 0 0
0 0 0
0 0 0
7.053 -2.367 2.995
7.18 -2.339 3.034
7.258 -2.293 3.058
7.243 -2.217 3.053
0 0 0
0 0 0
0 0 0
0 0 0
0 0 0
0 0 0
0 0 0
0 0 0
0 0 0
0 0 0
0 0 0
0 0 0
0 0 0
0 0 0
0 0 0
6.543 -1.009 2.838
6.712 -0.974 2.89
6.707 -0.912 2.888
6.815 -0.864 2.921
0 0 0
0 0 0
0 0 0
0 0 0
0 0 0
0 0 0
0 0 0
0 0 0
0 0 0
0 0 0
0 0 0
0 0 0
0 0 0
4.528 -0 2.218
4.508 0.04 2.212
4.508 0.081 2.212
4.486 0.12 2.205
4.475 0.16 2.202
4.464 0.2 2.199
4.449 0.239 2.194
4.438 0.278 2.191
4.417 0.317 2.184
4.399 0.355 2.179
4.386 0.393 2.175
4.368 0.431 2.169
4.353 0.469 2.164
4.34 0.507 2.161
4.629 0.583 2.249
4.691 0.634 2.268
4.962 0.717 2.352
4.789 0.735 2.299
5.084 0.828 2.389
5.325 0.917 2.463
5.426 0.985 2.495
5.923 1.131 2.647
5.878 1.177 2.634
5.895 1.236 2.639
5.83 1.277 2.619
5.854 1.337 2.626
5.594 1.33 2.546
5.115 1.262 2.399
5.01 1.284 2.367
4.995 1.328 2.362
4.981 1.371 2.358
4.963 1.414 2.352
4.938 1.455 2.344
4.904 1.493 2.334
4.871 1.53 2.324
4.855 1.572 2.319
5.125 1.712 2.402
5.546 1.91 2.531
5.612 1.99 2.552
5.595 2.04 2.547
5.584 2.093 2.543
5.563 2.142 2.537
5.557 2.196 2.535
5.417 2.196 2.492
5.37 2.233 2.477
5.362 2.285 2.475
5.327 2.326 2.464
3.979 1.77 2.05
3.943 1.796 2.039
3.949 1.841 2.04
5.402 2.592 2.487
5.293 2.597 2.454
3.391 1.686 1.869
3.391 1.723 1.869
2.713 1.399 1.66
2.649 1.394 1.641
2.633 1.415 1.636
2.628 1.443 1.634
2.615 1.466 1.63
2.602 1.488 1.626
2.546 1.485 1.609
2.541 1.511 1.607
2.527 1.533 1.603
2.52 1.559 1.601
2.514 1.586 1.599
2.499 1.607 1.594
2.492 1.633 1.592
2.485 1.66 1.59
2.478 1.687 1.588
2.459 1.704 1.582
1.516 1.046 1.292
1.519 1.067 1.293
1.509 1.08 1.29
1.507 1.098 1.289
1.5 1.113 1.288
1.468 1.108 1.278
1.405 1.076 1.258
1.352 1.051 1.242
1.296 1.023 1.225
1.259 1.01 1.213
1.217 0.991 1.2
1.18 0.975 1.189
1.139 0.956 1.176
1.119 0.954 1.17
1.116 0.968 1.169
1.11 0.98 1.167
1.108 0.995 1.167
1.105 1.01 1.166
1.095 1.017 1.163
1.093 1.033 1.162
1.091 1.049 1.161
1.08 1.056 1.158
1.073 1.067 1.156
1.071 1.084 1.156
1.068 1.099 1.155
1.059 1.109 1.152
1.042 1.109 1.147
1.006 1.085 1.135
0.967 1.058 1.124
0.951 1.057 1.119
0.91 1.024 1.106
0.906 1.038 1.105
0.904 1.054 1.104
0.884 1.046 1.098
0.883 1.065 1.098
0.881 1.081 1.097
0.791 0.975 1.069
0.744 0.927 1.055
0.721 0.911 1.048
0.699 0.896 1.041
0.677 0.879 1.034
0.659 0.869 1.029
0.633 0.845 1.021
0.617 0.836 1.016
0.595 0.817 1.009
0.581 0.81 1.005
0.564 0.796 1
0.547 0.784 0.994
0.533 0.774 0.99
0.52 0.766 0.986
0.5 0.746 0.98
0.486 0.735 0.976
0.476 0.732 0.973
0.463 0.722 0.968
0.453 0.717 0.965
0.439 0.705 0.961
0.43 0.701 0.958
0.42 0.695 0.955
0.406 0.682 0.951
0.398 0.679 0.948
0.384 0.664 0.944
0.372 0.652 0.941
0.365 0.65 0.938
0.356 0.644 0.936
0.346 0.636 0.933
0.338 0.631 0.93
0.331 0.628 0.928
0.322 0.622 0.925
0.314 0.615 0.923
0.308 0.616 0.921
0.297 0.6 0.917
0.289 0.592 0.915
0.285 0.597 0.914
0.277 0.589 0.911
0.269 0.582 0.909
0.264 0.582 0.907
0.256 0.574 0.905
0.249 0.57 0.903
0.243 0.564 0.901
0.238 0.565 0.899
0.231 0.556 0.897
0.224 0.551 0.895
0.22 0.554 0.894
0.213 0.544 0.892
0.209 0.546 0.89
0.202 0.535 0.888
0.196 0.53 0.886
0.192 0.532 0.885
0.187 0.529 0.884
0.181 0.524 0.882
0.177 0.525 0.88
0.17 0.513 0.879
0.166 0.514 0.877
0.161 0.509 0.876
0.157 0.51 0.874
0.151 0.501 0.873
0.147 0.498 0.871
0.143 0.501 0.87
0.137 0.49 0.868
0.134 0.495 0.867
0.129 0.486 0.866
0.124 0.479 0.864
0.121 0.485 0.863
0.117 0.484 0.862
0.112 0.48 0.861
0.108 0.474 0.859
0.104 0.468 0.858
0.1 0.465 0.857
0.096 0.465 0.856
0.092 0.467 0.854
0.088 0.459 0.853
0.088 -6.932 0.854
0.146 -6.963 0.872
0.204 -6.934 0.89
0.261 -6.916 0.907
0.318 -6.895 0.925
0.377 -6.935 0.944
0.456 -7.363 0.968
0.537 -7.691 0.994
0.601 -7.688 1.014
0.67 -7.748 1.035
0.755 -7.981 1.061
0.842 -8.2 1.089
0.939 -8.481 1.119
0.131 -0.397 0.867
0.135 -0.403 0.868
0.139 -0.407 0.87
0.142 -0.403 0.87
0.145 -0.4 0.871
0.149 -0.4 0.872
0.151 -0.396 0.873
0.154 -0.391 0.874
0.158 -0.397 0.876
0.161 -0.392 0.876
0.164 -0.393 0.877
0.166 -0.386 0.878
0.168 -0.378 0.879
0.174 -0.388 0.88
0.175 -0.381 0.881
0.18 -0.386 0.882
0.182 -0.38 0.883
0.187 -0.386 0.884
0.188 -0.377 0.885
0.193 -0.382 0.886
0.197 -0.384 0.887
0.197 -0.375 0.888
0.203 -0.381 0.889
0.205 -0.376 0.89
0.208 -0.376 0.891
0.213 -0.381 0.893
0.217 -0.382 0.894
0.218 -0.374 0.894
0.224 -0.38 0.896
0.225 -0.373 0.896
0.231 -0.381 0.898
0.231 -0.371 0.898
0.234 -0.37 0.899
0.24 -0.375 0.901
0.242 -0.371 0.902
0.247 -0.375 0.903
0.247 -0.366 0.903
0.251 -0.367 0.905
0.253 -0.362 0.905
0.258 -0.366 0.907
0.261 -0.364 0.908
0.263 -0.36 0.908
0.265 -0.356 0.909
0.267 -0.353 0.909
0.273 -0.356 0.911
0.275 -0.352 0.912
0.278 -0.352 0.913
0.277 -0.343 0.913
0.285 -0.35 0.915
0.288 -0.348 0.916
0.29 -0.345 0.917
0.292 -0.343 0.917
0.296 -0.342 0.918
0.298 -0.339 0.919
0.302 -0.339 0.92
0.304 -0.336 0.921
0.309 -0.337 0.923
0.317 -0.342 0.925
0.323 -0.344 0.927
0.329 -0.348 0.929
0.328 -0.339 0.928
0.339 -0.349 0.932
0.337 -0.34 0.931
0.341 -0.34 0.933
0.35 -0.344 0.935
0.349 -0.338 0.935
0.352 -0.336 0.936
0.359 -0.339 0.938
0.361 -0.335 0.939
0.37 -0.34 0.941
0.371 -0.336 0.942
0.389 -0.35 0.947
0.507 -0.479 0.984
1.278 -1.337 1.224
1.294 -1.331 1.229
1.317 -1.333 1.237
1.426 -1.426 1.27
5.404 -5.568 2.51
5.488 -5.558 2.536
5.547 -5.522 2.555
5.638 -5.516 2.583
5.703 -5.485 2.603
5.774 -5.457 2.625
5.875 -5.457 2.657
5.886 -5.373 2.66
5.887 -5.28 2.661
6.045 -5.329 2.71
6.553 -5.682 2.868
6.611 -5.632 2.886
6.652 -5.568 2.899
6.729 -5.533 2.923
6.794 -5.488 2.943
6.863 -5.445 2.965
6.924 -5.395 2.984
7.044 -5.391 3.021
7.046 -5.295 3.022
7.174 -5.294 3.061
7.422 -5.379 3.139
7.511 -5.343 3.167
7.606 -5.311 3.196
7.69 -5.27 3.222
7.784 -5.235 3.252
7.886 -5.203 3.283
7.969 -5.158 3.309
8.055 -5.114 3.336
8.076 -5.027 3.343
8.329 -5.085 3.422
8.264 -4.944 3.401
8.205 -4.81 3.383
8.141 -4.676 3.363
5.929 -3.322 2.674
5.891 -3.232 2.662
5.888 -3.163 2.661
5.967 -3.138 2.685
6.042 -3.109 2.709
7.765 -3.922 3.246
6.254 -3.08 2.775
6.302 -3.035 2.79
6.375 -3.001 2.813
6.45 -2.967 2.836
0 0 0
0 0 0
0 0 0
0 0 0
0 0 0
0 0 0
0 0 0
0 0 0
0 0 0
0 0 0
0 0 0
0 0 0
7.193 -2.346 3.068
7.263 -2.298 3.089
7.334 -2.248 3.112
0 0 0
0 0 0
0 0 0
0 0 0
0 0 0
0 0 0
0 0 0
0 0 0
0 0 0
0 0 0
0 0 0
0 0 0
0 0 0
0 0 0
0 0 0
6.539 -1.01 2.864
6.707 -0.974 2.916
6.699 -0.912 2.914
6.808 -0.864 2.948
0 0 0
0 0 0
0 0 0
0 0 0
0 0 0
0 0 0
0 0 0
0 0 0
0 0 0
0 0 0
0 0 0
0 0 0
0 0 0
4.52 -0 2.235
4.547 0.041 2.243
4.528 0.081 2.237
4.536 0.122 2.239
4.467 0.16 2.218
4.508 0.202 2.231
4.444 0.239 2.211
4.462 0.28 2.217
4.411 0.317 2.201
4.506 0.364 2.23
4.383 0.394 2.192
4.361 0.431 2.185
4.353 0.47 2.183
4.342 0.508 2.179
4.549 0.574 2.244
4.45 0.601 2.213
4.603 0.665 2.261
4.774 0.734 2.314
5.304 0.865 2.479
5.915 1.021 2.669
5.909 1.075 2.667
5.892 1.127 2.662
5.912 1.186 2.668
5.855 1.229 2.651
5.879 1.289 2.658
5.833 1.334 2.644
5.842 1.391 2.646
5.785 1.433 2.629
5.1 1.309 2.415
5.136 1.367 2.426
4.989 1.376 2.381
5.08 1.45 2.409
4.948 1.46 2.368
5.01 1.527 2.387
4.88 1.535 2.347
4.999 1.622 2.384
5.636 1.888 2.582
5.471 1.887 2.531
5.601 1.988 2.571
5.583 2.038 2.566
5.562 2.087 2.559
5.549 2.139 2.555
5.533 2.189 2.55
5.408 2.195 2.511
5.362 2.232 2.497
5.349 2.283 2.493
0 0 0
3.976 1.771 2.065
3.951 1.801 2.057
5.414 2.542 2.513
5.393 2.591 2.507
5.289 2.599 2.474
3.396 1.69 1.884
3.392 1.725 1.883
2.708 1.398 1.67
2.642 1.393 1.649
2.638 1.42 1.648
2.625 1.443 1.644
2.619 1.469 1.642
2.597 1.487 1.635
2.543 1.485 1.619
2.538 1.511 1.617
2.524 1.533 1.613
2.517 1.559 1.611
2.511 1.586 1.608
2.501 1.61 1.606
2.489 1.633 1.602
2.482 1.66 1.6
2.468 1.681 1.595
2.454 1.703 1.591
1.517 1.048 1.299
1.516 1.067 1.299
1.515 1.086 1.298
1.505 1.098 1.295
1.499 1.113 1.293
1.467 1.108 1.283
1.397 1.071 1.262
1.351 1.052 1.247
1.3 1.028 1.231
1.251 1.004 1.216
1.215 0.991 1.205
1.178 0.975 1.193
1.145 0.962 1.183
1.118 0.954 1.174
1.114 0.968 1.173
1.109 0.98 1.172
1.107 0.995 1.171
1.097 1.003 1.168
1.097 1.02 1.168
1.093 1.035 1.167
1.083 1.042 1.164
1.079 1.056 1.162
1.072 1.067 1.16
1.069 1.083 1.159
1.067 1.099 1.159
1.059 1.11 1.156
1.046 1.114 1.152
1.008 1.089 1.14
0.964 1.055 1.126
0.938 1.043 1.119
0.912 1.028 1.11
0.898 1.029 1.106
0.888 1.034 1.103
0.884 1.049 1.102
0.889 1.074 1.103
0.88 1.081 1.1
0.79 0.975 1.072
0.743 0.927 1.058
0.72 0.911 1.051
0.698 0.896 1.044
0.675 0.878 1.037
0.657 0.868 1.031
0.636 0.851 1.024
0.616 0.836 1.018
0.6 0.825 1.013
0.579 0.808 1.007
0.563 0.796 1.002
0.547 0.785 0.997
0.532 0.774 0.992
0.519 0.767 0.988
0.505 0.757 0.984
0.484 0.733 0.977
0.475 0.732 0.974
0.462 0.722 0.97
0.448 0.708 0.966
0.439 0.705 0.963
0.425 0.693 0.959
0.415 0.687 0.956
0.405 0.681 0.952
0.397 0.679 0.95
0.38 0.656 0.945
0.372 0.652 0.942
0.363 0.648 0.939
0.356 0.645 0.937
0.346 0.636 0.934
0.338 0.632 0.931
0.33 0.628 0.929
0.322 0.622 0.926
0.314 0.615 0.924
0.305 0.608 0.921
0.299 0.608 0.919
0.292 0.602 0.917
0.284 0.596 0.915
0.276 0.59 0.912
0.271 0.59 0.911
0.263 0.582 0.908
0.256 0.574 0.906
0.249 0.57 0.904
0.243 0.565 0.902
0.238 0.566 0.9
0.231 0.558 0.898
0.224 0.551 0.896
0.22 0.554 0.895
0.213 0.544 0.892
0.208 0.546 0.891
0.202 0.537 0.889
0.197 0.538 0.888
0.191 0.532 0.886
0.186 0.529 0.884
0.181 0.523 0.882
0.175 0.516 0.881
0.17 0.513 0.879
0.164 0.504 0.877
0.161 0.511 0.876
0.155 0.502 0.875
0.151 0.503 0.873
0.147 0.5 0.872
0.142 0.499 0.871
0.137 0.49 0.869
0.133 0.487 0.868
0.129 0.486 0.866
0.125 0.487 0.865
0.12 0.476 0.864
0.116 0.475 0.862
0.112 0.471 0.861
0.108 0.472 0.86
0.104 0.467 0.858
0.1 0.465 0.857
0.096 0.46 0.856
0.092 0.459 0.855
0.088 0.46 0.854
0.088 -6.931 0.854
0.145 -6.954 0.873
0.203 -6.944 0.891
0.26 -6.915 0.909
0.317 -6.893 0.928
0.376 -6.928 0.946
0.455 -7.352 0.972
0.536 -7.698 0.998
0.6 -7.694 1.018
0.668 -7.747 1.04
0.752 -7.974 1.067
0.84 -8.207 1.095
0.935 -8.468 1.125
0.131 -0.398 0.868
0.135 -0.402 0.869
0.138 -0.401 0.87
0.141 -0.402 0.871
0.144 -0.399 0.872
0.148 -0.401 0.874
0.151 -0.396 0.874
0.153 -0.39 0.875
0.156 -0.387 0.876
0.161 -0.394 0.878
0.164 -0.392 0.879
0.165 -0.383 0.879
0.171 -0.394 0.881
0.173 -0.387 0.881
0.175 -0.38 0.882
0.178 -0.38 0.883
0.181 -0.38 0.884
0.184 -0.377 0.885
0.185 -0.368 0.885
0.192 -0.382 0.888
0.196 -0.384 0.889
0.198 -0.378 0.889
0.202 -0.382 0.891
0.206 -0.382 0.892
0.207 -0.376 0.893
0.213 -0.381 0.894
0.216 -0.38 0.895
0.219 -0.38 0.896
0.222 -0.377 0.897
0.224 -0.372 0.898
0.229 -0.377 0.899
0.23 -0.369 0.9
0.233 -0.368 0.901
0.236 -0.366 0.902
0.241 -0.37 0.903
0.243 -0.366 0.904
0.248 -0.37 0.906
0.248 -0.361 0.905
0.252 -0.362 0.907
0.253 -0.356 0.907
0.258 -0.36 0.909
0.262 -0.359 0.91
0.264 -0.356 0.911
0.267 -0.355 0.912
0.269 -0.352 0.912
0.275 -0.354 0.914
0.278 -0.352 0.915
0.281 -0.351 0.916
0.284 -0.351 0.917
0.286 -0.347 0.918
0.287 -0.342 0.918
0.291 -0.342 0.919
0.295 -0.342 0.921
0.301 -0.346 0.923
0.302 -0.339 0.923
0.301 -0.332 0.923
0.306 -0.333 0.924
0.314 -0.34 0.927
0.321 -0.344 0.929
0.328 -0.348 0.931
0.331 -0.346 0.932
0.338 -0.348 0.934
0.336 -0.34 0.934
0.34 -0.339 0.935
0.346 -0.341 0.937
0.348 -0.338 0.938
0.345 -0.328 0.937
0.356 -0.336 0.94
0.363 -0.338 0.942
0.369 -0.34 0.944
0.371 -0.336 0.945
0.404 -0.369 0.955
0.389 -0.345 0.951
1.28 -1.342 1.235
1.288 -1.327 1.238
1.311 -1.33 1.245
1.386 -1.387 1.269
5.434 -5.612 2.563
5.488 -5.572 2.58
5.553 -5.541 2.601
5.622 -5.514 2.623
5.681 -5.476 2.642
5.751 -5.448 2.664
5.901 -5.496 2.712
5.954 -5.449 2.729
5.88 -5.286 2.706
6.03 -5.328 2.754
6.578 -5.718 2.929
6.602 -5.638 2.936
6.643 -5.573 2.95
6.71 -5.53 2.971
6.778 -5.488 2.993
6.885 -5.476 3.027
6.97 -5.445 3.054
7.136 -5.475 3.107
7.052 -5.312 3.08
7.165 -5.299 3.116
7.403 -5.377 3.192
7.501 -5.349 3.224
7.583 -5.308 3.25
7.677 -5.274 3.28
7.769 -5.237 3.309
7.87 -5.205 3.342
7.955 -5.161 3.369
8.04 -5.116 3.396
8.076 -5.039 3.408
8.287 -5.07 3.475
8.248 -4.946 3.463
8.188 -4.811 3.443
8.119 -4.674 3.421
5.906 -3.317 2.714
5.887 -3.237 2.708
5.872 -3.161 2.703
5.945 -3.133 2.727
6.031 -3.111 2.754
7.754 -3.926 3.305
6.24 -3.081 2.821
6.287 -3.035 2.836
6.348 -2.995 2.855
6.423 -2.961 2.879
0 0 0
0 0 0
0 0 0
0 0 0
0 0 0
0 0 0
0 0 0
0 0 0
0 0 0
0 0 0
0 0 0
0 0 0
7.182 -2.348 3.122
7.244 -2.297 3.142
7.308 -2.245 3.162
0 0 0
0 0 0
0 0 0
0 0 0
0 0 0
0 0 0
0 0 0
0 0 0
0 0 0
0 0 0
0 0 0
0 0 0
0 0 0
0 0 0
0 0 0
6.53 -1.011 2.914
6.673 -0.972 2.959
6.691 -0.913 2.965
6.733 -0.857 2.978
0 0 0
0 0 0
0 0 0
0 0 0
0 0 0
0 0 0
0 0 0
0 0 0
0 0 0
0 0 0
0 0 0
0 0 0
0 0 0
0 0 0
0 0 0
4.537 0.082 2.276
4.529 0.122 2.274
4.507 0.162 2.267
4.495 0.202 2.263
4.48 0.242 2.258
4.476 0.282 2.257
4.541 0.327 2.278
4.694 0.381 2.327
4.57 0.412 2.287
4.624 0.459 2.304
4.333 0.468 2.211
4.72 0.554 2.335
4.376 0.553 2.225
5.969 0.813 2.734
5.946 0.864 2.727
5.933 0.917 2.723
5.911 0.968 2.716
5.898 1.021 2.712
5.886 1.073 2.708
5.865 1.124 2.701
5.845 1.175 2.694
5.843 1.229 2.694
5.824 1.28 2.688
5.804 1.33 2.681
5.795 1.383 2.678
5.778 1.434 2.673
5.748 1.482 2.663
5.744 1.536 2.662
5.189 1.435 2.485
5.71 1.637 2.651
5.129 1.518 2.466
5.672 1.737 2.639
5.036 1.588 2.436
5.529 1.801 2.594
5.561 1.867 2.604
5.504 1.903 2.585
5.583 1.987 2.611
5.57 2.038 2.607
5.555 2.089 2.602
5.543 2.142 2.598
5.517 2.188 2.59
5.39 2.193 2.549
5.35 2.232 2.536
5.344 2.286 2.534
4.024 1.754 2.112
4.126 1.843 2.145
3.971 1.815 2.096
5.4 2.542 2.552
5.38 2.591 2.546
5.301 2.611 2.521
3.388 1.69 1.909
3.389 1.728 1.91
2.695 1.395 1.688
2.636 1.393 1.669
2.632 1.42 1.667
2.619 1.443 1.663
2.612 1.469 1.661
2.591 1.487 1.654
2.536 1.484 1.637
2.531 1.511 1.635
2.518 1.533 1.631
2.511 1.559 1.629
2.505 1.586 1.627
2.489 1.606 1.622
2.482 1.632 1.62
2.478 1.661 1.618
2.462 1.681 1.613
2.447 1.703 1.608
1.515 1.049 1.31
1.512 1.067 1.31
1.503 1.08 1.307
1.501 1.098 1.306
1.487 1.107 1.302
1.461 1.106 1.293
1.399 1.076 1.273
1.347 1.052 1.257
1.297 1.028 1.241
1.25 1.006 1.226
1.212 0.991 1.214
1.176 0.975 1.202
1.135 0.956 1.189
1.116 0.955 1.183
1.113 0.97 1.182
1.114 0.987 1.182
1.103 0.994 1.179
1.102 1.011 1.178
1.093 1.019 1.176
1.092 1.036 1.175
1.081 1.043 1.172
1.078 1.058 1.171
1.07 1.068 1.168
1.067 1.083 1.167
1.065 1.1 1.167
1.055 1.109 1.164
1.042 1.113 1.159
1.026 1.113 1.154
0.966 1.061 1.135
0.948 1.058 1.129
0.912 1.031 1.118
0.9 1.035 1.114
0.883 1.031 1.109
0.874 1.038 1.106
0.884 1.07 1.109
0.876 1.079 1.106
0.795 0.986 1.08
0.741 0.927 1.063
0.723 0.918 1.057
0.697 0.896 1.049
0.674 0.879 1.042
0.656 0.869 1.036
0.634 0.851 1.029
0.614 0.836 1.023
0.593 0.818 1.016
0.578 0.808 1.011
0.562 0.797 1.006
0.546 0.785 1.001
0.53 0.773 0.996
0.517 0.766 0.992
0.504 0.757 0.987
0.488 0.743 0.982
0.475 0.733 0.978
0.461 0.722 0.974
0.447 0.709 0.969
0.437 0.705 0.966
0.428 0.701 0.963
0.414 0.687 0.959
0.405 0.682 0.956
0.393 0.672 0.952
0.383 0.664 0.949
0.374 0.661 0.946
0.363 0.649 0.942
0.354 0.643 0.939
0.346 0.638 0.937
0.337 0.633 0.934
0.329 0.627 0.931
0.321 0.622 0.929
0.313 0.615 0.926
0.304 0.609 0.924
0.295 0.6 0.921
0.291 0.602 0.919
0.282 0.594 0.917
0.276 0.59 0.914
0.267 0.58 0.912
0.262 0.582 0.91
0.254 0.572 0.907
0.248 0.57 0.906
0.244 0.574 0.904
0.237 0.566 0.902
0.23 0.558 0.9
0.225 0.559 0.898
0.219 0.555 0.896
0.212 0.544 0.894
0.207 0.545 0.893
0.201 0.538 0.891
0.197 0.538 0.889
0.191 0.531 0.887
0.184 0.519 0.885
0.18 0.524 0.884
0.176 0.525 0.882
0.171 0.524 0.881
0.165 0.512 0.879
0.16 0.511 0.878
0.155 0.503 0.876
0.151 0.507 0.875
0.146 0.5 0.873
0.142 0.498 0.872
0.137 0.49 0.87
0.132 0.489 0.869
0.128 0.487 0.867
0.124 0.487 0.866
0.12 0.485 0.865
0.115 0.474 0.863
0.111 0.471 0.862
0.107 0.473 0.861
0.103 0.469 0.859
0.099 0.465 0.858
0.095 0.461 0.857
0.091 0.461 0.855
0.088 0.461 0.854
0.087 -6.932 0.855
0.145 -6.954 0.874
0.202 -6.937 0.893
0.259 -6.915 0.911
0.316 -6.894 0.93
0.374 -6.922 0.949
0.453 -7.35 0.975
0.535 -7.699 1.002
0.598 -7.691 1.022
0.666 -7.733 1.044
0.75 -7.968 1.072
0.838 -8.204 1.101
0.933 -8.472 1.132
0.13 -0.399 0.869
0.134 -0.403 0.87
0.137 -0.402 0.871
0.141 -0.403 0.873
0.146 -0.411 0.874
0.147 -0.398 0.875
0.15 -0.396 0.876
0.153 -0.392 0.876
0.156 -0.388 0.877
0.16 -0.394 0.879
0.163 -0.392 0.88
0.166 -0.392 0.881
0.168 -0.385 0.881
0.17 -0.379 0.882
0.175 -0.386 0.884
0.177 -0.38 0.884
0.181 -0.38 0.885
0.183 -0.378 0.886
0.188 -0.384 0.888
0.191 -0.38 0.889
0.195 -0.384 0.89
0.2 -0.387 0.892
0.201 -0.381 0.892
0.205 -0.381 0.893
0.207 -0.377 0.894
0.212 -0.38 0.896
0.214 -0.378 0.897
0.218 -0.377 0.898
0.221 -0.376 0.899
0.222 -0.371 0.899
0.226 -0.37 0.9
0.231 -0.376 0.902
0.235 -0.376 0.903
0.238 -0.375 0.904
0.24 -0.37 0.905
0.243 -0.367 0.906
0.247 -0.369 0.907
0.251 -0.369 0.908
0.25 -0.36 0.908
0.256 -0.364 0.91
0.259 -0.362 0.911
0.261 -0.359 0.912
0.263 -0.356 0.913
0.266 -0.354 0.914
0.268 -0.35 0.914
0.274 -0.354 0.916
0.277 -0.353 0.917
0.279 -0.349 0.918
0.281 -0.346 0.918
0.286 -0.348 0.92
0.29 -0.349 0.921
0.292 -0.344 0.922
0.295 -0.343 0.923
0.296 -0.339 0.923
0.301 -0.34 0.925
0.306 -0.342 0.927
0.304 -0.332 0.926
0.315 -0.342 0.929
0.32 -0.344 0.931
0.327 -0.348 0.934
0.33 -0.345 0.934
0.33 -0.339 0.935
0.335 -0.34 0.936
0.338 -0.338 0.937
0.345 -0.341 0.939
0.347 -0.338 0.94
0.35 -0.335 0.941
0.355 -0.336 0.943
0.362 -0.338 0.945
0.368 -0.34 0.947
0.369 -0.336 0.947
0.401 -0.366 0.958
0.514 -0.49 0.995
1.281 -1.347 1.246
1.284 -1.327 1.247
1.31 -1.332 1.256
1.367 -1.37 1.274
5.494 -5.69 2.627
5.512 -5.609 2.632
5.541 -5.542 2.642
5.64 -5.545 2.675
5.662 -5.471 2.682
5.778 -5.488 2.72
5.978 -5.582 2.785
5.943 -5.452 2.774
5.862 -5.283 2.747
6.018 -5.331 2.799
6.562 -5.717 2.977
6.58 -5.632 2.983
6.636 -5.58 3.001
6.762 -5.587 3.042
6.804 -5.522 3.056
6.943 -5.536 3.102
7.049 -5.52 3.136
7.136 -5.488 3.165
7.189 -5.43 3.182
7.302 -5.416 3.219
7.385 -5.377 3.246
7.483 -5.349 3.279
7.57 -5.311 3.307
7.661 -5.275 3.337
7.754 -5.239 3.367
7.849 -5.203 3.398
7.943 -5.166 3.429
8.021 -5.116 3.455
8.059 -5.041 3.467
8.192 -5.024 3.511
8.198 -4.927 3.513
0 0 0
8.093 -4.67 3.478
5.897 -3.32 2.759
5.876 -3.239 2.752
5.866 -3.166 2.749
5.928 -3.132 2.769
6.034 -3.12 2.804
7.744 -3.93 3.364
6.215 -3.076 2.863
6.255 -3.026 2.876
6.333 -2.995 2.902
6.405 -2.96 2.925
0 0 0
0 0 0
0 0 0
0 0 0
0 0 0
0 0 0
0 0 0
0 0 0
0 0 0
0 0 0
0 0 0
0 0 0
7.165 -2.348 3.174
7.232 -2.299 3.196
7.302 -2.249 3.219
0 0 0
0 0 0
0 0 0
0 0 0
0 0 0
0 0 0
0 0 0
0 0 0
0 0 0
0 0 0
0 0 0
0 0 0
0 0 0
0 0 0
0 0 0
6.513 -1.011 2.961
6.678 -0.975 3.015
6.684 -0.914 3.017
6.781 -0.865 3.048
0 0 0
0 0 0
0 0 0
0 0 0
0 0 0
0 0 0
0 0 0
0 0 0
0 0 0
0 0 0
0 0 0
0 0 0
0 0 0
0 0 0
0 0 0
4.537 0.082 2.313
4.518 0.122 2.307
4.506 0.162 2.303
4.489 0.202 2.297
4.468 0.242 2.29
4.471 0.282 2.292
4.573 0.33 2.325
4.716 0.383 2.372
4.613 0.417 2.338
4.648 0.462 2.35
5.579 0.607 2.655
5.985 0.707 2.787
5.969 0.76 2.782
5.952 0.813 2.777
5.932 0.864 2.77
5.921 0.917 2.767
5.907 0.97 2.762
5.89 1.022 2.756
5.879 1.075 2.753
5.86 1.126 2.747
5.834 1.176 2.738
5.829 1.229 2.736
5.804 1.279 2.728
5.798 1.332 2.726
5.776 1.382 2.719
5.764 1.434 2.715
5.74 1.483 2.707
5.731 1.536 2.704
5.712 1.586 2.698
5.707 1.64 2.696
5.682 1.688 2.688
5.664 1.738 2.683
5.656 1.792 2.68
5.521 1.803 2.636
5.577 1.877 2.654
5.6 1.941 2.661
5.574 1.988 2.653
5.57 2.043 2.652
5.542 2.089 2.643
5.535 2.143 2.64
5.505 2.189 2.63
5.37 2.19 2.586
5.346 2.236 2.578
5.33 2.285 2.573
4.266 1.867 2.224
5.298 2.384 2.562
5.405 2.492 2.598
5.394 2.545 2.594
5.372 2.593 2.587
5.301 2.617 2.564
3.382 1.691 1.934
3.378 1.727 1.933
2.678 1.389 1.704
2.636 1.396 1.69
2.624 1.419 1.686
2.612 1.442 1.682
2.605 1.468 1.68
2.583 1.486 1.673
2.529 1.484 1.655
2.525 1.511 1.654
2.512 1.533 1.65
2.511 1.563 1.649
2.497 1.584 1.645
2.489 1.61 1.642
2.476 1.632 1.638
2.47 1.66 1.636
2.463 1.686 1.633
2.448 1.707 1.628
1.513 1.051 1.322
1.516 1.073 1.323
1.5 1.08 1.318
1.498 1.099 1.317
1.49 1.113 1.315
1.455 1.104 1.303
1.396 1.076 1.284
1.343 1.051 1.267
1.295 1.029 1.251
1.245 1.004 1.234
1.205 0.987 1.221
1.171 0.974 1.21
1.131 0.955 1.197
1.109 0.952 1.19
1.106 0.966 1.189
1.103 0.98 1.188
1.101 0.995 1.187
1.093 1.004 1.184
1.089 1.018 1.183
1.089 1.036 1.183
1.078 1.042 1.179
1.074 1.057 1.178
1.067 1.068 1.176
1.064 1.083 1.175
1.061 1.098 1.174
1.053 1.109 1.171
1.048 1.123 1.17
1.037 1.13 1.166
1.006 1.112 1.156
0.994 1.117 1.152
0.918 1.042 1.127
0.929 1.075 1.131
0.888 1.041 1.117
0.869 1.034 1.111
0.882 1.07 1.115
0.878 1.085 1.114
0.787 0.978 1.084
0.739 0.927 1.068
0.721 0.918 1.063
0.695 0.896 1.054
0.672 0.879 1.047
0.655 0.869 1.041
0.633 0.851 1.034
0.607 0.826 1.025
0.596 0.824 1.022
0.576 0.808 1.015
0.56 0.796 1.01
0.545 0.785 1.005
0.529 0.774 1
0.516 0.766 0.995
0.503 0.757 0.991
0.486 0.742 0.986
0.473 0.732 0.981
0.46 0.722 0.977
0.45 0.718 0.974
0.436 0.705 0.969
0.426 0.7 0.966
0.413 0.687 0.962
0.403 0.682 0.959
0.391 0.671 0.955
0.382 0.664 0.951
0.37 0.652 0.947
0.362 0.65 0.945
0.354 0.645 0.942
0.345 0.638 0.939
0.336 0.632 0.936
0.328 0.626 0.934
0.32 0.622 0.931
0.312 0.615 0.928
0.303 0.608 0.926
0.295 0.6 0.923
0.286 0.592 0.92
0.282 0.595 0.919
0.274 0.589 0.916
0.269 0.588 0.914
0.262 0.582 0.912
0.254 0.574 0.91
0.25 0.579 0.908
0.241 0.564 0.905
0.236 0.566 0.904
0.229 0.557 0.901
0.225 0.561 0.9
0.218 0.551 0.898
0.211 0.543 0.895
0.207 0.545 0.894
0.2 0.537 0.892
0.194 0.528 0.89
0.19 0.531 0.889
0.185 0.528 0.887
0.18 0.524 0.885
0.173 0.513 0.883
0.169 0.512 0.882
0.164 0.513 0.88
0.16 0.511 0.879
0.156 0.513 0.877
0.15 0.499 0.875
0.145 0.498 0.874
0.141 0.501 0.873
0.136 0.49 0.871
0.132 0.491 0.87
0.128 0.488 0.868
0.123 0.482 0.867
0.12 0.487 0.865
0.115 0.482 0.864
0.111 0.471 0.863
0.107 0.47 0.861
0.103 0.461 0.86
0.099 0.467 0.859
0.095 0.463 0.857
0.091 0.471 0.856
0.087 0.461 0.855
0.087 -6.923 0.855
0.145 -6.954 0.874
0.202 -6.936 0.893
0.259 -6.915 0.912
0.316 -6.895 0.931
0.374 -6.935 0.951
0.452 -7.335 0.976
0.535 -7.713 1.004
0.598 -7.697 1.025
0.665 -7.737 1.047
0.748 -7.965 1.075
0.836 -8.191 1.104
0.93 -8.454 1.135
0.13 -0.395 0.869
0.134 -0.403 0.871
0.137 -0.401 0.872
0.141 -0.403 0.873
0.144 -0.4 0.874
0.147 -0.397 0.875
0.15 -0.395 0.876
0.154 -0.402 0.878
0.157 -0.397 0.878
0.159 -0.393 0.879
0.163 -0.392 0.88
0.165 -0.384 0.881
0.168 -0.386 0.882
0.172 -0.388 0.883
0.175 -0.384 0.884
0.179 -0.387 0.886
0.182 -0.388 0.887
0.185 -0.384 0.888
0.186 -0.378 0.888
0.19 -0.378 0.889
0.194 -0.38 0.891
0.199 -0.384 0.892
0.201 -0.38 0.893
0.202 -0.374 0.893
0.209 -0.383 0.896
0.21 -0.376 0.896
0.214 -0.378 0.897
0.218 -0.378 0.899
0.221 -0.377 0.9
0.225 -0.379 0.901
0.226 -0.371 0.901
0.231 -0.376 0.903
0.235 -0.377 0.904
0.238 -0.375 0.905
0.238 -0.365 0.905
0.244 -0.371 0.907
0.246 -0.369 0.908
0.248 -0.364 0.909
0.254 -0.368 0.911
0.252 -0.356 0.91
0.255 -0.355 0.911
0.261 -0.36 0.913
0.264 -0.358 0.914
0.265 -0.353 0.914
0.267 -0.35 0.915
0.271 -0.35 0.916
0.277 -0.353 0.918
0.279 -0.351 0.919
0.284 -0.352 0.921
0.286 -0.35 0.921
0.289 -0.348 0.922
0.293 -0.347 0.923
0.294 -0.342 0.924
0.296 -0.339 0.925
0.296 -0.332 0.924
0.3 -0.333 0.926
0.307 -0.338 0.928
0.313 -0.341 0.93
0.32 -0.344 0.933
0.326 -0.346 0.934
0.334 -0.352 0.937
0.334 -0.346 0.937
0.333 -0.338 0.937
0.337 -0.336 0.938
0.344 -0.34 0.941
0.347 -0.338 0.941
0.35 -0.336 0.942
0.354 -0.335 0.944
0.362 -0.339 0.946
0.367 -0.339 0.948
0.369 -0.336 0.949
0.379 -0.342 0.952
0.517 -0.494 0.998
1.275 -1.343 1.25
1.287 -1.333 1.254
1.301 -1.324 1.258
1.338 -1.341 1.27
5.581 -5.789 2.679
5.658 -5.768 2.704
5.713 -5.724 2.722
5.792 -5.704 2.748
5.722 -5.536 2.725
5.926 -5.638 2.793
5.994 -5.604 2.816
5.942 -5.458 2.798
5.855 -5.283 2.769
6.047 -5.363 2.833
6.554 -5.718 3.002
6.634 -5.687 3.028
6.707 -5.648 3.052
6.796 -5.623 3.082
6.87 -5.584 3.107
6.963 -5.559 3.137
7.04 -5.52 3.163
7.127 -5.488 3.192
7.216 -5.457 3.221
7.296 -5.418 3.248
7.391 -5.389 3.279
7.476 -5.351 3.308
7.563 -5.313 3.336
7.652 -5.275 3.366
7.747 -5.241 3.397
7.839 -5.203 3.428
7.933 -5.166 3.459
8.009 -5.115 3.484
8.092 -5.068 3.512
8.282 -5.086 3.575
8.076 -4.86 3.507
8.11 -4.783 3.518
8.023 -4.635 3.489
5.887 -3.318 2.78
5.875 -3.243 2.776
5.866 -3.17 2.773
5.925 -3.134 2.793
6.028 -3.121 2.827
7.735 -3.93 3.393
6.213 -3.079 2.888
6.255 -3.031 2.902
6.326 -2.996 2.926
6.396 -2.959 2.949
6.473 -2.926 2.975
7.644 -3.38 3.363
7.604 -3.281 3.35
7.575 -3.188 3.34
7.539 -3.093 3.328
7.517 -3.005 3.321
7.463 -2.906 3.303
0 0 0
7.404 -2.73 3.284
0 0 0
7.357 -2.563 3.268
0 0 0
7.172 -2.354 3.207
7.228 -2.3 3.225
7.301 -2.251 3.249
0 0 0
0 0 0
0 0 0
0 0 0
0 0 0
0 0 0
0 0 0
0 0 0
0 0 0
0 0 0
0 0 0
0 0 0
0 0 0
0 0 0
0 0 0
6.512 -1.012 2.988
6.677 -0.976 3.042
6.667 -0.913 3.039
6.775 -0.865 3.075
0 0 0
0 0 0
0 0 0
0 0 0
0 0 0
0 0 0
0 0 0
0 0 0
0 0 0
0 0 0
0 0 0
0 0 0
0 0 0
0 0 0
0 0 0
4.531 0.082 2.33
4.518 0.122 2.326
4.501 0.162 2.32
4.492 0.203 2.317
4.47 0.242 2.31
4.471 0.283 2.31
4.592 0.332 2.35
4.686 0.381 2.382
4.607 0.417 2.355
4.638 0.462 2.366
5.95 0.649 2.801
5.991 0.709 2.815
5.948 0.758 2.8
5.952 0.814 2.802
5.91 0.862 2.788
5.911 0.917 2.788
5.89 0.968 2.781
5.874 1.02 2.776
5.862 1.073 2.772
5.828 1.121 2.761
5.838 1.178 2.764
5.785 1.222 2.746
5.798 1.279 2.751
5.757 1.324 2.737
5.761 1.38 2.738
5.736 1.429 2.73
5.733 1.483 2.729
5.708 1.532 2.721
5.708 1.587 2.721
5.679 1.634 2.711
5.681 1.69 2.712
5.646 1.735 2.7
5.647 1.791 2.701
5.503 1.799 2.653
5.629 1.897 2.695
5.559 1.929 2.671
5.591 1.997 2.682
5.562 2.043 2.672
5.549 2.095 2.668
5.539 2.148 2.665
5.528 2.201 2.661
5.368 2.192 2.608
5.337 2.235 2.598
5.331 2.288 2.595
5.311 2.337 2.589
5.292 2.385 2.583
5.403 2.494 2.619
5.388 2.545 2.615
5.366 2.594 2.607
5.323 2.631 2.593
3.379 1.692 1.948
3.378 1.729 1.947
2.675 1.389 1.714
2.634 1.397 1.7
2.62 1.419 1.696
2.608 1.442 1.692
2.602 1.469 1.69
2.579 1.486 1.682
2.535 1.489 1.668
2.52 1.51 1.663
2.513 1.536 1.66
2.501 1.559 1.656
2.494 1.585 1.654
2.488 1.611 1.652
2.473 1.632 1.647
2.467 1.66 1.645
2.452 1.681 1.64
2.443 1.706 1.637
1.51 1.05 1.327
1.506 1.067 1.326
1.498 1.08 1.323
1.495 1.098 1.323
1.489 1.113 1.32
1.449 1.101 1.307
1.394 1.076 1.289
1.335 1.046 1.269
1.292 1.028 1.255
1.245 1.006 1.239
1.202 0.985 1.225
1.163 0.968 1.212
1.131 0.957 1.202
1.109 0.953 1.194
1.103 0.964 1.193
1.108 0.986 1.194
1.1 0.996 1.192
1.099 1.012 1.191
1.089 1.02 1.188
1.087 1.035 1.187
1.076 1.042 1.184
1.074 1.058 1.183
1.066 1.068 1.18
1.062 1.083 1.179
1.059 1.098 1.178
1.051 1.109 1.175
1.048 1.124 1.174
1.045 1.141 1.173
1.023 1.134 1.166
1.013 1.143 1.163
0.954 1.089 1.143
0.941 1.092 1.139
0.942 1.112 1.139
0.863 1.028 1.113
0.882 1.072 1.119
0.877 1.085 1.118
0.787 0.979 1.088
0.738 0.927 1.071
0.715 0.911 1.064
0.694 0.896 1.057
0.676 0.886 1.051
0.653 0.868 1.043
0.633 0.852 1.036
0.612 0.836 1.029
0.591 0.817 1.022
0.58 0.816 1.019
0.56 0.798 1.012
0.543 0.784 1.006
0.528 0.773 1.002
0.516 0.767 0.998
0.496 0.746 0.991
0.481 0.735 0.986
0.472 0.731 0.983
0.458 0.721 0.978
0.444 0.708 0.974
0.436 0.706 0.971
0.426 0.701 0.968
0.412 0.687 0.963
0.403 0.682 0.96
0.394 0.679 0.957
0.381 0.665 0.953
0.37 0.653 0.949
0.362 0.65 0.946
0.353 0.645 0.944
0.344 0.639 0.941
0.336 0.633 0.938
0.327 0.626 0.935
0.319 0.622 0.932
0.311 0.615 0.93
0.303 0.609 0.927
0.294 0.6 0.924
0.289 0.601 0.922
0.282 0.596 0.92
0.274 0.59 0.917
0.266 0.58 0.915
0.261 0.582 0.913
0.254 0.574 0.91
0.247 0.57 0.908
0.243 0.574 0.907
0.236 0.566 0.905
0.229 0.556 0.902
0.225 0.561 0.901
0.217 0.551 0.899
0.211 0.543 0.896
0.206 0.544 0.895
0.2 0.539 0.893
0.196 0.538 0.891
0.19 0.531 0.889
0.184 0.526 0.887
0.179 0.522 0.886
0.175 0.523 0.884
0.17 0.523 0.883
0.164 0.512 0.881
0.159 0.51 0.879
0.156 0.514 0.878
0.15 0.508 0.876
0.145 0.498 0.874
0.141 0.495 0.873
0.136 0.493 0.872
0.132 0.491 0.87
0.128 0.489 0.869
0.123 0.482 0.867
0.119 0.488 0.866
0.115 0.481 0.864
0.111 0.478 0.863
0.106 0.469 0.862
0.103 0.469 0.86
0.099 0.468 0.859
0.095 0.463 0.858
0.091 0.459 0.856
0.087 0.462 0.855
0.087 -6.932 0.856
0.144 -6.955 0.875
0.201 -6.935 0.895
0.258 -6.917 0.914
0.315 -6.894 0.933
0.373 -6.923 0.953
0.45 -7.33 0.98
0.533 -7.705 1.008
0.596 -7.694 1.029
0.663 -7.738 1.052
0.747 -7.971 1.08
0.835 -8.21 1.11
0.929 -8.463 1.142
0.13 -0.397 0.87
0.133 -0.402 0.872
0.137 -0.402 0.873
0.14 -0.403 0.874
0.143 -0.399 0.875
0.146 -0.398 0.876
0.149 -0.396 0.877
0.153 -0.395 0.878
0.157 -0.398 0.88
0.159 -0.393 0.88
0.162 -0.393 0.882
0.164 -0.385 0.882
0.168 -0.387 0.883
0.171 -0.385 0.884
0.174 -0.386 0.886
0.176 -0.378 0.886
0.18 -0.381 0.888
0.183 -0.379 0.889
0.186 -0.379 0.89
0.19 -0.38 0.891
0.194 -0.382 0.892
0.199 -0.388 0.894
0.199 -0.378 0.894
0.202 -0.374 0.895
0.205 -0.375 0.896
0.211 -0.382 0.898
0.213 -0.377 0.899
0.216 -0.377 0.9
0.22 -0.376 0.901
0.223 -0.376 0.902
0.228 -0.379 0.904
0.23 -0.376 0.905
0.234 -0.375 0.906
0.236 -0.372 0.907
0.239 -0.37 0.908
0.241 -0.367 0.908
0.241 -0.358 0.908
0.247 -0.363 0.91
0.248 -0.357 0.911
0.251 -0.357 0.912
0.259 -0.364 0.914
0.259 -0.358 0.915
0.265 -0.361 0.916
0.264 -0.352 0.916
0.27 -0.357 0.918
0.272 -0.352 0.919
0.275 -0.352 0.92
0.277 -0.349 0.921
0.282 -0.351 0.922
0.286 -0.35 0.924
0.288 -0.347 0.924
0.29 -0.344 0.925
0.294 -0.343 0.926
0.295 -0.339 0.927
0.3 -0.341 0.929
0.302 -0.337 0.929
0.306 -0.337 0.93
0.313 -0.342 0.933
0.319 -0.344 0.935
0.325 -0.346 0.937
0.328 -0.344 0.938
0.329 -0.339 0.938
0.335 -0.342 0.94
0.341 -0.344 0.942
0.343 -0.34 0.943
0.344 -0.336 0.943
0.347 -0.334 0.945
0.353 -0.336 0.946
0.363 -0.341 0.95
0.366 -0.34 0.951
0.37 -0.338 0.952
0.41 -0.38 0.966
0.511 -0.49 1
1.274 -1.345 1.26
1.283 -1.331 1.262
1.3 -1.327 1.268
1.322 -1.327 1.276
1.445 -1.435 1.318
5.644 -5.768 2.745
5.708 -5.734 2.767
5.781 -5.708 2.792
5.85 -5.677 2.816
5.912 -5.638 2.836
5.981 -5.606 2.86
5.927 -5.458 2.842
5.854 -5.296 2.817
6.121 -5.444 2.908
6.544 -5.723 3.051
6.618 -5.687 3.077
6.698 -5.654 3.104
6.78 -5.623 3.132
6.853 -5.584 3.157
6.942 -5.556 3.187
7.026 -5.523 3.215
7.116 -5.494 3.246
7.195 -5.455 3.273
7.283 -5.421 3.303
7.365 -5.383 3.331
7.455 -5.349 3.361
7.546 -5.315 3.392
7.637 -5.279 3.423
7.725 -5.239 3.453
7.819 -5.203 3.485
7.913 -5.166 3.517
7.989 -5.115 3.543
8.092 -5.081 3.578
8.268 -5.09 3.638
8.183 -4.937 3.609
8.132 -4.808 3.591
5.828 -3.362 2.808
5.865 -3.314 2.821
5.856 -3.24 2.818
5.885 -3.188 2.827
5.919 -3.139 2.839
7.792 -4.058 3.476
7.733 -3.939 3.456
6.185 -3.072 2.929
6.259 -3.04 2.954
7.734 -3.681 3.456
6.394 -2.966 3
7.679 -3.487 3.437
7.6 -3.368 3.41
7.587 -3.282 3.406
7.543 -3.182 3.391
0 0 0
7.48 -2.998 3.37
7.443 -2.905 3.357
7.43 -2.823 3.353
7.385 -2.73 3.337
7.351 -2.642 3.326
7.323 -2.557 3.316
7.221 -2.448 3.282
7.162 -2.356 3.262
7.216 -2.302 3.28
7.217 -2.231 3.28
7.194 -2.153 3.273
7.154 -2.07 3.259
0 0 0
7.093 -1.914 3.238
0 0 0
7.042 -1.764 3.221
0 0 0
0 0 0
0 0 0
0 0 0
0 0 0
0 0 0
0 0 0
0 0 0
0 0 0
6.493 -1.011 3.034
6.658 -0.975 3.09
6.664 -0.915 3.092
6.761 -0.866 3.125
0 0 0
0 0 0
0 0 0
0 0 0
0 0 0
0 0 0
0 0 0
0 0 0
0 0 0
0 0 0
0 0 0
0 0 0
0 0 0
0 0 0
0 0 0
4.576 0.083 2.382
4.652 0.126 2.408
4.709 0.17 2.427
4.534 0.205 2.368
4.476 0.243 2.348
4.536 0.287 2.369
4.608 0.334 2.393
4.72 0.385 2.431
4.599 0.417 2.39
4.771 0.476 2.449
5.988 0.655 2.863
5.976 0.709 2.858
5.962 0.762 2.853
5.953 0.816 2.851
5.929 0.867 2.842
5.92 0.921 2.839
5.888 0.971 2.828
5.876 1.023 2.824
5.863 1.076 2.82
5.849 1.128 2.815
5.823 1.178 2.806
5.819 1.232 2.805
5.788 1.28 2.794
5.783 1.334 2.793
5.733 1.377 2.776
5.751 1.436 2.782
5.678 1.472 2.757
5.716 1.538 2.77
5.637 1.571 2.743
5.688 1.641 2.761
5.595 1.668 2.729
5.624 1.732 2.739
5.574 1.772 2.722
5.492 1.8 2.694
5.522 1.865 2.704
5.455 1.897 2.681
5.487 1.964 2.692
5.425 1.997 2.671
5.412 2.047 2.667
5.392 2.095 2.66
5.385 2.148 2.657
5.355 2.192 2.647
5.333 2.239 2.64
5.317 2.288 2.634
5.299 2.337 2.628
5.28 2.385 2.622
5.402 2.5 2.663
5.361 2.539 2.649
5.361 2.598 2.649
5.333 2.643 2.64
3.37 1.691 1.972
3.366 1.727 1.971
2.661 1.386 1.731
2.625 1.396 1.719
2.614 1.419 1.715
2.602 1.442 1.711
2.596 1.469 1.709
2.571 1.485 1.701
2.528 1.489 1.686
2.473 1.485 1.667
2.505 1.535 1.678
2.457 1.534 1.662
2.486 1.583 1.672
2.41 1.564 1.646
2.473 1.637 1.667
2.462 1.661 1.664
2.454 1.687 1.661
2.434 1.704 1.654
1.51 1.053 1.34
1.503 1.067 1.337
1.494 1.08 1.335
1.492 1.098 1.334
1.485 1.113 1.331
1.443 1.099 1.317
1.383 1.07 1.297
1.337 1.051 1.281
1.284 1.024 1.263
1.24 1.004 1.248
1.201 0.987 1.235
1.166 0.974 1.223
1.128 0.957 1.21
1.104 0.951 1.202
1.104 0.968 1.202
1.101 0.982 1.201
1.097 0.995 1.199
1.089 1.004 1.197
1.086 1.02 1.196
1.083 1.035 1.195
1.073 1.042 1.191
1.071 1.058 1.191
1.063 1.068 1.188
1.06 1.083 1.187
1.056 1.098 1.185
1.054 1.116 1.185
1.046 1.126 1.182
1.043 1.141 1.181
1.039 1.157 1.18
1.029 1.166 1.176
0.985 1.131 1.161
1.01 1.184 1.17
0.939 1.111 1.146
0.863 1.031 1.12
0.919 1.125 1.139
0.922 1.15 1.14
0.777 0.968 1.091
0.736 0.927 1.077
0.713 0.911 1.069
0.692 0.896 1.062
0.669 0.879 1.054
0.646 0.86 1.046
0.63 0.851 1.041
0.605 0.827 1.032
0.592 0.823 1.028
0.57 0.801 1.02
0.558 0.797 1.016
0.541 0.784 1.01
0.526 0.773 1.005
0.514 0.766 1.001
0.5 0.757 0.997
0.485 0.744 0.991
0.47 0.731 0.986
0.458 0.722 0.982
0.443 0.708 0.977
0.434 0.705 0.974
0.421 0.693 0.97
0.415 0.696 0.968
0.402 0.683 0.963
0.389 0.671 0.959
0.38 0.665 0.956
0.371 0.66 0.953
0.36 0.649 0.949
0.348 0.636 0.945
0.343 0.638 0.943
0.332 0.625 0.939
0.326 0.625 0.937
0.318 0.622 0.935
0.31 0.615 0.932
0.302 0.608 0.929
0.296 0.608 0.927
0.288 0.6 0.924
0.281 0.596 0.922
0.272 0.586 0.919
0.266 0.582 0.917
0.261 0.583 0.915
0.253 0.575 0.912
0.247 0.57 0.91
0.24 0.564 0.908
0.235 0.566 0.906
0.228 0.558 0.904
0.224 0.561 0.903
0.217 0.551 0.9
0.21 0.544 0.898
0.205 0.544 0.896
0.199 0.536 0.894
0.195 0.541 0.893
0.189 0.531 0.891
0.184 0.528 0.889
0.179 0.524 0.887
0.174 0.523 0.886
0.169 0.522 0.884
0.163 0.512 0.882
0.159 0.509 0.88
0.155 0.516 0.879
0.15 0.51 0.877
0.145 0.501 0.876
0.14 0.498 0.874
0.136 0.495 0.873
0.132 0.493 0.871
0.127 0.488 0.87
0.123 0.485 0.868
0.119 0.485 0.867
0.114 0.481 0.865
0.11 0.477 0.864
0.106 0.479 0.863
0.102 0.47 0.861
0.098 0.468 0.86
0.094 0.463 0.858
0.09 0.459 0.857
0.087 0.453 0.856
0.086 -6.932 0.857
0.143 -6.955 0.877
0.2 -6.944 0.897
0.257 -6.916 0.917
0.313 -6.895 0.937
0.37 -6.907 0.957
0.445 -7.257 0.983
0.53 -7.697 1.013
0.594 -7.697 1.036
0.66 -7.73 1.059
0.743 -7.965 1.088
0.829 -8.181 1.119
0.925 -8.462 1.152
0.129 -0.402 0.872
0.132 -0.401 0.873
0.135 -0.399 0.874
0.139 -0.403 0.876
0.142 -0.398 0.877
0.145 -0.395 0.878
0.149 -0.398 0.879
0.152 -0.398 0.88
0.154 -0.388 0.881
0.158 -0.395 0.882
0.161 -0.393 0.883
0.163 -0.386 0.884
0.167 -0.388 0.885
0.17 -0.384 0.886
0.173 -0.385 0.888
0.177 -0.385 0.889
0.178 -0.378 0.889
0.183 -0.385 0.891
0.185 -0.378 0.892
0.188 -0.379 0.893
0.192 -0.379 0.894
0.196 -0.383 0.896
0.197 -0.374 0.896
0.201 -0.376 0.897
0.205 -0.377 0.899
0.206 -0.371 0.899
0.211 -0.374 0.901
0.215 -0.376 0.902
0.22 -0.379 0.904
0.221 -0.373 0.904
0.224 -0.371 0.905
0.227 -0.371 0.907
0.233 -0.376 0.909
0.236 -0.374 0.91
0.236 -0.367 0.91
0.239 -0.365 0.911
0.243 -0.365 0.912
0.244 -0.36 0.913
0.246 -0.357 0.913
0.249 -0.355 0.914
0.256 -0.362 0.917
0.258 -0.358 0.917
0.263 -0.36 0.919
0.262 -0.351 0.919
0.268 -0.356 0.921
0.269 -0.351 0.921
0.274 -0.352 0.923
0.277 -0.35 0.924
0.281 -0.351 0.925
0.284 -0.35 0.927
0.287 -0.347 0.927
0.289 -0.345 0.929
0.292 -0.342 0.929
0.296 -0.343 0.931
0.298 -0.34 0.932
0.299 -0.334 0.932
0.306 -0.34 0.934
0.31 -0.339 0.936
0.316 -0.342 0.938
0.323 -0.346 0.94
0.327 -0.346 0.942
0.327 -0.339 0.942
0.332 -0.34 0.944
0.335 -0.337 0.944
0.341 -0.34 0.947
0.344 -0.337 0.948
0.346 -0.334 0.948
0.352 -0.336 0.95
0.362 -0.343 0.954
0.365 -0.34 0.955
0.368 -0.338 0.956
0.415 -0.387 0.973
0.519 -0.501 1.01
1.289 -1.368 1.281
1.279 -1.333 1.277
1.292 -1.324 1.282
1.312 -1.322 1.289
1.434 -1.43 1.332
1.5 -1.473 1.355
5.548 -5.593 2.782
5.527 -5.474 2.774
5.63 -5.481 2.81
5.685 -5.44 2.83
5.741 -5.399 2.85
5.856 -5.412 2.89
5.838 -5.302 2.884
6.427 -5.742 3.092
6.518 -5.723 3.124
6.597 -5.691 3.151
6.675 -5.657 3.179
6.754 -5.624 3.207
6.832 -5.588 3.234
6.922 -5.562 3.266
7.003 -5.526 3.294
7.088 -5.494 3.325
7.168 -5.455 3.352
7.259 -5.425 3.385
7.339 -5.385 3.413
7.429 -5.351 3.445
7.523 -5.318 3.478
7.608 -5.279 3.508
7.702 -5.244 3.541
7.796 -5.208 3.574
7.886 -5.168 3.606
7.964 -5.119 3.633
8.064 -5.082 3.668
8.234 -5.089 3.728
8.156 -4.94 3.701
8.098 -4.806 3.68
8.033 -4.671 3.657
7.988 -4.549 3.642
7.924 -4.419 3.619
7.861 -4.291 3.597
7.82 -4.178 3.582
7.762 -4.058 3.562
7.726 -3.951 3.549
7.616 -3.808 3.511
7.66 -3.745 3.526
7.722 -3.69 3.548
7.77 -3.627 3.565
0 0 0
0 0 0
0 0 0
0 0 0
7.491 -3.093 3.466
7.492 -3.014 3.467
0 0 0
7.429 -2.834 3.444
7.389 -2.742 3.43
7.354 -2.653 3.418
7.332 -2.57 3.41
7.286 -2.48 3.394
7.146 -2.36 3.345
7.17 -2.296 3.353
7.24 -2.247 3.378
0 0 0
0 0 0
0 0 0
0 0 0
6.976 -1.821 3.285
0 0 0
6.981 -1.688 3.287
0 0 0
6.931 -1.543 3.269
6.84 -1.457 3.237
6.876 -1.399 3.25
6.854 -1.33 3.242
6.831 -1.261 3.234
6.799 -1.191 3.223
6.78 -1.124 3.216
6.634 -1.038 3.164
6.643 -0.977 3.168
6.646 -0.916 3.168
6.726 -0.864 3.197
6.663 -0.795 3.175
6.646 -0.731 3.169
6.625 -0.668 3.161
6.596 -0.604 3.151
6.574 -0.541 3.143
0 0 0
6.534 -0.418 3.129
0 0 0
6.492 -0.297 3.114
0 0 0
0 0 0
0 0 0
0 0 0
0 0 0
0 0 0
4.565 0.083 2.435
0 0 0
4.697 0.171 2.482
4.786 0.218 2.513
4.768 0.26 2.507
4.753 0.303 2.502
4.916 0.358 2.559
5.195 0.426 2.657
5.256 0.48 2.679
5.329 0.535 2.705
5.979 0.657 2.934
5.958 0.709 2.926
5.952 0.764 2.924
5.94 0.817 2.92
5.915 0.869 2.911
5.908 0.923 2.909
5.879 0.973 2.898
5.866 1.026 2.894
5.851 1.078 2.889
5.831 1.129 2.881
5.813 1.18 2.875
5.797 1.232 2.869
5.784 1.284 2.865
5.769 1.336 2.86
5.746 1.385 2.851
5.735 1.438 2.848
5.72 1.489 2.842
5.707 1.541 2.838
5.697 1.594 2.834
5.675 1.644 2.827
5.659 1.694 2.821
5.647 1.746 2.816
5.631 1.798 2.811
5.495 1.808 2.763
5.591 1.896 2.797
5.47 1.91 2.754
5.555 1.997 2.784
5.539 2.047 2.778
5.516 2.096 2.77
5.509 2.15 2.768
5.484 2.197 2.759
5.477 2.251 2.757
5.457 2.301 2.75
5.435 2.349 2.742
5.413 2.398 2.734
5.397 2.449 2.729
5.389 2.503 2.726
5.362 2.549 2.716
5.345 2.6 2.71
5.337 2.655 2.707
3.367 1.696 2.013
3.357 1.729 2.009
2.637 1.378 1.756
2.615 1.396 1.748
2.602 1.418 1.743
2.597 1.446 1.742
2.585 1.469 1.738
2.561 1.485 1.729
2.344 1.383 1.653
2.232 1.34 1.613
2.254 1.381 1.621
2.076 1.293 1.558
2.175 1.384 1.593
2.145 1.391 1.583
1.991 1.312 1.528
2.099 1.413 1.566
2.218 1.525 1.608
2.156 1.508 1.586
1.5 1.05 1.355
1.497 1.067 1.354
1.495 1.086 1.353
1.488 1.1 1.351
1.479 1.113 1.348
1.447 1.107 1.336
1.376 1.069 1.312
1.326 1.046 1.294
1.277 1.023 1.277
1.236 1.005 1.262
1.194 0.985 1.247
1.16 0.973 1.235
1.125 0.957 1.223
1.098 0.95 1.214
1.097 0.966 1.213
1.101 0.986 1.214
1.092 0.995 1.211
1.09 1.011 1.211
1.082 1.02 1.208
1.08 1.036 1.207
1.07 1.044 1.204
1.068 1.059 1.203
1.059 1.068 1.2
1.056 1.084 1.199
1.053 1.099 1.198
1.05 1.116 1.197
1.041 1.125 1.194
1.038 1.141 1.192
1.029 1.15 1.189
1.025 1.166 1.188
1.023 1.184 1.187
1.016 1.197 1.185
1.01 1.21 1.182
0.894 1.077 1.142
0.993 1.231 1.176
0.982 1.238 1.173
0.781 0.978 1.102
0.728 0.92 1.083
0.715 0.918 1.079
0.689 0.896 1.069
0.671 0.886 1.063
0.643 0.86 1.053
0.628 0.852 1.048
0.608 0.836 1.041
0.586 0.816 1.033
0.571 0.807 1.028
0.555 0.796 1.022
0.54 0.785 1.017
0.524 0.773 1.011
0.511 0.765 1.007
0.498 0.756 1.002
0.481 0.741 0.996
0.468 0.731 0.992
0.455 0.722 0.987
0.446 0.717 0.984
0.432 0.705 0.979
0.423 0.7 0.975
0.409 0.687 0.971
0.401 0.684 0.968
0.392 0.68 0.965
0.378 0.664 0.96
0.366 0.652 0.956
0.358 0.649 0.953
0.35 0.645 0.95
0.341 0.637 0.947
0.333 0.633 0.944
0.325 0.627 0.941
0.317 0.622 0.938
0.309 0.615 0.935
0.3 0.608 0.932
0.295 0.608 0.93
0.287 0.603 0.928
0.28 0.597 0.925
0.271 0.586 0.922
0.264 0.582 0.92
0.259 0.583 0.918
0.253 0.578 0.916
0.246 0.571 0.913
0.241 0.572 0.911
0.234 0.567 0.909
0.229 0.566 0.907
0.222 0.559 0.905
0.215 0.55 0.902
0.211 0.551 0.901
0.205 0.546 0.899
0.198 0.536 0.896
0.192 0.531 0.894
0.188 0.529 0.893
0.183 0.53 0.891
0.177 0.522 0.889
0.173 0.525 0.888
0.167 0.513 0.885
0.162 0.511 0.884
0.157 0.505 0.882
0.154 0.513 0.881
0.149 0.509 0.879
0.144 0.504 0.877
0.139 0.496 0.876
0.135 0.492 0.874
0.13 0.486 0.872
0.126 0.487 0.871
0.122 0.483 0.869
0.118 0.482 0.868
0.114 0.479 0.867
0.109 0.468 0.865
0.105 0.472 0.864
0.102 0.479 0.862
0.098 0.469 0.861
0.094 0.461 0.859
0.09 0.458 0.858
0.086 0.455 0.857
0.086 -6.932 0.857
0.143 -6.957 0.878
0.2 -6.946 0.899
0.256 -6.915 0.919
0.312 -6.894 0.939
0.37 -6.918 0.96
0.441 -7.211 0.986
0.529 -7.71 1.017
0.592 -7.697 1.04
0.658 -7.725 1.064
0.741 -7.968 1.094
0.829 -8.204 1.125
0.921 -8.447 1.159
0.129 -0.404 0.873
0.132 -0.401 0.874
0.135 -0.398 0.875
0.139 -0.403 0.877
0.141 -0.397 0.878
0.144 -0.395 0.879
0.148 -0.396 0.88
0.152 -0.399 0.881
0.155 -0.397 0.882
0.158 -0.394 0.883
0.161 -0.393 0.885
0.162 -0.384 0.885
0.167 -0.389 0.887
0.169 -0.385 0.888
0.172 -0.383 0.889
0.176 -0.384 0.89
0.177 -0.378 0.891
0.182 -0.384 0.892
0.184 -0.378 0.893
0.187 -0.378 0.894
0.192 -0.381 0.896
0.196 -0.383 0.897
0.199 -0.382 0.898
0.2 -0.374 0.899
0.204 -0.377 0.9
0.208 -0.378 0.902
0.21 -0.374 0.902
0.213 -0.373 0.904
0.217 -0.375 0.905
0.221 -0.376 0.906
0.226 -0.379 0.908
0.226 -0.369 0.908
0.231 -0.373 0.91
0.234 -0.371 0.911
0.238 -0.372 0.912
0.238 -0.364 0.912
0.241 -0.363 0.914
0.247 -0.369 0.916
0.25 -0.366 0.917
0.252 -0.363 0.918
0.254 -0.359 0.918
0.257 -0.357 0.919
0.258 -0.352 0.92
0.261 -0.351 0.921
0.266 -0.354 0.923
0.268 -0.351 0.923
0.273 -0.352 0.925
0.275 -0.349 0.926
0.278 -0.348 0.927
0.282 -0.348 0.928
0.286 -0.347 0.93
0.287 -0.343 0.93
0.291 -0.343 0.932
0.297 -0.346 0.934
0.297 -0.34 0.934
0.298 -0.335 0.934
0.299 -0.33 0.934
0.309 -0.339 0.938
0.316 -0.343 0.94
0.321 -0.345 0.942
0.326 -0.346 0.944
0.331 -0.347 0.946
0.331 -0.34 0.946
0.339 -0.344 0.949
0.34 -0.34 0.949
0.342 -0.337 0.95
0.346 -0.336 0.951
0.352 -0.337 0.953
0.357 -0.338 0.955
0.363 -0.339 0.957
0.367 -0.338 0.959
0.41 -0.383 0.975
0.508 -0.49 1.01
1.291 -1.374 1.292
1.287 -1.346 1.291
1.283 -1.318 1.289
1.305 -1.319 1.297
1.377 -1.372 1.323
1.46 -1.436 1.353
5.481 -5.539 2.803
5.57 -5.533 2.835
5.662 -5.528 2.868
5.724 -5.493 2.891
5.778 -5.449 2.91
5.842 -5.414 2.934
5.829 -5.308 2.929
6.423 -5.754 3.143
6.508 -5.729 3.174
6.58 -5.691 3.2
6.661 -5.66 3.229
6.739 -5.626 3.257
6.82 -5.593 3.286
6.908 -5.565 3.318
6.989 -5.53 3.347
7.07 -5.494 3.376
7.151 -5.457 3.406
7.248 -5.431 3.44
7.325 -5.389 3.468
7.416 -5.356 3.501
7.501 -5.317 3.532
7.59 -5.28 3.564
7.686 -5.247 3.599
7.78 -5.211 3.632
7.863 -5.166 3.662
7.955 -5.126 3.695
