# .PCD v0.7 - Point Cloud Data file format
VERSION 0.7
FIELDS x y z
SIZE 4 4 4
TYPE F F F
COUNT 1 1 1
WIDTH 2498
HEIGHT 1
VIEWPOINT 0 0 0 1 0 0 0
POINTS 2498
DATA ascii
0.229 -0.476 0.983
2.685 -7.594 2.624
2.746 -7.583 2.665
2.809 -7.579 2.707
2.871 -7.569 2.749
2.936 -7.565 2.792
3 -7.559 2.835
3.064 -7.552 2.878
3.129 -7.545 2.921
3.194 -7.537 2.964
3.26 -7.531 3.008
3.327 -7.525 3.053
3.358 -7.438 3.074
3.337 -7.238 3.06
3.391 -7.208 3.096
3.456 -7.199 3.139
3.397 -6.932 3.1
3.543 -7.093 3.198
3.651 -7.168 3.269
3.601 -6.931 3.236
3.6 -6.796 3.236
3.628 -6.718 3.254
3.691 -6.708 3.296
3.755 -6.697 3.339
3.872 -6.781 3.417
4.3 -7.404 3.703
4.376 -7.398 3.754
4.452 -7.39 3.805
4.524 -7.374 3.853
4.608 -7.377 3.909
4.683 -7.363 3.959
4.763 -7.358 4.013
4.838 -7.34 4.062
4.919 -7.332 4.117
5.003 -7.327 4.173
5.087 -7.32 4.229
5.164 -7.302 4.28
5.252 -7.298 4.339
5.334 -7.284 4.394
5.421 -7.275 4.452
5.508 -7.265 4.511
5.598 -7.257 4.571
2.34 -2.928 2.393
2.364 -2.908 2.41
2.38 -2.877 2.42
2.412 -2.867 2.442
2.45 -2.864 2.467
2.495 -2.867 2.497
2.539 -2.869 2.527
2.587 -2.874 2.559
6.054 -6.712 4.875
6.052 -6.593 4.874
6.033 -6.458 4.861
6.023 -6.335 4.854
6.012 -6.213 4.847
6 -6.092 4.839
5.988 -5.973 4.831
5.981 -5.861 4.826
5.953 -5.731 4.808
5.956 -5.631 4.809
5.937 -5.513 4.797
5.927 -5.406 4.79
5.916 -5.299 4.783
5.915 -5.202 4.782
5.897 -5.092 4.77
5.892 -4.995 4.767
5.876 -4.89 4.756
5.875 -4.799 4.755
5.862 -4.699 4.747
5.859 -4.609 4.745
5.845 -4.511 4.736
5.842 -4.423 4.734
5.825 -4.326 4.722
5.817 -4.236 4.717
5.817 -4.153 4.717
5.808 -4.066 4.711
5.799 -3.978 4.705
5.801 -3.9 4.706
5.784 -3.81 4.695
5.78 -3.729 4.692
5.771 -3.646 4.686
5.758 -3.561 4.677
5.754 -3.483 4.675
5.751 -3.407 4.672
5.736 -3.324 4.663
5.734 -3.249 4.661
5.723 -3.17 4.654
5.714 -3.094 4.648
5.703 -3.017 4.641
5.698 -2.944 4.637
5.686 -2.867 4.629
5.688 -2.799 4.63
5.67 -2.722 4.619
5.673 -2.655 4.621
5.656 -2.579 4.609
5.653 -2.511 4.608
5.649 -2.443 4.605
5.65 -2.377 4.605
5.629 -2.302 4.591
5.633 -2.239 4.594
5.62 -2.169 4.585
5.621 -2.105 4.586
5.604 -2.035 4.575
5.609 -1.974 4.578
5.585 -1.902 4.562
5.589 -1.841 4.564
5.577 -1.775 4.557
5.575 -1.713 4.555
5.568 -1.649 4.551
5.565 -1.587 4.548
5.553 -1.523 4.541
5.551 -1.462 4.539
5.536 -1.398 4.529
5.544 -1.34 4.534
5.521 -1.275 4.519
5.528 -1.217 4.524
3.565 -0.741 3.212
5.514 -1.096 4.514
5.504 -1.035 4.508
5.504 -0.977 4.508
5.492 -0.917 4.5
5.485 -0.858 4.495
5.477 -0.799 4.49
5.489 -0.743 4.497
5.475 -0.683 4.488
5.469 -0.625 4.484
5.468 -0.568 4.484
5.466 -0.511 4.483
5.451 -0.453 4.472
5.451 -0.396 4.472
5.446 -0.339 4.469
5.443 -0.282 4.467
5.434 -0.225 4.461
5.439 -0.169 4.464
5.429 -0.113 4.458
5.419 -0.056 4.451
5.411 -0 4.446
5.417 0.056 4.45
5.408 0.112 4.444
5.405 0.168 4.442
5.393 0.224 4.434
5.391 0.279 4.432
5.383 0.335 4.427
5.377 0.39 4.423
5.367 0.446 4.416
5.363 0.501 4.414
5.36 0.557 4.411
5.365 0.613 4.415
5.351 0.668 4.405
5.353 0.724 4.407
5.338 0.778 4.397
5.342 0.835 4.399
5.328 0.889 4.39
5.335 0.946 4.395
3.373 0.629 3.084
3.354 0.661 3.071
2.64 0.545 2.594
2.624 0.569 2.583
2.614 0.595 2.577
2.616 0.623 2.578
2.604 0.648 2.57
2.607 0.677 2.572
2.602 0.703 2.569
2.606 0.732 2.571
2.603 0.76 2.569
2.598 0.786 2.566
2.598 0.815 2.566
2.593 0.842 2.563
2.587 0.868 2.559
2.587 0.897 2.559
2.587 0.926 2.559
2.607 0.962 2.572
2.563 0.975 2.543
2.564 1.004 2.543
2.557 1.03 2.538
2.556 1.059 2.538
2.548 1.085 2.533
2.548 1.115 2.533
2.547 1.144 2.532
2.546 1.173 2.531
2.544 1.202 2.53
2.543 1.232 2.529
2.473 1.227 2.483
2.4 1.219 2.434
2.336 1.214 2.391
2.27 1.206 2.347
2.204 1.197 2.303
2.153 1.196 2.269
2.096 1.189 2.231
2.031 1.176 2.187
1.52 0.889 1.846
1.364 0.811 1.742
1.184 0.713 1.621
1.166 0.716 1.609
1.134 0.71 1.588
1.106 0.706 1.569
1.1 0.716 1.565
1.092 0.724 1.559
1.091 0.738 1.559
1.089 0.751 1.558
1.09 0.767 1.558
1.09 0.782 1.559
1.085 0.793 1.555
1.04 0.773 1.525
0.846 0.63 1.395
0.824 0.624 1.381
0.797 0.613 1.362
0.769 0.6 1.344
0.745 0.591 1.328
0.724 0.582 1.314
0.697 0.569 1.296
0.68 0.564 1.284
0.653 0.549 1.266
0.637 0.543 1.255
0.613 0.53 1.24
0.606 0.532 1.235
0.584 0.519 1.22
0.567 0.512 1.209
0.558 0.511 1.203
0.546 0.508 1.195
0.533 0.502 1.186
0.514 0.49 1.174
0.505 0.489 1.168
0.496 0.487 1.162
0.483 0.481 1.153
0.474 0.479 1.147
0.466 0.477 1.142
0.453 0.469 1.133
0.445 0.468 1.128
0.436 0.465 1.121
0.427 0.461 1.115
0.418 0.457 1.109
0.41 0.455 1.104
0.402 0.452 1.099
0.394 0.45 1.094
0.386 0.446 1.088
0.378 0.442 1.082
0.369 0.438 1.077
0.366 0.441 1.075
0.354 0.43 1.067
0.351 0.434 1.065
0.342 0.428 1.059
0.335 0.425 1.054
0.332 0.428 1.052
0.324 0.422 1.047
0.318 0.419 1.042
0.314 0.421 1.04
0.307 0.415 1.035
0.299 0.41 1.03
0.296 0.413 1.028
0.289 0.407 1.023
0.286 0.409 1.021
0.282 0.409 1.018
0.274 0.402 1.013
0.271 0.405 1.011
0.265 0.399 1.007
0.262 0.401 1.005
0.255 0.395 1.001
0.251 0.395 0.998
0.248 0.396 0.996
0.242 0.39 0.992
0.238 0.39 0.989
0.235 0.39 0.987
0.23 0.387 0.983
0.227 0.388 0.982
0.224 0.389 0.979
0.219 0.385 0.976
0.212 0.377 0.972
0.211 0.382 0.971
0.204 0.371 0.966
0.202 0.376 0.965
0.197 0.371 0.962
0.195 0.375 0.96
0.19 0.368 0.957
0.19 0.377 0.957
0.183 0.367 0.953
0.181 0.368 0.951
0.176 0.364 0.948
0.171 0.356 0.944
0.168 0.355 0.942
0.167 0.361 0.942
0.163 0.357 0.939
0.16 0.358 0.937
0.156 0.352 0.934
0.155 0.358 0.933
0.15 0.352 0.931
0.147 0.35 0.928
0.147 0.363 0.929
0.145 0.365 0.927
0.144 0.372 0.926
0.142 0.379 0.925
0.141 0.391 0.924
0.14 0.4 0.924
0.139 0.415 0.923
0.136 0.415 0.921
0.133 0.413 0.919
0.128 0.404 0.916
0.126 0.405 0.914
0.122 0.401 0.912
0.118 0.394 0.909
0.116 0.397 0.907
0.112 0.393 0.905
0.11 0.397 0.903
0.107 0.395 0.901
0.104 0.4 0.9
0.101 0.4 0.898
0.098 0.398 0.896
0.095 0.395 0.894
0.092 0.387 0.891
0.089 0.389 0.89
0.086 0.379 0.887
0.083 0.389 0.886
0.08 0.379 0.884
0.077 0.375 0.882
0.075 0.378 0.88
0.072 0.382 0.878
0.069 0.383 0.876
0.069 -0.486 0.877
0.072 -0.485 0.879
0.076 -0.48 0.882
0.079 -0.478 0.884
0.083 -0.478 0.886
0.086 -0.48 0.889
0.089 -0.479 0.891
0.093 -0.48 0.893
0.097 -0.483 0.896
0.1 -0.475 0.898
0.103 -0.475 0.9
0.106 -0.474 0.902
0.111 -0.481 0.905
0.114 -0.479 0.907
0.118 -0.486 0.91
0.121 -0.484 0.913
0.124 -0.475 0.914
0.128 -0.483 0.917
0.132 -0.482 0.92
0.135 -0.481 0.922
0.139 -0.48 0.924
0.142 -0.476 0.926
0.145 -0.477 0.929
0.148 -0.473 0.931
0.152 -0.474 0.933
0.154 -0.466 0.935
0.158 -0.466 0.937
0.163 -0.473 0.941
0.166 -0.473 0.943
0.169 -0.471 0.945
0.175 -0.478 0.949
0.18 -0.487 0.953
0.184 -0.485 0.955
0.187 -0.481 0.957
0.191 -0.483 0.96
0.194 -0.481 0.962
0.198 -0.481 0.965
0.201 -0.479 0.967
0.205 -0.478 0.969
0.209 -0.479 0.972
0.216 -0.488 0.977
0.221 -0.491 0.98
0.223 -0.486 0.982
0.226 -0.483 0.984
0.226 -0.472 0.984
2.672 -7.595 2.644
2.732 -7.584 2.685
2.795 -7.578 2.727
2.856 -7.567 2.769
2.921 -7.564 2.813
2.985 -7.558 2.856
3.049 -7.552 2.9
3.114 -7.545 2.944
3.178 -7.538 2.988
3.243 -7.53 3.032
3.31 -7.525 3.077
3.353 -7.465 3.106
3.329 -7.258 3.09
3.376 -7.21 3.122
3.443 -7.207 3.167
3.453 -7.084 3.174
3.572 -7.189 3.255
3.634 -7.172 3.297
3.607 -6.978 3.278
3.588 -6.806 3.266
3.609 -6.717 3.28
3.677 -6.715 3.326
3.735 -6.694 3.365
3.81 -6.704 3.417
4.279 -7.404 3.735
4.354 -7.396 3.785
4.43 -7.39 3.837
4.505 -7.38 3.888
4.584 -7.375 3.942
4.655 -7.356 3.99
4.74 -7.358 4.048
4.817 -7.345 4.1
4.901 -7.342 4.157
4.979 -7.329 4.21
5.059 -7.317 4.265
5.143 -7.309 4.321
5.226 -7.298 4.378
5.314 -7.294 4.438
5.398 -7.28 4.494
5.485 -7.27 4.553
5.569 -7.255 4.61
2.355 -2.963 2.429
2.356 -2.913 2.429
2.369 -2.879 2.438
2.401 -2.869 2.46
2.449 -2.877 2.493
2.491 -2.877 2.521
2.534 -2.877 2.55
2.571 -2.87 2.576
6.044 -6.734 4.933
6.028 -6.6 4.922
6.01 -6.465 4.909
6.004 -6.347 4.906
5.984 -6.215 4.892
5.985 -6.107 4.893
5.964 -5.979 4.878
5.962 -5.872 4.877
5.93 -5.736 4.855
5.94 -5.644 4.862
5.922 -5.527 4.85
5.917 -5.423 4.846
5.899 -5.31 4.834
5.893 -5.209 4.83
5.886 -5.108 4.825
5.874 -5.005 4.818
5.859 -4.9 4.807
5.858 -4.809 4.807
5.844 -4.708 4.797
5.837 -4.614 4.792
5.821 -4.515 4.782
5.826 -4.433 4.785
5.808 -4.334 4.772
5.793 -4.24 4.762
5.794 -4.158 4.763
5.78 -4.066 4.753
5.772 -3.979 4.748
5.769 -3.898 4.746
5.761 -3.814 4.741
5.745 -3.725 4.73
5.744 -3.647 4.729
5.743 -3.57 4.729
5.73 -3.486 4.72
5.727 -3.409 4.717
5.715 -3.329 4.71
5.708 -3.251 4.705
5.696 -3.172 4.697
5.697 -3.1 4.697
5.688 -3.024 4.691
5.685 -2.952 4.689
5.672 -2.875 4.68
5.676 -2.807 4.683
5.657 -2.729 4.67
5.66 -2.662 4.672
5.643 -2.586 4.66
5.641 -2.518 4.659
5.621 -2.442 4.646
5.631 -2.381 4.653
5.611 -2.306 4.639
5.61 -2.241 4.638
5.604 -2.174 4.634
5.6 -2.108 4.632
5.592 -2.041 4.626
5.586 -1.975 4.622
5.574 -1.908 4.614
5.573 -1.845 4.613
5.56 -1.778 4.604
5.555 -1.715 4.601
5.552 -1.652 4.599
5.545 -1.589 4.594
5.536 -1.526 4.588
5.534 -1.464 4.587
5.519 -1.4 4.577
5.521 -1.341 4.578
5.521 -1.281 4.578
5.509 -1.219 4.57
5.493 -1.156 4.559
5.496 -1.098 4.561
5.483 -1.037 4.552
5.491 -0.979 4.557
5.476 -0.918 4.547
5.471 -0.86 4.544
5.47 -0.802 4.543
5.472 -0.744 4.545
5.45 -0.684 4.53
5.461 -0.628 4.537
5.446 -0.569 4.527
5.45 -0.512 4.53
5.445 -0.454 4.526
5.443 -0.397 4.525
5.429 -0.34 4.516
5.424 -0.283 4.512
5.42 -0.226 4.509
5.417 -0.169 4.507
5.413 -0.113 4.504
5.408 -0.056 4.501
5.403 -0 4.498
5.4 0.056 4.496
5.394 0.112 4.492
5.392 0.168 4.49
5.379 0.224 4.481
5.374 0.28 4.478
5.359 0.335 4.468
5.364 0.391 4.471
5.354 0.447 4.464
5.358 0.503 4.467
5.343 0.558 4.457
5.352 0.615 4.463
5.337 0.669 4.453
5.335 0.725 4.452
5.319 0.779 4.441
5.326 0.837 4.446
5.312 0.891 4.436
5.311 0.947 4.435
3.355 0.629 3.107
3.35 0.664 3.104
2.626 0.545 2.612
2.611 0.569 2.603
2.608 0.596 2.6
2.603 0.623 2.597
2.599 0.65 2.595
2.604 0.679 2.597
2.599 0.706 2.594
2.593 0.732 2.59
2.595 0.761 2.592
2.592 0.789 2.59
2.593 0.817 2.59
2.586 0.844 2.585
2.581 0.871 2.582
2.58 0.899 2.582
2.575 0.926 2.578
2.584 0.958 2.584
2.551 0.975 2.562
2.55 1.003 2.561
2.551 1.033 2.562
2.551 1.063 2.562
2.543 1.089 2.557
2.542 1.118 2.556
2.541 1.147 2.555
2.54 1.176 2.554
2.531 1.202 2.548
2.529 1.232 2.547
2.461 1.227 2.501
2.381 1.215 2.447
2.324 1.214 2.408
2.258 1.206 2.363
2.193 1.197 2.319
2.134 1.191 2.279
2.08 1.185 2.242
2.024 1.178 2.204
1.648 0.972 1.949
1.628 0.981 1.935
1.18 0.714 1.631
1.152 0.711 1.612
1.13 0.711 1.597
1.099 0.705 1.576
1.094 0.716 1.573
1.092 0.729 1.572
1.088 0.74 1.569
1.09 0.756 1.57
1.084 0.767 1.566
1.085 0.782 1.567
1.085 0.798 1.567
1.017 0.758 1.52
0.844 0.632 1.403
0.818 0.622 1.386
0.782 0.604 1.361
0.758 0.595 1.345
0.741 0.591 1.333
0.72 0.582 1.319
0.694 0.569 1.301
0.673 0.56 1.287
0.657 0.555 1.276
0.633 0.543 1.26
0.611 0.531 1.245
0.596 0.525 1.235
0.582 0.521 1.225
0.57 0.518 1.217
0.556 0.512 1.208
0.542 0.506 1.198
0.529 0.501 1.189
0.516 0.496 1.181
0.503 0.489 1.171
0.488 0.481 1.162
0.48 0.48 1.156
0.472 0.479 1.151
0.463 0.477 1.145
0.45 0.469 1.135
0.442 0.467 1.13
0.434 0.465 1.125
0.425 0.462 1.119
0.415 0.457 1.112
0.408 0.456 1.107
0.4 0.453 1.102
0.392 0.45 1.096
0.384 0.446 1.091
0.376 0.442 1.085
0.367 0.438 1.079
0.359 0.434 1.074
0.351 0.43 1.069
0.349 0.434 1.067
0.341 0.429 1.062
0.334 0.426 1.057
0.326 0.42 1.052
0.319 0.417 1.047
0.316 0.418 1.044
0.308 0.413 1.039
0.305 0.416 1.037
0.298 0.411 1.033
0.291 0.406 1.028
0.288 0.408 1.026
0.284 0.409 1.023
0.28 0.41 1.021
0.273 0.403 1.016
0.266 0.397 1.011
0.263 0.399 1.009
0.26 0.4 1.007
0.257 0.402 1.005
0.25 0.396 1
0.247 0.396 0.998
0.24 0.388 0.993
0.237 0.391 0.991
0.234 0.392 0.989
0.228 0.387 0.985
0.226 0.389 0.983
0.217 0.376 0.978
0.217 0.383 0.977
0.213 0.383 0.975
0.209 0.38 0.972
0.205 0.38 0.97
0.199 0.372 0.966
0.197 0.373 0.964
0.194 0.375 0.962
0.188 0.368 0.958
0.186 0.368 0.956
0.182 0.367 0.954
0.18 0.368 0.952
0.175 0.364 0.949
0.171 0.357 0.946
0.169 0.363 0.945
0.167 0.364 0.943
0.163 0.363 0.941
0.16 0.361 0.939
0.155 0.353 0.936
0.155 0.362 0.935
0.15 0.353 0.932
0.147 0.354 0.93
0.146 0.363 0.93
0.144 0.367 0.928
0.142 0.369 0.927
0.141 0.378 0.926
0.141 0.392 0.926
0.141 0.41 0.926
0.139 0.415 0.924
0.135 0.415 0.922
0.132 0.413 0.92
0.127 0.403 0.917
0.125 0.404 0.915
0.121 0.398 0.912
0.119 0.404 0.911
0.115 0.399 0.908
0.113 0.403 0.907
0.109 0.395 0.904
0.106 0.397 0.902
0.103 0.4 0.9
0.101 0.4 0.898
0.098 0.399 0.896
0.094 0.396 0.894
0.091 0.387 0.892
0.088 0.387 0.89
0.086 0.388 0.888
0.082 0.381 0.886
0.08 0.381 0.884
0.077 0.383 0.882
0.074 0.381 0.881
0.071 0.382 0.879
0.069 0.382 0.877
0.068 -0.485 0.877
0.072 -0.485 0.879
0.075 -0.478 0.882
0.079 -0.49 0.884
0.082 -0.488 0.887
0.086 -0.48 0.889
0.09 -0.489 0.892
0.093 -0.48 0.894
0.096 -0.474 0.896
0.099 -0.474 0.898
0.103 -0.475 0.901
0.106 -0.474 0.903
0.109 -0.472 0.905
0.113 -0.479 0.908
0.117 -0.476 0.91
0.121 -0.484 0.913
0.124 -0.475 0.915
0.127 -0.473 0.917
0.131 -0.482 0.92
0.135 -0.481 0.923
0.138 -0.479 0.925
0.141 -0.477 0.927
0.145 -0.477 0.929
0.148 -0.472 0.931
0.151 -0.473 0.934
0.155 -0.474 0.937
0.159 -0.475 0.939
0.162 -0.473 0.941
0.165 -0.472 0.944
0.17 -0.475 0.947
0.174 -0.478 0.949
0.18 -0.486 0.953
0.183 -0.484 0.956
0.186 -0.479 0.957
0.19 -0.483 0.96
0.194 -0.483 0.963
0.197 -0.48 0.965
0.201 -0.479 0.968
0.204 -0.478 0.97
0.211 -0.486 0.974
0.212 -0.479 0.976
0.22 -0.491 0.981
0.223 -0.487 0.983
0.225 -0.481 0.984
0.23 -0.484 0.988
2.664 -7.592 2.653
2.725 -7.583 2.695
2.788 -7.578 2.738
2.849 -7.568 2.78
2.913 -7.564 2.824
2.977 -7.558 2.867
3.041 -7.552 2.911
3.105 -7.544 2.955
3.17 -7.539 3
3.235 -7.531 3.044
3.301 -7.524 3.089
3.353 -7.486 3.125
3.329 -7.277 3.108
3.366 -7.209 3.134
3.429 -7.197 3.177
3.496 -7.193 3.222
3.563 -7.189 3.269
3.631 -7.184 3.315
3.645 -7.072 3.324
3.589 -6.827 3.286
3.611 -6.738 3.301
3.674 -6.727 3.344
3.721 -6.686 3.376
3.796 -6.696 3.428
4.273 -7.413 3.754
4.344 -7.399 3.803
4.418 -7.39 3.854
4.495 -7.382 3.906
4.572 -7.375 3.959
4.646 -7.361 4.01
4.728 -7.358 4.065
4.806 -7.347 4.119
4.887 -7.34 4.174
4.965 -7.327 4.228
5.054 -7.328 4.289
5.132 -7.312 4.342
5.215 -7.301 4.399
5.301 -7.294 4.458
5.389 -7.287 4.518
5.468 -7.267 4.572
5.513 -7.2 4.603
5.558 -7.134 4.634
2.352 -2.916 2.44
2.37 -2.887 2.452
2.41 -2.887 2.479
2.448 -2.884 2.506
2.504 -2.9 2.544
2.533 -2.884 2.564
2.556 -2.861 2.58
2.58 -2.838 2.596
2.592 -2.802 2.604
6.005 -6.477 4.94
5.768 -6.11 4.777
5.983 -6.231 4.925
5.979 -6.117 4.922
5.962 -5.992 4.91
5.966 -5.891 4.913
5.929 -5.751 4.888
5.928 -5.647 4.887
5.911 -5.531 4.875
5.909 -5.43 4.874
5.895 -5.321 4.865
5.887 -5.217 4.859
5.88 -5.117 4.854
5.876 -5.02 4.851
5.859 -4.913 4.839
5.85 -4.815 4.834
5.838 -4.716 4.825
5.835 -4.625 4.824
5.825 -4.53 4.816
5.82 -4.44 4.813
5.805 -4.344 4.803
5.795 -4.252 4.796
5.789 -4.165 4.792
5.778 -4.076 4.785
5.769 -3.988 4.778
5.761 -3.903 4.773
5.756 -3.82 4.769
5.746 -3.735 4.762
5.732 -3.649 4.753
5.736 -3.575 4.756
5.718 -3.488 4.743
5.719 -3.414 4.744
5.71 -3.334 4.738
5.705 -3.258 4.734
5.687 -3.175 4.722
5.692 -3.106 4.726
5.672 -3.023 4.712
5.674 -2.954 4.713
5.662 -2.877 4.705
5.676 -2.815 4.715
5.652 -2.734 4.698
5.652 -2.665 4.698
5.646 -2.594 4.694
5.642 -2.525 4.691
5.627 -2.452 4.681
5.631 -2.387 4.684
5.621 -2.317 4.677
5.612 -2.248 4.671
5.599 -2.178 4.662
5.602 -2.114 4.664
5.588 -2.045 4.654
5.592 -1.983 4.657
5.572 -1.912 4.643
5.576 -1.851 4.646
5.557 -1.782 4.633
5.553 -1.719 4.631
5.541 -1.653 4.622
5.545 -1.593 4.625
5.527 -1.527 4.612
5.533 -1.468 4.616
5.52 -1.404 4.607
5.515 -1.343 4.604
5.509 -1.281 4.6
5.505 -1.221 4.598
5.489 -1.158 4.587
5.489 -1.099 4.587
5.487 -1.04 4.585
5.489 -0.982 4.586
5.47 -0.92 4.573
5.476 -0.863 4.578
5.461 -0.802 4.567
5.461 -0.745 4.568
5.458 -0.686 4.565
5.457 -0.629 4.565
5.448 -0.57 4.558
5.449 -0.513 4.559
5.434 -0.455 4.549
5.432 -0.397 4.547
5.426 -0.34 4.543
5.423 -0.283 4.541
5.409 -0.226 4.532
5.41 -0.169 4.533
5.401 -0.113 4.526
5.404 -0.056 4.529
5.396 -0 4.523
5.392 0.056 4.52
5.391 0.113 4.52
5.388 0.169 4.517
5.377 0.225 4.51
5.373 0.281 4.507
5.365 0.336 4.502
5.355 0.392 4.495
5.347 0.447 4.489
5.352 0.504 4.493
5.34 0.559 4.484
5.341 0.615 4.485
5.336 0.671 4.482
5.334 0.727 4.481
5.323 0.782 4.473
5.317 0.837 4.469
5.311 0.893 4.465
5.31 0.949 4.464
3.369 0.633 3.136
3.343 0.664 3.118
2.617 0.545 2.621
2.612 0.571 2.618
2.608 0.598 2.615
2.604 0.625 2.612
2.597 0.651 2.608
2.597 0.679 2.607
2.591 0.706 2.603
2.594 0.735 2.605
2.589 0.762 2.602
2.591 0.79 2.603
2.586 0.817 2.6
2.58 0.844 2.596
2.574 0.87 2.591
2.574 0.899 2.591
2.574 0.928 2.592
2.572 0.957 2.59
2.552 0.978 2.577
2.552 1.007 2.576
2.543 1.032 2.57
2.552 1.066 2.576
2.537 1.089 2.566
2.543 1.121 2.57
2.535 1.147 2.565
2.533 1.176 2.564
2.532 1.206 2.563
2.525 1.233 2.558
2.453 1.227 2.509
2.374 1.215 2.455
2.317 1.213 2.416
2.252 1.206 2.372
2.187 1.197 2.327
2.129 1.191 2.288
2.073 1.185 2.249
1.998 1.166 2.198
1.707 1.011 1.998
1.666 1.008 1.97
1.263 0.769 1.694
1.145 0.709 1.614
1.122 0.708 1.598
1.098 0.706 1.581
1.09 0.715 1.576
1.09 0.729 1.576
1.086 0.741 1.573
1.087 0.756 1.574
1.087 0.772 1.574
1.082 0.782 1.571
1.082 0.798 1.571
0.976 0.728 1.498
0.842 0.632 1.406
0.81 0.617 1.384
0.788 0.611 1.37
0.754 0.592 1.346
0.732 0.584 1.331
0.713 0.578 1.318
0.698 0.575 1.308
0.669 0.558 1.288
0.648 0.549 1.274
0.631 0.542 1.262
0.614 0.536 1.251
0.594 0.525 1.237
0.58 0.521 1.228
0.569 0.518 1.219
0.555 0.513 1.21
0.536 0.502 1.197
0.529 0.503 1.192
0.51 0.49 1.179
0.501 0.489 1.173
0.494 0.489 1.168
0.478 0.479 1.157
0.47 0.478 1.152
0.456 0.47 1.143
0.448 0.469 1.137
0.441 0.468 1.132
0.433 0.465 1.126
0.422 0.459 1.119
0.413 0.456 1.113
0.406 0.454 1.108
0.399 0.452 1.103
0.391 0.449 1.098
0.378 0.439 1.089
0.374 0.442 1.087
0.367 0.438 1.081
0.358 0.434 1.075
0.355 0.437 1.073
0.347 0.433 1.068
0.34 0.428 1.063
0.333 0.425 1.058
0.325 0.42 1.053
0.322 0.423 1.051
0.315 0.418 1.046
0.311 0.42 1.043
0.304 0.415 1.038
0.301 0.418 1.036
0.294 0.414 1.032
0.286 0.407 1.026
0.279 0.401 1.021
0.28 0.41 1.022
0.272 0.402 1.016
0.269 0.405 1.014
0.265 0.405 1.012
0.256 0.393 1.005
0.252 0.394 1.003
0.246 0.388 0.999
0.246 0.396 0.999
0.242 0.396 0.996
0.236 0.39 0.992
0.23 0.384 0.988
0.228 0.388 0.986
0.221 0.38 0.982
0.219 0.384 0.98
0.216 0.383 0.978
0.209 0.374 0.973
0.208 0.38 0.973
0.202 0.371 0.968
0.199 0.372 0.966
0.196 0.373 0.964
0.194 0.376 0.963
0.191 0.376 0.961
0.185 0.368 0.957
0.182 0.369 0.955
0.179 0.368 0.953
0.175 0.366 0.95
0.17 0.357 0.947
0.169 0.366 0.946
0.164 0.357 0.943
0.163 0.362 0.942
0.157 0.35 0.938
0.157 0.361 0.937
0.155 0.365 0.936
0.15 0.358 0.933
0.148 0.361 0.932
0.146 0.362 0.93
0.144 0.366 0.929
0.141 0.369 0.927
0.141 0.379 0.927
0.14 0.391 0.926
0.139 0.402 0.925
0.138 0.415 0.925
0.135 0.415 0.923
0.131 0.406 0.92
0.127 0.403 0.917
0.124 0.404 0.915
0.121 0.406 0.913
0.118 0.403 0.911
0.115 0.398 0.909
0.112 0.404 0.907
0.109 0.401 0.905
0.107 0.405 0.903
0.103 0.4 0.901
0.101 0.408 0.899
0.097 0.401 0.897
0.094 0.395 0.895
0.091 0.388 0.892
0.088 0.381 0.89
0.085 0.378 0.888
0.082 0.38 0.886
0.079 0.379 0.885
0.077 0.384 0.883
0.074 0.381 0.881
0.071 0.384 0.879
0.068 0.383 0.877
0.068 -0.486 0.878
0.071 -0.487 0.88
0.075 -0.478 0.882
0.078 -0.48 0.885
0.082 -0.48 0.887
0.085 -0.48 0.89
0.088 -0.479 0.892
0.092 -0.481 0.894
0.096 -0.482 0.897
0.098 -0.474 0.899
0.102 -0.473 0.901
0.106 -0.481 0.904
0.109 -0.48 0.906
0.113 -0.479 0.909
0.116 -0.474 0.911
0.119 -0.474 0.913
0.124 -0.485 0.917
0.126 -0.475 0.918
0.131 -0.482 0.921
0.134 -0.481 0.924
0.137 -0.48 0.926
0.141 -0.478 0.928
0.144 -0.474 0.93
0.147 -0.471 0.932
0.15 -0.469 0.934
0.154 -0.474 0.938
0.158 -0.477 0.941
0.16 -0.47 0.942
0.164 -0.471 0.945
0.167 -0.468 0.947
0.173 -0.479 0.951
0.178 -0.485 0.954
0.182 -0.484 0.957
0.185 -0.481 0.959
0.187 -0.475 0.961
0.193 -0.483 0.964
0.196 -0.48 0.967
0.199 -0.479 0.969
0.203 -0.478 0.972
0.21 -0.487 0.976
0.214 -0.488 0.979
0.219 -0.492 0.983
0.221 -0.487 0.984
0.224 -0.482 0.986
0.229 -0.487 0.99
2.653 -7.601 2.675
2.714 -7.592 2.717
2.777 -7.587 2.76
2.838 -7.577 2.803
2.899 -7.565 2.845
2.962 -7.559 2.889
3.026 -7.552 2.934
3.09 -7.545 2.978
3.154 -7.539 3.023
3.218 -7.53 3.067
3.284 -7.524 3.113
3.34 -7.495 3.152
3.322 -7.299 3.139
3.349 -7.209 3.159
3.416 -7.207 3.205
3.478 -7.193 3.248
3.549 -7.196 3.297
3.612 -7.184 3.341
3.68 -7.178 3.388
3.624 -6.93 3.349
3.604 -6.761 3.336
3.654 -6.724 3.37
3.724 -6.728 3.419
3.815 -6.766 3.482
4.251 -7.413 3.786
4.325 -7.405 3.837
4.396 -7.39 3.886
4.472 -7.382 3.939
4.549 -7.375 3.992
4.623 -7.361 4.044
4.704 -7.358 4.1
4.78 -7.345 4.153
4.86 -7.337 4.209
4.945 -7.335 4.268
5.026 -7.325 4.324
5.104 -7.309 4.378
5.192 -7.306 4.439
5.274 -7.294 4.496
5.359 -7.284 4.556
5.432 -7.255 4.606
5.403 -7.09 4.586
5.445 -7.022 4.615
2.353 -2.933 2.466
2.361 -2.892 2.472
2.412 -2.905 2.507
2.44 -2.889 2.527
2.494 -2.903 2.564
2.518 -2.881 2.581
2.541 -2.859 2.597
2.558 -2.828 2.609
2.583 -2.807 2.626
5.562 -6.024 4.696
5.501 -5.854 4.654
5.609 -5.866 4.729
5.542 -5.694 4.683
5.743 -5.8 4.823
5.584 -5.538 4.712
5.907 -5.759 4.937
5.675 -5.432 4.775
5.895 -5.545 4.928
5.884 -5.435 4.92
5.881 -5.334 4.918
5.876 -5.234 4.915
5.86 -5.125 4.904
5.853 -5.025 4.899
5.841 -4.923 4.89
5.837 -4.829 4.888
5.821 -4.726 4.877
5.815 -4.632 4.872
5.803 -4.536 4.864
5.807 -4.453 4.867
5.787 -4.352 4.853
5.782 -4.264 4.849
5.777 -4.177 4.846
5.763 -4.085 4.836
5.751 -3.996 4.828
5.744 -3.911 4.823
5.73 -3.822 4.813
5.732 -3.745 4.815
5.721 -3.661 4.807
5.716 -3.581 4.804
5.694 -3.491 4.788
5.7 -3.42 4.793
5.686 -3.337 4.783
5.685 -3.263 4.782
5.672 -3.182 4.773
5.671 -3.11 4.772
5.661 -3.033 4.765
5.658 -2.96 4.763
5.644 -2.883 4.754
5.66 -2.821 4.764
5.632 -2.738 4.745
5.624 -2.665 4.739
5.611 -2.591 4.731
5.617 -2.527 4.735
5.608 -2.456 4.728
5.597 -2.385 4.721
5.593 -2.317 4.718
5.586 -2.249 4.714
5.578 -2.18 4.708
5.586 -2.119 4.714
5.575 -2.05 4.705
5.568 -1.984 4.701
5.553 -1.915 4.69
5.552 -1.852 4.69
5.544 -1.787 4.684
5.543 -1.724 4.683
5.53 -1.659 4.674
5.529 -1.597 4.674
5.516 -1.532 4.665
5.514 -1.47 4.663
5.502 -1.407 4.655
5.504 -1.347 4.656
5.491 -1.284 4.647
5.513 -1.229 4.662
5.495 -1.166 4.65
5.504 -1.108 4.657
5.475 -1.043 4.636
5.484 -0.986 4.642
5.461 -0.923 4.626
5.459 -0.864 4.625
5.446 -0.804 4.616
5.443 -0.746 4.614
5.439 -0.687 4.611
5.438 -0.63 4.61
5.42 -0.57 4.598
5.427 -0.514 4.603
5.418 -0.456 4.596
5.415 -0.398 4.594
5.401 -0.34 4.585
5.409 -0.284 4.59
5.394 -0.227 4.58
5.396 -0.17 4.581
5.384 -0.113 4.573
5.384 -0.057 4.573
5.377 -0 4.568
5.38 0.056 4.57
5.371 0.113 4.564
5.376 0.169 4.567
5.362 0.225 4.557
5.36 0.281 4.556
5.341 0.337 4.543
5.341 0.393 4.543
5.328 0.448 4.534
5.332 0.505 4.537
5.323 0.56 4.531
5.321 0.616 4.529
5.309 0.671 4.521
5.317 0.728 4.526
5.304 0.783 4.517
5.306 0.84 4.518
5.29 0.894 4.507
5.293 0.951 4.51
3.305 0.624 3.127
3.329 0.665 3.145
2.605 0.545 2.641
2.607 0.573 2.643
2.595 0.598 2.634
2.6 0.627 2.638
2.595 0.654 2.634
2.59 0.681 2.631
2.585 0.708 2.627
2.58 0.734 2.624
2.582 0.764 2.625
2.578 0.79 2.622
2.572 0.817 2.618
2.574 0.846 2.619
2.568 0.873 2.616
2.568 0.902 2.615
2.567 0.931 2.615
2.557 0.956 2.608
2.539 0.978 2.595
2.546 1.01 2.6
2.539 1.036 2.595
2.539 1.066 2.595
2.531 1.092 2.59
2.53 1.121 2.589
2.529 1.15 2.588
2.527 1.18 2.587
2.525 1.209 2.586
2.518 1.236 2.581
2.44 1.227 2.527
2.364 1.216 2.474
2.299 1.21 2.428
2.235 1.203 2.384
2.176 1.197 2.343
2.119 1.192 2.304
2.063 1.185 2.264
1.807 1.056 2.087
1.694 1.009 2.008
1.657 1.008 1.982
1.341 0.824 1.763
1.163 0.724 1.639
1.113 0.706 1.604
1.093 0.706 1.59
1.09 0.719 1.588
1.083 0.728 1.583
1.08 0.741 1.581
1.081 0.756 1.582
1.081 0.771 1.582
1.082 0.787 1.583
1.077 0.798 1.579
0.937 0.7 1.482
0.837 0.632 1.412
0.805 0.617 1.39
0.777 0.605 1.371
0.752 0.595 1.353
0.728 0.584 1.337
0.711 0.58 1.325
0.69 0.571 1.31
0.667 0.559 1.294
0.644 0.549 1.278
0.629 0.543 1.268
0.605 0.53 1.251
0.592 0.526 1.242
0.572 0.515 1.228
0.559 0.511 1.219
0.547 0.507 1.211
0.54 0.508 1.205
0.519 0.495 1.191
0.512 0.496 1.186
0.498 0.489 1.177
0.49 0.488 1.171
0.476 0.48 1.161
0.468 0.479 1.156
0.459 0.476 1.149
0.441 0.463 1.137
0.437 0.465 1.134
0.43 0.465 1.129
0.421 0.461 1.123
0.411 0.456 1.116
0.404 0.455 1.111
0.396 0.452 1.106
0.388 0.449 1.1
0.38 0.446 1.095
0.372 0.441 1.089
0.364 0.438 1.083
0.356 0.434 1.078
0.354 0.437 1.076
0.346 0.433 1.071
0.338 0.428 1.065
0.331 0.425 1.06
0.323 0.42 1.055
0.32 0.423 1.053
0.313 0.419 1.048
0.306 0.414 1.043
0.302 0.415 1.041
0.295 0.41 1.036
0.288 0.405 1.031
0.285 0.408 1.029
0.282 0.409 1.026
0.278 0.41 1.024
0.27 0.402 1.018
0.267 0.405 1.016
0.26 0.398 1.011
0.258 0.401 1.01
0.251 0.394 1.005
0.248 0.395 1.003
0.245 0.396 1
0.237 0.388 0.996
0.234 0.389 0.993
0.229 0.384 0.989
0.226 0.387 0.988
0.224 0.389 0.986
0.218 0.384 0.982
0.212 0.375 0.977
0.208 0.376 0.975
0.206 0.378 0.974
0.203 0.38 0.972
0.197 0.372 0.968
0.195 0.373 0.966
0.192 0.375 0.964
0.186 0.367 0.96
0.184 0.369 0.958
0.181 0.367 0.956
0.175 0.36 0.952
0.174 0.364 0.951
0.171 0.365 0.949
0.168 0.364 0.947
0.163 0.356 0.944
0.161 0.361 0.943
0.157 0.355 0.94
0.154 0.353 0.937
0.152 0.36 0.936
0.15 0.362 0.935
0.146 0.356 0.932
0.147 0.371 0.932
0.144 0.371 0.93
0.14 0.369 0.928
0.14 0.378 0.927
0.139 0.392 0.927
0.138 0.403 0.926
0.137 0.416 0.926
0.135 0.418 0.924
0.129 0.404 0.92
0.126 0.403 0.918
0.123 0.404 0.916
0.121 0.407 0.914
0.117 0.403 0.912
0.114 0.399 0.91
0.112 0.405 0.908
0.108 0.397 0.905
0.105 0.396 0.903
0.102 0.401 0.902
0.099 0.4 0.9
0.096 0.393 0.897
0.093 0.396 0.895
0.09 0.386 0.893
0.087 0.389 0.891
0.084 0.386 0.889
0.082 0.382 0.887
0.079 0.387 0.885
0.076 0.383 0.883
0.073 0.381 0.881
0.071 0.384 0.88
0.068 0.385 0.878
0.067 -0.485 0.878
0.071 -0.487 0.881
0.074 -0.488 0.883
0.078 -0.48 0.885
0.081 -0.48 0.888
0.084 -0.48 0.89
0.088 -0.479 0.893
0.091 -0.479 0.895
0.094 -0.473 0.897
0.098 -0.481 0.9
0.101 -0.473 0.902
0.105 -0.482 0.905
0.108 -0.48 0.907
0.112 -0.478 0.91
0.115 -0.476 0.912
0.118 -0.476 0.914
0.122 -0.475 0.917
0.125 -0.475 0.919
0.128 -0.472 0.921
0.133 -0.481 0.925
0.136 -0.481 0.927
0.139 -0.476 0.929
0.142 -0.471 0.931
0.145 -0.47 0.933
0.149 -0.471 0.936
0.153 -0.473 0.939
0.156 -0.471 0.941
0.16 -0.475 0.944
0.163 -0.472 0.946
0.167 -0.471 0.948
0.172 -0.48 0.952
0.176 -0.482 0.955
0.18 -0.483 0.958
0.184 -0.481 0.96
0.188 -0.485 0.964
0.192 -0.483 0.966
0.194 -0.477 0.968
0.198 -0.479 0.971
0.202 -0.477 0.973
0.207 -0.484 0.977
0.213 -0.491 0.981
0.216 -0.487 0.983
0.22 -0.486 0.986
0.224 -0.488 0.989
0.227 -0.485 0.991
0.898 -2.456 1.465
2.699 -7.59 2.737
2.758 -7.578 2.779
2.822 -7.575 2.824
2.883 -7.565 2.867
2.946 -7.559 2.912
3.013 -7.561 2.959
3.073 -7.545 3.001
3.137 -7.538 3.046
3.201 -7.529 3.091
3.266 -7.522 3.137
3.326 -7.502 3.18
3.315 -7.324 3.172
3.331 -7.209 3.183
3.397 -7.206 3.23
3.459 -7.193 3.274
3.526 -7.189 3.321
3.593 -7.184 3.368
3.659 -7.176 3.415
3.715 -7.147 3.455
3.601 -6.79 3.374
3.64 -6.736 3.402
3.82 -6.942 3.529
4.058 -7.244 3.697
4.228 -7.412 3.817
4.303 -7.406 3.87
4.377 -7.397 3.922
4.449 -7.383 3.973
4.526 -7.377 4.027
4.599 -7.363 4.079
4.683 -7.365 4.138
4.76 -7.353 4.192
4.838 -7.342 4.248
4.919 -7.335 4.305
4.996 -7.32 4.36
5.079 -7.312 4.418
5.166 -7.309 4.48
5.248 -7.297 4.537
5.288 -7.225 4.566
5.322 -7.145 4.59
5.288 -6.975 4.566
5.34 -6.923 4.603
5.308 -6.762 4.58
2.366 -2.914 2.502
2.423 -2.934 2.542
2.455 -2.923 2.565
2.484 -2.907 2.585
2.511 -2.889 2.604
2.529 -2.86 2.617
2.541 -2.824 2.625
2.559 -2.796 2.638
2.597 -2.789 2.665
5.364 -5.737 4.619
5.415 -5.691 4.655
5.391 -5.566 4.638
5.455 -5.535 4.684
5.398 -5.38 4.643
5.484 -5.371 4.704
5.424 -5.217 4.662
5.514 -5.21 4.726
5.457 -5.063 4.685
5.594 -5.099 4.782
5.493 -4.916 4.711
5.833 -5.128 4.95
5.586 -4.819 4.776
5.829 -4.94 4.948
5.81 -4.832 4.934
5.804 -4.737 4.93
5.806 -4.651 4.932
5.784 -4.545 4.916
5.786 -4.46 4.917
5.766 -4.36 4.903
5.764 -4.274 4.902
5.756 -4.185 4.896
5.743 -4.093 4.887
5.727 -4 4.876
5.73 -3.923 4.878
5.709 -3.829 4.863
5.713 -3.753 4.866
5.702 -3.668 4.858
5.701 -3.591 4.857
5.686 -3.505 4.847
5.687 -3.43 4.848
5.666 -3.343 4.833
5.666 -3.27 4.833
5.66 -3.193 4.828
5.655 -3.118 4.825
5.64 -3.038 4.815
5.635 -2.964 4.811
5.63 -2.891 4.807
5.641 -2.826 4.815
5.612 -2.742 4.794
5.613 -2.674 4.795
5.593 -2.597 4.781
5.593 -2.529 4.781
5.584 -2.458 4.774
5.585 -2.392 4.775
5.572 -2.321 4.766
5.571 -2.255 4.766
5.562 -2.186 4.76
5.558 -2.12 4.757
5.551 -2.053 4.752
5.54 -1.985 4.744
5.528 -1.917 4.735
5.532 -1.855 4.738
5.524 -1.79 4.733
5.509 -1.723 4.722
5.515 -1.663 4.726
5.51 -1.6 4.723
5.494 -1.534 4.711
5.5 -1.475 4.716
5.488 -1.411 4.707
5.488 -1.35 4.707
5.479 -1.288 4.701
5.489 -1.23 4.708
5.481 -1.169 4.702
5.472 -1.107 4.696
5.465 -1.047 4.691
5.476 -0.99 4.699
5.45 -0.926 4.68
5.46 -0.869 4.687
5.441 -0.808 4.674
5.44 -0.749 4.673
5.43 -0.69 4.666
5.426 -0.632 4.663
5.416 -0.573 4.656
5.423 -0.516 4.661
5.399 -0.456 4.644
5.405 -0.4 4.648
5.386 -0.341 4.635
5.394 -0.285 4.641
5.385 -0.227 4.634
5.381 -0.17 4.631
5.367 -0.113 4.621
5.369 -0.057 4.623
5.359 -0 4.616
5.362 0.057 4.618
5.351 0.113 4.61
5.352 0.169 4.611
5.335 0.225 4.599
5.335 0.282 4.599
5.318 0.337 4.587
5.328 0.394 4.594
5.319 0.45 4.588
5.324 0.507 4.591
5.313 0.562 4.583
5.309 0.618 4.58
5.291 0.672 4.568
5.297 0.729 4.572
5.278 0.783 4.559
5.286 0.841 4.564
5.282 0.897 4.561
5.273 0.952 4.555
3.247 0.617 3.124
3.249 0.652 3.125
2.597 0.546 2.665
2.592 0.573 2.662
2.59 0.6 2.66
2.585 0.627 2.657
2.581 0.654 2.653
2.582 0.683 2.655
2.577 0.709 2.651
2.573 0.737 2.648
2.568 0.764 2.645
2.571 0.793 2.646
2.565 0.819 2.642
2.559 0.846 2.638
2.56 0.875 2.639
2.56 0.904 2.639
2.558 0.932 2.638
2.543 0.956 2.627
2.532 0.981 2.619
2.533 1.01 2.62
2.525 1.036 2.614
2.532 1.069 2.619
2.524 1.095 2.613
2.523 1.124 2.613
2.522 1.154 2.612
2.52 1.183 2.611
2.512 1.209 2.605
2.505 1.236 2.6
2.427 1.227 2.545
2.344 1.212 2.486
2.286 1.21 2.446
2.222 1.202 2.4
2.157 1.193 2.354
2.107 1.191 2.319
2.046 1.181 2.276
1.754 1.029 2.069
1.687 1.011 2.022
1.64 1.002 1.989
1.256 0.774 1.718
1.163 0.729 1.652
1.11 0.707 1.614
1.087 0.706 1.598
1.083 0.718 1.596
1.083 0.732 1.595
1.08 0.745 1.594
1.08 0.76 1.593
1.075 0.771 1.59
1.075 0.786 1.59
1.075 0.801 1.59
0.896 0.672 1.464
0.83 0.63 1.417
0.794 0.612 1.392
0.775 0.607 1.378
0.748 0.595 1.359
0.727 0.587 1.344
0.7 0.573 1.325
0.686 0.571 1.315
0.663 0.559 1.299
0.641 0.549 1.283
0.617 0.535 1.266
0.602 0.531 1.256
0.588 0.526 1.246
0.575 0.522 1.237
0.561 0.516 1.227
0.549 0.512 1.218
0.529 0.5 1.204
0.518 0.496 1.196
0.503 0.489 1.186
0.496 0.489 1.181
0.482 0.482 1.171
0.473 0.48 1.165
0.459 0.472 1.155
0.457 0.477 1.153
0.444 0.469 1.144
0.437 0.468 1.139
0.428 0.465 1.133
0.417 0.459 1.125
0.408 0.456 1.119
0.401 0.454 1.114
0.395 0.453 1.109
0.381 0.442 1.1
0.378 0.446 1.098
0.37 0.441 1.092
0.362 0.438 1.087
0.359 0.441 1.084
0.346 0.43 1.075
0.338 0.425 1.07
0.335 0.428 1.067
0.329 0.425 1.063
0.321 0.42 1.057
0.314 0.416 1.052
0.312 0.42 1.051
0.308 0.421 1.048
0.3 0.415 1.043
0.293 0.41 1.038
0.286 0.405 1.033
0.283 0.408 1.031
0.28 0.408 1.028
0.276 0.41 1.026
0.269 0.402 1.02
0.262 0.397 1.016
0.259 0.399 1.014
0.252 0.392 1.009
0.249 0.393 1.007
0.247 0.396 1.005
0.242 0.395 1.002
0.236 0.388 0.997
0.234 0.391 0.996
0.23 0.392 0.993
0.225 0.388 0.99
0.219 0.38 0.985
0.216 0.381 0.983
0.212 0.379 0.98
0.21 0.384 0.979
0.204 0.377 0.975
0.199 0.372 0.972
0.196 0.372 0.969
0.193 0.371 0.967
0.191 0.375 0.965
0.188 0.376 0.964
0.182 0.366 0.959
0.177 0.359 0.955
0.177 0.368 0.955
0.172 0.364 0.952
0.17 0.364 0.95
0.166 0.361 0.948
0.162 0.356 0.945
0.158 0.354 0.942
0.157 0.358 0.941
0.153 0.355 0.939
0.15 0.353 0.936
0.147 0.353 0.935
0.146 0.359 0.934
0.144 0.362 0.932
0.142 0.366 0.931
0.14 0.37 0.929
0.139 0.38 0.929
0.138 0.392 0.928
0.137 0.404 0.928
0.135 0.407 0.926
0.132 0.408 0.924
0.128 0.404 0.921
0.125 0.401 0.919
0.122 0.403 0.917
0.119 0.399 0.915
0.116 0.403 0.913
0.113 0.399 0.91
0.11 0.396 0.908
0.107 0.397 0.906
0.105 0.403 0.905
0.102 0.401 0.902
0.099 0.401 0.9
0.095 0.393 0.898
0.093 0.396 0.896
0.089 0.387 0.894
0.086 0.381 0.892
0.083 0.377 0.89
0.081 0.38 0.888
0.078 0.388 0.886
0.075 0.383 0.884
0.073 0.38 0.882
0.07 0.383 0.88
0.067 0.385 0.878
0.067 -0.486 0.879
0.07 -0.487 0.881
0.074 -0.488 0.884
0.077 -0.48 0.886
0.08 -0.48 0.888
0.084 -0.48 0.891
0.087 -0.479 0.893
0.09 -0.479 0.896
0.093 -0.472 0.898
0.097 -0.474 0.9
0.101 -0.481 0.903
0.104 -0.482 0.906
0.108 -0.48 0.908
0.111 -0.479 0.91
0.114 -0.476 0.913
0.118 -0.476 0.915
0.121 -0.476 0.918
0.126 -0.485 0.921
0.128 -0.474 0.922
0.132 -0.481 0.926
0.135 -0.479 0.928
0.139 -0.477 0.93
0.141 -0.47 0.932
0.144 -0.469 0.934
0.148 -0.469 0.937
0.152 -0.474 0.94
0.155 -0.469 0.942
0.158 -0.468 0.944
0.162 -0.472 0.947
0.166 -0.471 0.95
0.171 -0.48 0.954
0.175 -0.479 0.956
0.179 -0.482 0.959
0.182 -0.479 0.961
0.187 -0.484 0.965
0.19 -0.483 0.967
0.195 -0.486 0.971
0.199 -0.487 0.974
0.2 -0.477 0.974
0.204 -0.479 0.977
0.211 -0.489 0.982
0.215 -0.488 0.985
0.219 -0.488 0.988
0.224 -0.49 0.991
0.227 -0.489 0.994
0.225 -0.471 0.992
2.684 -7.59 2.756
2.747 -7.585 2.801
2.807 -7.575 2.844
2.871 -7.572 2.89
2.934 -7.567 2.935
2.997 -7.561 2.981
3.057 -7.545 3.024
3.12 -7.537 3.069
3.184 -7.53 3.115
3.249 -7.523 3.161
3.31 -7.508 3.205
3.306 -7.343 3.203
3.317 -7.217 3.211
3.379 -7.206 3.255
3.445 -7.201 3.302
3.511 -7.197 3.35
3.577 -7.191 3.397
3.645 -7.186 3.445
3.708 -7.172 3.491
3.655 -6.933 3.453
3.684 -6.855 3.474
3.914 -7.154 3.639
4.028 -7.228 3.72
4.207 -7.413 3.848
4.28 -7.406 3.901
4.354 -7.397 3.954
4.425 -7.383 4.005
4.502 -7.377 4.06
4.579 -7.369 4.115
4.656 -7.36 4.17
4.736 -7.355 4.228
4.811 -7.34 4.282
4.893 -7.335 4.341
4.975 -7.328 4.4
5.055 -7.316 4.457
5.135 -7.303 4.514
5.208 -7.278 4.567
5.176 -7.108 4.544
5.219 -7.042 4.574
5.193 -6.885 4.556
5.242 -6.83 4.591
5.201 -6.658 4.561
5.246 -6.6 4.594
2.425 -2.954 2.57
2.461 -2.947 2.596
2.478 -2.916 2.608
2.495 -2.886 2.621
2.512 -2.855 2.632
2.524 -2.82 2.641
2.548 -2.798 2.659
2.577 -2.782 2.68
5.265 -5.66 4.608
5.32 -5.62 4.647
5.275 -5.475 4.615
5.32 -5.425 4.647
5.285 -5.294 4.622
5.332 -5.247 4.656
5.293 -5.116 4.627
5.341 -5.071 4.662
5.306 -4.948 4.637
5.35 -4.9 4.669
5.322 -4.786 4.649
5.399 -4.768 4.704
5.346 -4.635 4.666
5.444 -4.634 4.736
5.379 -4.493 4.689
5.505 -4.514 4.78
5.417 -4.358 4.717
5.738 -4.532 4.947
5.458 -4.227 4.746
5.752 -4.372 4.957
5.595 -4.17 4.845
5.732 -4.189 4.943
5.722 -4.1 4.936
5.717 -4.015 4.932
5.714 -3.932 4.93
5.695 -3.84 4.916
5.695 -3.761 4.916
5.679 -3.672 4.904
5.678 -3.595 4.904
5.67 -3.513 4.898
5.667 -3.436 4.896
5.651 -3.352 4.884
5.652 -3.279 4.885
5.641 -3.199 4.878
5.635 -3.123 4.873
5.628 -3.047 4.868
5.626 -2.975 4.866
5.614 -2.898 4.858
5.618 -2.83 4.861
5.59 -2.746 4.841
5.599 -2.682 4.847
5.581 -2.605 4.834
5.578 -2.536 4.832
5.569 -2.465 4.826
5.569 -2.398 4.825
5.55 -2.324 4.812
5.552 -2.259 4.813
5.548 -2.192 4.811
5.539 -2.124 4.804
5.522 -2.053 4.792
5.53 -1.992 4.797
5.519 -1.924 4.79
5.517 -1.86 4.788
5.5 -1.792 4.776
5.496 -1.728 4.773
5.486 -1.663 4.766
5.483 -1.6 4.764
5.482 -1.539 4.763
5.483 -1.478 4.764
5.469 -1.413 4.754
5.467 -1.352 4.752
5.463 -1.291 4.75
5.458 -1.23 4.746
5.443 -1.167 4.735
5.443 -1.107 4.735
5.465 -1.052 4.751
5.441 -0.988 4.734
5.441 -0.93 4.734
5.425 -0.868 4.722
5.427 -0.81 4.724
5.418 -0.75 4.718
5.416 -0.692 4.716
5.415 -0.634 4.715
5.409 -0.575 4.711
5.394 -0.516 4.7
5.395 -0.459 4.701
5.385 -0.4 4.693
5.378 -0.343 4.688
5.39 -0.286 4.697
5.376 -0.228 4.687
5.377 -0.171 4.688
5.357 -0.114 4.674
5.36 -0.057 4.676
5.35 -0 4.669
5.363 0.057 4.678
5.334 0.113 4.657
5.341 0.17 4.662
5.325 0.226 4.65
5.322 0.282 4.649
5.312 0.338 4.641
5.317 0.395 4.645
5.309 0.451 4.639
5.303 0.507 4.635
5.289 0.562 4.624
5.295 0.62 4.629
5.281 0.675 4.619
5.285 0.732 4.622
5.273 0.787 4.614
5.274 0.844 4.614
5.261 0.898 4.604
5.261 0.955 4.605
3.21 0.613 3.134
3.182 0.642 3.113
2.583 0.546 2.684
2.586 0.575 2.686
2.578 0.601 2.68
2.576 0.628 2.678
2.571 0.655 2.675
2.57 0.683 2.674
2.563 0.709 2.669
2.567 0.739 2.672
2.562 0.766 2.669
2.557 0.793 2.665
2.559 0.822 2.666
2.554 0.849 2.663
2.547 0.875 2.658
2.554 0.907 2.663
2.556 0.937 2.665
2.53 0.956 2.646
2.526 0.984 2.643
2.526 1.013 2.643
2.519 1.039 2.638
2.524 1.071 2.641
2.516 1.097 2.636
2.517 1.127 2.636
2.509 1.154 2.63
2.512 1.186 2.633
2.505 1.213 2.628
2.485 1.233 2.614
2.407 1.223 2.557
2.33 1.211 2.503
2.274 1.21 2.462
2.211 1.203 2.417
2.146 1.193 2.37
2.09 1.188 2.33
2.034 1.181 2.29
1.738 1.026 2.078
1.68 1.012 2.036
1.616 0.993 1.99
1.237 0.766 1.718
1.152 0.725 1.657
1.128 0.724 1.64
1.086 0.71 1.61
1.081 0.721 1.607
1.077 0.732 1.603
1.075 0.745 1.602
1.068 0.756 1.597
1.07 0.772 1.598
1.067 0.784 1.596
1.064 0.797 1.594
0.876 0.66 1.459
0.826 0.63 1.423
0.797 0.617 1.402
0.763 0.6 1.378
0.741 0.592 1.363
0.725 0.589 1.351
0.702 0.578 1.334
0.682 0.571 1.32
0.653 0.553 1.299
0.638 0.549 1.288
0.621 0.542 1.276
0.599 0.531 1.26
0.579 0.52 1.246
0.571 0.521 1.241
0.553 0.511 1.227
0.541 0.507 1.219
0.526 0.5 1.208
0.514 0.496 1.2
0.5 0.489 1.19
0.493 0.489 1.184
0.479 0.482 1.175
0.471 0.48 1.168
0.456 0.471 1.158
0.448 0.469 1.152
0.441 0.469 1.147
0.434 0.468 1.142
0.42 0.458 1.132
0.415 0.459 1.128
0.402 0.45 1.119
0.399 0.454 1.117
0.391 0.452 1.111
0.384 0.449 1.106
0.376 0.446 1.1
0.368 0.442 1.095
0.359 0.437 1.088
0.352 0.434 1.083
0.344 0.429 1.077
0.342 0.433 1.076
0.333 0.428 1.07
0.327 0.425 1.065
0.319 0.42 1.06
0.312 0.416 1.055
0.309 0.418 1.052
0.302 0.413 1.047
0.299 0.415 1.045
0.292 0.41 1.04
0.289 0.413 1.038
0.282 0.408 1.033
0.274 0.401 1.027
0.27 0.401 1.025
0.268 0.403 1.023
0.26 0.397 1.018
0.258 0.4 1.016
0.254 0.4 1.013
0.251 0.401 1.011
0.245 0.396 1.007
0.242 0.397 1.004
0.238 0.396 1.001
0.232 0.39 0.997
0.225 0.382 0.992
0.224 0.388 0.991
0.217 0.379 0.986
0.214 0.381 0.984
0.211 0.38 0.982
0.207 0.378 0.979
0.204 0.378 0.977
0.198 0.371 0.973
0.195 0.372 0.971
0.192 0.371 0.968
0.189 0.373 0.966
0.188 0.378 0.965
0.181 0.368 0.961
0.179 0.369 0.959
0.172 0.357 0.954
0.172 0.365 0.954
0.168 0.363 0.951
0.163 0.353 0.947
0.16 0.354 0.946
0.158 0.357 0.944
0.155 0.356 0.942
0.153 0.357 0.94
0.149 0.354 0.938
0.146 0.352 0.935
0.146 0.362 0.935
0.143 0.363 0.933
0.141 0.366 0.932
0.139 0.37 0.93
0.138 0.38 0.93
0.137 0.392 0.929
0.137 0.406 0.929
0.136 0.419 0.928
0.131 0.409 0.925
0.127 0.403 0.922
0.124 0.401 0.92
0.122 0.403 0.918
0.118 0.398 0.915
0.115 0.402 0.914
0.112 0.398 0.911
0.109 0.396 0.909
0.106 0.396 0.907
0.104 0.4 0.905
0.101 0.403 0.903
0.098 0.401 0.901
0.095 0.401 0.899
0.092 0.394 0.897
0.089 0.386 0.894
0.086 0.381 0.892
0.083 0.376 0.89
0.08 0.388 0.888
0.077 0.379 0.886
0.075 0.382 0.884
0.072 0.379 0.882
0.069 0.382 0.881
0.067 0.384 0.879
0.066 -0.486 0.879
0.07 -0.487 0.881
0.073 -0.488 0.884
0.077 -0.48 0.886
0.08 -0.48 0.889
0.083 -0.48 0.891
0.087 -0.489 0.894
0.09 -0.479 0.896
0.094 -0.481 0.899
0.097 -0.481 0.901
0.101 -0.481 0.903
0.103 -0.474 0.906
0.107 -0.478 0.908
0.111 -0.479 0.911
0.115 -0.486 0.914
0.117 -0.476 0.916
0.121 -0.477 0.918
0.124 -0.473 0.92
0.127 -0.474 0.923
0.132 -0.481 0.926
0.135 -0.48 0.928
0.138 -0.477 0.931
0.14 -0.47 0.932
0.145 -0.477 0.936
0.147 -0.469 0.937
0.15 -0.468 0.94
0.154 -0.47 0.942
0.159 -0.476 0.946
0.162 -0.472 0.948
0.165 -0.472 0.95
0.17 -0.479 0.954
0.176 -0.487 0.958
0.179 -0.483 0.96
0.181 -0.477 0.962
0.187 -0.485 0.966
0.19 -0.484 0.968
0.193 -0.481 0.97
0.196 -0.479 0.973
0.202 -0.485 0.977
0.205 -0.482 0.979
0.211 -0.49 0.983
0.214 -0.487 0.986
0.219 -0.489 0.989
0.257 -0.595 1.016
0.226 -0.489 0.994
0.225 -0.473 0.994
2.677 -7.59 2.766
2.739 -7.583 2.81
2.8 -7.575 2.854
2.863 -7.571 2.9
2.926 -7.567 2.946
2.986 -7.552 2.989
3.049 -7.546 3.035
3.116 -7.548 3.083
3.176 -7.529 3.126
3.24 -7.521 3.172
3.307 -7.52 3.221
3.309 -7.369 3.222
3.308 -7.216 3.222
3.37 -7.205 3.267
3.436 -7.2 3.314
3.502 -7.196 3.362
3.569 -7.192 3.41
3.636 -7.186 3.458
3.698 -7.171 3.504
3.765 -7.163 3.552
3.833 -7.156 3.601
3.905 -7.156 3.653
4.001 -7.197 3.722
4.196 -7.413 3.863
4.264 -7.396 3.912
4.343 -7.397 3.969
4.42 -7.394 4.025
4.492 -7.379 4.077
4.567 -7.369 4.131
4.647 -7.365 4.189
4.724 -7.355 4.245
4.804 -7.348 4.302
4.88 -7.335 4.358
4.962 -7.328 4.417
5.044 -7.32 4.476
5.089 -7.256 4.509
5.124 -7.179 4.534
5.093 -7.009 4.511
5.137 -6.948 4.543
5.113 -6.795 4.526
5.154 -6.731 4.556
5.12 -6.571 4.531
5.159 -6.506 4.559
5.129 -6.356 4.537
5.173 -6.301 4.57
2.489 -2.937 2.629
2.488 -2.885 2.629
2.504 -2.855 2.641
2.52 -2.823 2.652
2.54 -2.797 2.667
2.578 -2.79 2.694
5.183 -5.585 4.577
5.225 -5.533 4.607
5.178 -5.387 4.573
5.225 -5.341 4.607
5.188 -5.209 4.581
5.236 -5.165 4.615
5.204 -5.042 4.592
5.253 -5 4.627
5.213 -4.873 4.598
5.254 -4.823 4.628
5.223 -4.708 4.606
5.272 -4.666 4.641
5.235 -4.549 4.614
5.29 -4.513 4.654
5.258 -4.402 4.631
5.294 -4.351 4.657
5.261 -4.242 4.633
5.331 -4.218 4.684
5.266 -4.087 4.637
5.366 -4.086 4.709
5.294 -3.952 4.657
5.408 -3.96 4.739
5.332 -3.827 4.684
5.493 -3.865 4.801
5.36 -3.695 4.704
5.679 -3.839 4.935
5.414 -3.583 4.744
5.681 -3.683 4.937
5.619 -3.567 4.892
5.665 -3.519 4.925
5.67 -3.447 4.929
5.646 -3.358 4.912
5.652 -3.287 4.915
5.637 -3.205 4.905
5.635 -3.131 4.903
5.624 -3.053 4.895
5.62 -2.979 4.893
5.603 -2.9 4.88
5.599 -2.828 4.877
5.598 -2.757 4.877
5.583 -2.681 4.866
5.573 -2.608 4.859
5.573 -2.54 4.858
5.559 -2.467 4.849
5.562 -2.401 4.85
5.549 -2.329 4.841
5.552 -2.265 4.843
5.542 -2.195 4.836
5.539 -2.129 4.834
5.528 -2.06 4.826
5.527 -1.996 4.825
5.519 -1.929 4.819
5.513 -1.864 4.815
5.497 -1.795 4.804
5.503 -1.735 4.808
5.483 -1.666 4.794
5.486 -1.605 4.796
5.475 -1.541 4.788
5.468 -1.478 4.783
5.463 -1.415 4.779
5.465 -1.355 4.78
5.465 -1.295 4.781
5.45 -1.231 4.769
5.444 -1.17 4.765
5.432 -1.108 4.756
5.428 -1.048 4.754
5.428 -0.989 4.754
5.415 -0.927 4.744
5.426 -0.871 4.752
5.404 -0.809 4.736
5.414 -0.752 4.744
5.396 -0.691 4.731
5.401 -0.634 4.734
5.394 -0.575 4.729
5.385 -0.516 4.723
5.376 -0.458 4.716
5.379 -0.401 4.718
5.377 -0.343 4.717
5.364 -0.285 4.708
5.359 -0.228 4.704
5.36 -0.171 4.705
5.343 -0.114 4.692
5.346 -0.057 4.694
5.344 -0 4.693
5.36 0.057 4.705
5.39 0.115 4.726
5.339 0.17 4.69
5.319 0.226 4.675
5.316 0.283 4.673
5.314 0.339 4.671
5.311 0.396 4.669
5.301 0.452 4.662
5.307 0.509 4.666
5.294 0.564 4.657
5.299 0.622 4.661
5.285 0.677 4.65
5.282 0.733 4.648
5.274 0.789 4.643
5.269 0.845 4.639
5.262 0.901 4.634
5.256 0.957 4.629
3.188 0.61 3.135
3.122 0.631 3.087
2.583 0.548 2.698
2.585 0.576 2.699
2.573 0.601 2.691
2.578 0.63 2.694
2.574 0.658 2.691
2.568 0.684 2.687
2.564 0.712 2.684
2.561 0.739 2.682
2.555 0.766 2.678
2.557 0.795 2.679
2.551 0.821 2.675
2.553 0.851 2.676
2.547 0.878 2.672
2.548 0.907 2.672
2.561 0.941 2.681
2.528 0.957 2.658
2.52 0.984 2.652
2.527 1.016 2.657
2.519 1.042 2.652
2.519 1.072 2.651
2.511 1.098 2.646
2.51 1.127 2.645
2.509 1.157 2.644
2.507 1.186 2.643
2.506 1.216 2.642
2.481 1.234 2.624
2.402 1.223 2.566
2.323 1.211 2.51
2.262 1.206 2.465
2.199 1.199 2.42
2.14 1.193 2.377
2.085 1.188 2.337
2.029 1.181 2.297
1.943 1.154 2.235
1.672 1.01 2.04
1.594 0.981 1.983
1.232 0.765 1.721
1.133 0.715 1.65
1.132 0.729 1.649
1.123 0.738 1.643
1.088 0.728 1.617
1.087 0.742 1.616
1.075 0.748 1.608
1.074 0.762 1.607
1.073 0.776 1.606
1.077 0.794 1.609
1.064 0.799 1.6
0.847 0.637 1.443
0.824 0.63 1.426
0.788 0.612 1.4
0.763 0.602 1.382
0.739 0.592 1.365
0.718 0.584 1.35
0.698 0.576 1.335
0.677 0.568 1.32
0.657 0.559 1.306
0.635 0.549 1.29
0.611 0.535 1.273
0.597 0.531 1.263
0.584 0.526 1.253
0.565 0.516 1.239
0.551 0.511 1.229
0.539 0.506 1.22
0.526 0.502 1.211
0.513 0.496 1.202
0.499 0.489 1.192
0.491 0.489 1.186
0.478 0.482 1.176
0.469 0.48 1.17
0.455 0.472 1.16
0.448 0.47 1.154
0.441 0.47 1.149
0.427 0.461 1.14
0.418 0.458 1.133
0.415 0.461 1.131
0.4 0.45 1.12
0.397 0.453 1.118
0.391 0.452 1.113
0.383 0.449 1.107
0.375 0.446 1.102
0.367 0.442 1.096
0.359 0.438 1.09
0.351 0.434 1.085
0.343 0.43 1.079
0.34 0.433 1.077
0.328 0.42 1.068
0.326 0.425 1.066
0.319 0.42 1.061
0.311 0.415 1.055
0.308 0.418 1.054
0.301 0.414 1.049
0.294 0.408 1.043
0.291 0.41 1.041
0.288 0.414 1.039
0.281 0.408 1.034
0.278 0.409 1.031
0.27 0.402 1.026
0.266 0.402 1.023
0.26 0.397 1.019
0.256 0.398 1.016
0.254 0.4 1.014
0.247 0.394 1.009
0.244 0.395 1.007
0.237 0.388 1.002
0.234 0.388 1
0.231 0.391 0.998
0.224 0.382 0.993
0.223 0.387 0.992
0.216 0.379 0.987
0.214 0.383 0.986
0.208 0.374 0.981
0.206 0.377 0.979
0.203 0.379 0.978
0.2 0.379 0.975
0.194 0.37 0.971
0.192 0.373 0.969
0.189 0.375 0.967
0.186 0.374 0.965
0.181 0.368 0.962
0.178 0.367 0.959
0.174 0.364 0.956
0.171 0.363 0.954
0.167 0.362 0.952
0.165 0.363 0.95
0.162 0.361 0.948
0.157 0.355 0.944
0.155 0.356 0.943
0.152 0.357 0.941
0.148 0.353 0.938
0.145 0.35 0.936
0.145 0.361 0.936
0.142 0.362 0.934
0.141 0.367 0.932
0.138 0.37 0.931
0.138 0.38 0.93
0.137 0.392 0.93
0.137 0.408 0.93
0.135 0.415 0.928
0.131 0.41 0.926
0.128 0.411 0.923
0.124 0.402 0.92
0.121 0.402 0.918
0.119 0.406 0.916
0.115 0.403 0.914
0.112 0.398 0.912
0.109 0.397 0.909
0.106 0.394 0.907
0.103 0.397 0.905
0.101 0.402 0.904
0.098 0.4 0.901
0.095 0.4 0.899
0.092 0.394 0.897
0.088 0.385 0.895
0.085 0.38 0.892
0.083 0.382 0.891
0.08 0.384 0.889
0.077 0.381 0.887
0.075 0.382 0.885
0.072 0.388 0.883
0.069 0.384 0.881
0.066 0.381 0.879
0.066 -0.487 0.879
0.069 -0.487 0.882
0.073 -0.487 0.884
0.076 -0.48 0.887
0.08 -0.488 0.889
0.083 -0.48 0.892
0.086 -0.479 0.894
0.089 -0.479 0.897
0.093 -0.48 0.899
0.096 -0.48 0.902
0.099 -0.474 0.904
0.103 -0.475 0.906
0.106 -0.478 0.909
0.11 -0.479 0.912
0.114 -0.486 0.915
