# .PCD v0.7 - Point Cloud Data file format
VERSION 0.7
FIELDS x y z
SIZE 4 4 4
TYPE F F F
COUNT 1 1 1
WIDTH 2513
HEIGHT 1
VIEWPOINT 0 0 0 1 0 0 0
POINTS 2513
DATA ascii
0.64 -0.738 0.577
0.652 -0.74 0.576
0.66 -0.736 0.575
0.671 -0.737 0.574
0.679 -0.732 0.574
0.688 -0.73 0.573
0.692 -0.722 0.573
0.698 -0.716 0.572
0.705 -0.71 0.572
0.717 -0.711 0.571
0.72 -0.701 0.571
0.732 -0.701 0.57
0.741 -0.698 0.569
1.763 -1.675 0.498
1.742 -1.627 0.5
1.702 -1.56 0.503
1.698 -1.53 0.503
1.66 -1.469 0.506
1.681 -1.462 0.504
1.652 -1.411 0.506
1.633 -1.37 0.507
1.727 -1.426 0.501
1.941 -1.577 0.486
1.939 -1.547 0.486
2.229 -1.751 0.466
2.284 -1.763 0.462
2.332 -1.768 0.459
0 0 0
1.674 -1.218 0.505
1.412 -1.005 0.523
1.384 -0.966 0.525
1.417 -0.972 0.522
1.597 -1.078 0.51
2.513 -1.678 0.446
2.667 -1.748 0.435
2.697 -1.735 0.433
2.752 -1.737 0.43
2.782 -1.722 0.427
2.803 -1.702 0.426
2.829 -1.684 0.424
2.563 -1.494 0.443
2.818 -1.612 0.425
2.661 -1.491 0.436
2.707 -1.486 0.433
2.508 -1.347 0.446
2.302 -1.21 0.461
2.296 -1.181 0.461
2.266 -1.141 0.463
2.298 -1.132 0.461
2.347 -1.131 0.458
2.319 -1.093 0.46
2.335 -1.076 0.459
2.339 -1.054 0.458
2.361 -1.039 0.457
2.372 -1.02 0.456
2.402 -1.008 0.454
2.412 -0.988 0.453
2.45 -0.979 0.451
2.482 -0.967 0.448
2.554 -0.97 0.443
2.572 -0.952 0.442
2.587 -0.932 0.441
2.649 -0.929 0.437
2.58 -0.879 0.441
2.589 -0.857 0.441
2.806 -0.903 0.426
2.804 -0.876 0.426
2.812 -0.852 0.425
2.819 -0.827 0.425
2.835 -0.806 0.424
2.866 -0.788 0.422
2.824 -0.75 0.425
2.802 -0.718 0.426
2.802 -0.692 0.426
2.816 -0.67 0.425
2.83 -0.647 0.424
2.89 -0.635 0.42
2.911 -0.613 0.418
1.042 -0.206 0.549
1.046 -0.197 0.548
1.043 -0.188 0.548
1.045 -0.179 0.548
1.047 -0.17 0.548
1.045 -0.161 0.548
0 0 0
0.909 -0.123 0.558
0.889 -0.113 0.559
0.887 -0.105 0.559
0.885 -0.097 0.559
0.885 -0.09 0.559
0.882 -0.082 0.56
0.904 -0.076 0.558
0.905 -0.069 0.558
0.924 -0.063 0.557
0.954 -0.057 0.555
0.962 -0.049 0.554
0.995 -0.042 0.552
1.012 -0.034 0.551
1.032 -0.026 0.549
1.047 -0.018 0.548
1.065 -0.009 0.547
1.082 -0 0.546
1.091 0.009 0.545
1.11 0.019 0.544
1.117 0.028 0.543
1.136 0.039 0.542
1.151 0.049 0.541
1.152 0.059 0.541
1.167 0.07 0.54
1.178 0.08 0.539
1.196 0.092 0.538
1.241 0.106 0.535
1.253 0.118 0.534
4.776 0.5 0.289
4.622 0.524 0.299
4.601 0.562 0.301
4.579 0.6 0.302
4.563 0.638 0.304
4.538 0.675 0.305
4.523 0.713 0.306
4.499 0.749 0.308
4.462 0.783 0.311
2.016 0.368 0.481
2.036 0.39 0.479
4.365 0.884 0.317
4.346 0.919 0.319
2.023 0.442 0.48
2.014 0.459 0.481
2.012 0.476 0.481
1.982 0.487 0.483
1.976 0.504 0.484
1.953 0.516 0.485
1.934 0.529 0.486
1.938 0.548 0.486
1.937 0.565 0.486
1.938 0.584 0.486
1.927 0.599 0.487
1.912 0.612 0.488
1.877 0.619 0.49
1.872 0.635 0.491
1.841 0.642 0.493
1.821 0.653 0.494
1.81 0.666 0.495
1.791 0.677 0.496
1.772 0.687 0.498
1.765 0.702 0.498
1.748 0.713 0.499
1.739 0.726 0.5
1.731 0.74 0.501
1.703 0.746 0.503
1.698 0.761 0.503
1.684 0.772 0.504
1.676 0.786 0.504
1.663 0.797 0.505
1.662 0.814 0.505
1.647 0.824 0.506
1.656 0.847 0.506
1.579 0.824 0.511
1.469 0.782 0.519
1.465 0.796 0.519
1.336 0.739 0.528
1.304 0.736 0.53
1.291 0.743 0.531
1.13 0.661 0.542
1.073 0.639 0.546
1.065 0.647 0.547
1.051 0.651 0.548
1.051 0.663 0.548
1.043 0.671 0.548
1.04 0.681 0.549
1.026 0.685 0.55
0.974 0.661 0.553
0.603 0.408 0.579
0.558 0.383 0.582
0.556 0.388 0.582
0.543 0.386 0.583
0.549 0.398 0.583
0.544 0.401 0.583
0.542 0.407 0.583
0.537 0.41 0.584
0.535 0.415 0.584
0.529 0.418 0.584
0.534 0.429 0.584
0.529 0.433 0.584
0.526 0.438 0.584
0.521 0.441 0.585
0.524 0.452 0.585
0.52 0.456 0.585
0.517 0.461 0.585
0.512 0.465 0.585
0.516 0.476 0.585
0.511 0.48 0.585
0.508 0.485 0.586
0.502 0.488 0.586
0.499 0.493 0.586
0.5 0.503 0.586
0.497 0.508 0.586
0.491 0.511 0.587
0.494 0.524 0.587
0.489 0.526 0.587
0.485 0.531 0.587
0.479 0.533 0.588
0.48 0.545 0.588
0.476 0.549 0.588
0.471 0.553 0.588
0.472 0.564 0.588
0.468 0.569 0.588
0.461 0.57 0.589
0.463 0.583 0.589
0.457 0.587 0.589
0.453 0.591 0.59
0.447 0.594 0.59
0.449 0.607 0.59
0.444 0.611 0.59
0.438 0.615 0.591
0.433 0.619 0.591
0.433 0.631 0.591
0.427 0.633 0.591
0.429 0.648 0.591
0.422 0.65 0.592
0.422 0.663 0.592
0.415 0.664 0.592
0.415 0.677 0.592
0.408 0.68 0.593
0.407 0.692 0.593
0.401 0.695 0.593
0.4 0.707 0.593
0.392 0.708 0.594
0.392 0.722 0.594
0.385 0.724 0.594
0.382 0.735 0.594
0.394 0.778 0.594
0.474 0.972 0.588
0.616 1.315 0.578
0.605 1.321 0.579
0.585 1.306 0.58
0.57 1.302 0.581
0.551 1.287 0.583
0.536 1.282 0.584
0.521 1.277 0.585
0.503 1.262 0.586
0.489 1.256 0.587
0.475 1.252 0.588
0.46 1.244 0.589
0.446 1.24 0.59
0.432 1.232 0.591
0.418 1.227 0.592
0.404 1.218 0.593
0.39 1.211 0.594
0.376 1.202 0.595
0.363 1.196 0.596
0.35 1.187 0.597
0.337 1.181 0.598
0.326 1.182 0.598
0.314 1.175 0.599
0.301 1.165 0.6
0.29 1.167 0.601
0.278 1.159 0.602
0.266 1.15 0.603
0.253 1.14 0.603
0.244 1.144 0.604
0.232 1.134 0.605
0.22 1.126 0.606
0.209 1.116 0.607
0.199 1.118 0.607
0.188 1.109 0.608
0.177 1.1 0.609
0.167 1.101 0.609
0.157 1.093 0.61
0.147 1.093 0.611
0.137 1.085 0.612
0.127 1.085 0.612
0.117 1.074 0.613
0.107 1.07 0.614
0.098 1.072 0.614
0.088 1.061 0.615
0.078 1.055 0.616
0.068 1.019 0.616
0.056 0.903 0.617
0.048 0.872 0.618
0.04 0.83 0.618
0.032 0.525 0.619
0.032 -0.39 0.619
0.037 -0.486 0.619
0.042 -0.544 0.618
0.048 -0.62 0.618
0.056 -0.673 0.617
0.063 -0.704 0.617
0.07 -0.714 0.617
0.077 -0.734 0.616
0.085 -0.753 0.616
0.092 -0.763 0.615
0.101 -0.783 0.615
0.109 -0.802 0.614
0.117 -0.812 0.613
0.128 -0.841 0.613
0.138 -0.86 0.612
0.148 -0.878 0.611
0.158 -0.897 0.611
0.17 -0.925 0.61
0.182 -0.95 0.609
0.194 -0.97 0.608
0.208 -0.998 0.608
0.223 -1.029 0.607
0.238 -1.059 0.606
0.253 -1.088 0.605
0.269 -1.115 0.604
0.269 -1.069 0.604
0.256 -0.972 0.604
0.262 -0.961 0.604
0.269 -0.953 0.604
0.276 -0.944 0.603
0.281 -0.931 0.603
0.292 -0.938 0.602
0.297 -0.926 0.602
0.304 -0.918 0.601
0.31 -0.909 0.601
0.315 -0.898 0.601
0.323 -0.898 0.6
0.331 -0.893 0.6
0.34 -0.895 0.599
0.349 -0.896 0.598
0.353 -0.882 0.598
0.355 -0.865 0.598
0.367 -0.874 0.597
0.371 -0.862 0.597
0.377 -0.856 0.597
0.4 -0.89 0.595
0.409 -0.888 0.595
0.414 -0.88 0.594
0.421 -0.874 0.594
0.425 -0.864 0.594
0.435 -0.865 0.593
0.44 -0.857 0.593
0.447 -0.852 0.592
0.456 -0.852 0.592
0.46 -0.841 0.591
0.467 -0.837 0.591
0.475 -0.834 0.59
0.485 -0.836 0.59
0.493 -0.833 0.589
0.501 -0.829 0.589
0.51 -0.83 0.588
0.514 -0.819 0.588
0.527 -0.825 0.587
0.539 -0.828 0.586
0.544 -0.821 0.586
0.548 -0.81 0.586
0.538 -0.78 0.586
0.544 -0.775 0.586
0.555 -0.776 0.585
0.564 -0.775 0.585
0.576 -0.778 0.584
0.583 -0.774 0.583
0.587 -0.765 0.583
0.593 -0.76 0.583
0.604 -0.76 0.582
0.611 -0.756 0.581
0.621 -0.756 0.581
0.63 -0.753 0.58
0.634 -0.745 0.58
0.647 -0.747 0.579
0.653 -0.742 0.579
0.662 -0.738 0.578
0.671 -0.737 0.578
0.678 -0.732 0.577
0.683 -0.724 0.577
0.685 -0.714 0.577
0.699 -0.716 0.576
0.703 -0.708 0.576
0.718 -0.711 0.575
0.723 -0.705 0.574
0.726 -0.695 0.574
0.741 -0.698 0.573
1.781 -1.692 0.506
1.778 -1.66 0.506
1.739 -1.595 0.509
1.719 -1.548 0.51
1.724 -1.526 0.51
1.725 -1.501 0.509
1.67 -1.426 0.513
1.758 -1.477 0.507
1.855 -1.533 0.501
2.129 -1.732 0.483
2.209 -1.767 0.478
2.24 -1.76 0.476
2.284 -1.763 0.473
2.368 -1.796 0.468
0 0 0
1.525 -1.107 0.522
1.371 -0.975 0.532
1.371 -0.957 0.532
1.397 -0.958 0.531
2.468 -1.678 0.461
2.518 -1.68 0.458
2.687 -1.761 0.447
2.695 -1.732 0.447
2.767 -1.746 0.442
2.816 -1.743 0.439
2.821 -1.713 0.438
2.784 -1.657 0.441
2.49 -1.451 0.46
2.539 -1.45 0.457
2.643 -1.48 0.45
2.624 -1.439 0.451
2.273 -1.219 0.474
2.289 -1.202 0.473
2.303 -1.184 0.472
2.261 -1.138 0.475
2.302 -1.134 0.472
2.3 -1.108 0.472
2.305 -1.086 0.472
2.321 -1.07 0.471
2.332 -1.05 0.47
2.35 -1.034 0.469
2.365 -1.016 0.468
2.383 -1 0.467
2.399 -0.982 0.466
2.425 -0.969 0.464
2.443 -0.951 0.463
2.518 -0.956 0.458
2.547 -0.942 0.456
2.561 -0.922 0.455
2.555 -0.895 0.456
2.573 -0.877 0.455
2.587 -0.857 0.454
2.801 -0.901 0.44
2.804 -0.876 0.44
2.812 -0.852 0.439
2.81 -0.824 0.439
2.834 -0.805 0.438
2.883 -0.792 0.434
2.835 -0.753 0.438
2.813 -0.721 0.439
2.801 -0.692 0.44
2.817 -0.67 0.439
2.831 -0.647 0.438
2.876 -0.632 0.435
3.123 -0.658 0.419
1.035 -0.204 0.554
1.053 -0.199 0.553
1.043 -0.188 0.554
1.046 -0.179 0.553
1.046 -0.17 0.553
1.052 -0.162 0.553
0 0 0
0.909 -0.123 0.562
0.889 -0.113 0.564
0.885 -0.105 0.564
0.885 -0.097 0.564
0.89 -0.09 0.563
0.89 -0.083 0.563
0.897 -0.076 0.563
0.917 -0.07 0.562
0.934 -0.063 0.561
0.953 -0.056 0.559
0.974 -0.049 0.558
0.995 -0.042 0.557
1.004 -0.034 0.556
1.035 -0.026 0.554
1.051 -0.018 0.553
1.069 -0.009 0.552
1.08 -0 0.551
1.104 0.009 0.55
1.112 0.019 0.549
1.132 0.029 0.548
1.127 0.038 0.548
1.144 0.049 0.547
1.161 0.059 0.546
1.164 0.069 0.546
1.188 0.081 0.544
1.205 0.093 0.543
1.235 0.105 0.541
1.242 0.117 0.541
4.781 0.5 0.312
4.622 0.524 0.322
4.603 0.562 0.323
4.579 0.6 0.325
4.56 0.638 0.326
4.543 0.675 0.327
4.521 0.712 0.329
4.533 0.755 0.328
4.492 0.788 0.33
2.024 0.37 0.49
0 0 0
4.367 0.884 0.338
4.339 0.917 0.34
4.339 0.957 0.34
2.023 0.46 0.49
2.013 0.476 0.491
2.011 0.494 0.491
1.979 0.505 0.493
1.946 0.514 0.495
1.944 0.531 0.495
1.926 0.544 0.496
1.945 0.568 0.495
1.936 0.583 0.496
1.906 0.592 0.498
1.89 0.605 0.499
1.883 0.621 0.499
1.866 0.633 0.5
1.838 0.641 0.502
1.821 0.653 0.503
1.806 0.665 0.504
1.787 0.675 0.505
1.773 0.687 0.506
1.76 0.699 0.507
1.752 0.714 0.508
1.736 0.725 0.509
1.727 0.738 0.509
1.714 0.75 0.51
1.704 0.763 0.511
1.686 0.773 0.512
1.681 0.788 0.512
1.671 0.801 0.513
1.662 0.814 0.513
1.659 0.831 0.514
1.662 0.85 0.514
1.673 0.874 0.513
1.507 0.803 0.524
1.461 0.794 0.527
1.344 0.744 0.534
1.304 0.736 0.537
1.282 0.738 0.538
1.119 0.655 0.549
1.062 0.632 0.552
1.057 0.642 0.553
1.052 0.651 0.553
1.053 0.664 0.553
1.044 0.671 0.553
1.04 0.681 0.554
1.027 0.685 0.555
0.99 0.672 0.557
0.612 0.414 0.581
0.559 0.384 0.585
0.556 0.388 0.585
0.545 0.387 0.586
0.541 0.391 0.586
0.546 0.402 0.586
0.542 0.407 0.586
0.539 0.411 0.586
0.535 0.415 0.586
0.531 0.42 0.587
0.535 0.43 0.586
0.53 0.434 0.587
0.526 0.437 0.587
0.529 0.448 0.587
0.525 0.453 0.587
0.521 0.456 0.587
0.517 0.461 0.588
0.513 0.465 0.588
0.509 0.47 0.588
0.511 0.48 0.588
0.508 0.485 0.588
0.503 0.488 0.589
0.499 0.493 0.589
0.501 0.504 0.589
0.497 0.508 0.589
0.492 0.511 0.589
0.494 0.523 0.589
0.489 0.527 0.589
0.484 0.53 0.59
0.486 0.542 0.59
0.481 0.546 0.59
0.476 0.549 0.59
0.471 0.553 0.591
0.472 0.564 0.59
0.466 0.566 0.591
0.468 0.579 0.591
0.463 0.583 0.591
0.458 0.587 0.591
0.454 0.592 0.592
0.448 0.596 0.592
0.449 0.607 0.592
0.445 0.613 0.592
0.439 0.615 0.593
0.439 0.627 0.593
0.433 0.631 0.593
0.428 0.634 0.593
0.428 0.647 0.593
0.422 0.65 0.594
0.417 0.654 0.594
0.415 0.665 0.594
0.415 0.677 0.594
0.409 0.68 0.595
0.407 0.692 0.595
0.401 0.695 0.595
0.4 0.708 0.595
0.393 0.71 0.596
0.392 0.722 0.596
0.385 0.725 0.596
0.382 0.735 0.596
0.393 0.776 0.596
0.47 0.963 0.591
0.616 1.315 0.581
0.602 1.312 0.582
0.586 1.307 0.583
0.57 1.302 0.584
0.555 1.297 0.585
0.537 1.283 0.586
0.522 1.277 0.587
0.503 1.263 0.588
0.489 1.257 0.589
0.475 1.252 0.59
0.46 1.244 0.591
0.446 1.239 0.592
0.432 1.233 0.593
0.418 1.226 0.594
0.404 1.218 0.595
0.391 1.213 0.596
0.376 1.203 0.597
0.363 1.195 0.598
0.35 1.189 0.598
0.34 1.191 0.599
0.327 1.183 0.6
0.313 1.174 0.601
0.303 1.174 0.601
0.288 1.158 0.602
0.278 1.159 0.603
0.266 1.15 0.604
0.254 1.141 0.605
0.242 1.135 0.605
0.232 1.136 0.606
0.22 1.125 0.607
0.21 1.126 0.607
0.199 1.119 0.608
0.188 1.108 0.609
0.177 1.101 0.61
0.166 1.092 0.61
0.157 1.093 0.611
0.147 1.094 0.612
0.137 1.085 0.612
0.127 1.085 0.613
0.117 1.082 0.613
0.107 1.072 0.614
0.098 1.071 0.615
0.088 1.06 0.615
0.078 1.056 0.616
0.068 1.02 0.617
0.056 0.9 0.617
0.047 0.867 0.618
0.04 0.84 0.618
0.032 0.563 0.619
0.032 -0.39 0.619
0.036 -0.478 0.619
0.042 -0.544 0.619
0.048 -0.62 0.618
0.056 -0.675 0.618
0.063 -0.703 0.618
0.069 -0.713 0.617
0.077 -0.734 0.617
0.085 -0.753 0.617
0.092 -0.763 0.616
0.1 -0.783 0.616
0.109 -0.802 0.615
0.117 -0.812 0.615
0.128 -0.841 0.614
0.138 -0.861 0.614
0.149 -0.889 0.613
0.158 -0.896 0.613
0.17 -0.926 0.612
0.182 -0.95 0.611
0.196 -0.979 0.611
0.208 -0.999 0.61
0.222 -1.028 0.609
0.237 -1.058 0.609
0.253 -1.087 0.608
0.269 -1.115 0.607
0.268 -1.066 0.607
0.257 -0.975 0.608
0.26 -0.949 0.607
0.269 -0.953 0.607
0.276 -0.943 0.607
0.283 -0.938 0.606
0.292 -0.938 0.606
0.294 -0.914 0.606
0.305 -0.921 0.605
0.307 -0.901 0.605
0.318 -0.907 0.604
0.325 -0.903 0.604
0.331 -0.893 0.604
0.34 -0.895 0.603
0.347 -0.89 0.603
0.353 -0.884 0.603
0.36 -0.878 0.602
0.367 -0.874 0.602
0.371 -0.862 0.602
0.383 -0.87 0.601
0.401 -0.892 0.6
0.405 -0.88 0.6
0.415 -0.882 0.599
0.418 -0.867 0.599
0.427 -0.868 0.599
0.433 -0.862 0.598
0.442 -0.861 0.598
0.448 -0.855 0.598
0.453 -0.845 0.597
0.461 -0.843 0.597
0.469 -0.84 0.596
0.48 -0.844 0.596
0.482 -0.83 0.596
0.496 -0.838 0.595
0.504 -0.835 0.595
0.509 -0.828 0.594
0.512 -0.815 0.594
0.528 -0.826 0.593
0.541 -0.831 0.593
0.543 -0.818 0.593
0.546 -0.807 0.592
0.537 -0.778 0.593
0.542 -0.772 0.593
0.555 -0.776 0.592
0.564 -0.775 0.591
0.568 -0.767 0.591
0.579 -0.769 0.591
0.589 -0.768 0.59
0.596 -0.763 0.59
0.598 -0.752 0.59
0.613 -0.758 0.589
0.622 -0.756 0.588
0.627 -0.749 0.588
0.638 -0.749 0.588
0.64 -0.738 0.587
0.652 -0.74 0.587
0.659 -0.735 0.586
0.664 -0.728 0.586
0.673 -0.725 0.586
0.679 -0.719 0.585
0.688 -0.717 0.585
0.697 -0.715 0.584
0.705 -0.71 0.584
0.71 -0.703 0.584
0.724 -0.705 0.583
0.735 -0.704 0.583
0.743 -0.7 0.582
1.789 -1.699 0.527
1.792 -1.672 0.527
1.75 -1.604 0.529
1.728 -1.557 0.53
1.734 -1.534 0.53
1.746 -1.519 0.53
1.752 -1.497 0.529
1.779 -1.494 0.528
1.82 -1.502 0.526
2.162 -1.758 0.508
2.215 -1.77 0.505
2.245 -1.762 0.503
2.281 -1.76 0.501
2.296 -1.74 0.501
1.632 -1.207 0.536
1.429 -1.035 0.546
1.376 -0.978 0.549
1.387 -0.968 0.548
1.381 -0.946 0.549
1.44 -0.969 0.546
2.619 -1.747 0.484
2.685 -1.758 0.48
2.7 -1.735 0.48
2.755 -1.737 0.477
2.841 -1.758 0.472
2.839 -1.723 0.472
2.577 -1.531 0.486
2.419 -1.408 0.494
2.437 -1.39 0.493
2.433 -1.36 0.494
2.59 -1.42 0.485
2.291 -1.228 0.501
2.294 -1.204 0.501
2.282 -1.173 0.501
2.257 -1.135 0.503
2.297 -1.131 0.501
2.298 -1.107 0.501
2.308 -1.087 0.5
2.326 -1.071 0.499
2.342 -1.054 0.498
2.355 -1.036 0.498
2.377 -1.021 0.496
2.385 -1 0.496
2.404 -0.984 0.495
2.418 -0.965 0.494
2.444 -0.951 0.493
2.463 -0.934 0.492
2.477 -0.915 0.491
2.513 -0.904 0.489
2.526 -0.884 0.489
2.52 -0.858 0.489
2.585 -0.855 0.486
2.802 -0.901 0.474
2.806 -0.876 0.474
2.804 -0.849 0.474
2.811 -0.824 0.474
2.845 -0.808 0.472
2.906 -0.798 0.469
2.854 -0.757 0.471
2.824 -0.723 0.473
2.82 -0.696 0.473
2.828 -0.672 0.473
2.844 -0.65 0.472
2.894 -0.635 0.469
3.032 -0.638 0.462
1.057 -0.209 0.566
1.056 -0.199 0.566
1.047 -0.188 0.566
1.046 -0.179 0.566
1.048 -0.17 0.566
1.045 -0.161 0.566
0.952 -0.138 0.571
0.901 -0.122 0.574
0.894 -0.114 0.574
0.885 -0.105 0.575
0.883 -0.097 0.575
0.89 -0.09 0.574
0.887 -0.082 0.575
0.901 -0.076 0.574
0.917 -0.07 0.573
0.94 -0.064 0.572
0.958 -0.057 0.571
0.975 -0.05 0.57
0.996 -0.042 0.569
1.014 -0.034 0.568
1.038 -0.026 0.567
1.053 -0.018 0.566
1.073 -0.009 0.565
1.081 -0 0.564
1.099 0.009 0.563
1.115 0.019 0.563
1.132 0.029 0.562
1.139 0.039 0.561
1.144 0.049 0.561
1.162 0.059 0.56
1.171 0.07 0.56
1.178 0.08 0.559
1.223 0.094 0.557
1.236 0.105 0.556
1.254 0.118 0.555
4.847 0.507 0.367
4.629 0.524 0.378
4.611 0.563 0.379
4.601 0.602 0.38
4.593 0.642 0.38
4.56 0.678 0.382
4.579 0.721 0.381
4.52 0.752 0.384
4.475 0.785 0.386
2.045 0.374 0.514
4.433 0.857 0.389
2.138 0.429 0.509
2.138 0.448 0.509
2.166 0.474 0.508
4.316 0.99 0.395
4.355 1.039 0.393
4.556 1.13 0.382
0 0 0
2.002 0.529 0.516
1.983 0.542 0.517
1.925 0.544 0.52
1.907 0.556 0.521
1.909 0.575 0.521
1.881 0.584 0.522
1.868 0.597 0.523
1.865 0.614 0.523
1.847 0.626 0.524
1.833 0.639 0.525
1.821 0.652 0.526
1.806 0.664 0.526
1.789 0.676 0.527
1.781 0.69 0.528
1.767 0.702 0.528
1.761 0.717 0.529
1.74 0.726 0.53
1.724 0.737 0.531
1.716 0.751 0.531
1.696 0.759 0.532
1.696 0.777 0.532
1.682 0.788 0.533
1.675 0.803 0.533
1.672 0.819 0.533
1.671 0.836 0.533
1.775 0.909 0.528
1.807 0.945 0.526
1.485 0.79 0.543
1.449 0.786 0.545
1.356 0.75 0.55
1.306 0.737 0.553
1.282 0.737 0.554
1.118 0.654 0.562
1.063 0.633 0.565
1.057 0.641 0.566
1.051 0.65 0.566
1.052 0.663 0.566
1.042 0.669 0.566
1.041 0.682 0.566
1.028 0.685 0.567
0.999 0.678 0.569
0.622 0.422 0.588
0.56 0.384 0.592
0.556 0.388 0.592
0.545 0.387 0.592
0.549 0.398 0.592
0.538 0.396 0.593
0.542 0.407 0.593
0.539 0.411 0.593
0.535 0.415 0.593
0.532 0.42 0.593
0.534 0.429 0.593
0.529 0.433 0.593
0.526 0.437 0.593
0.522 0.442 0.594
0.525 0.452 0.594
0.521 0.456 0.594
0.517 0.461 0.594
0.513 0.465 0.594
0.509 0.47 0.594
0.512 0.48 0.594
0.507 0.484 0.594
0.503 0.488 0.595
0.505 0.499 0.595
0.501 0.503 0.595
0.497 0.508 0.595
0.492 0.512 0.595
0.487 0.515 0.595
0.489 0.526 0.595
0.484 0.53 0.596
0.479 0.534 0.596
0.481 0.546 0.596
0.476 0.549 0.596
0.477 0.56 0.596
0.472 0.564 0.596
0.468 0.569 0.597
0.468 0.58 0.596
0.463 0.583 0.597
0.458 0.587 0.597
0.453 0.591 0.597
0.448 0.596 0.598
0.449 0.607 0.598
0.444 0.611 0.598
0.439 0.615 0.598
0.438 0.626 0.598
0.433 0.631 0.598
0.428 0.634 0.599
0.422 0.638 0.599
0.422 0.651 0.599
0.416 0.653 0.599
0.416 0.665 0.599
0.41 0.668 0.6
0.409 0.68 0.6
0.403 0.685 0.6
0.401 0.695 0.6
0.395 0.699 0.6
0.393 0.709 0.6
0.392 0.723 0.6
0.385 0.724 0.601
0.383 0.737 0.601
0.394 0.777 0.6
0.457 0.934 0.597
0.617 1.316 0.589
0.602 1.312 0.589
0.586 1.307 0.59
0.571 1.302 0.591
0.552 1.289 0.592
0.536 1.282 0.593
0.522 1.279 0.594
0.507 1.273 0.594
0.489 1.258 0.595
0.475 1.252 0.596
0.461 1.246 0.597
0.446 1.239 0.598
0.432 1.233 0.598
0.418 1.226 0.599
0.404 1.219 0.6
0.391 1.213 0.601
0.377 1.203 0.601
0.363 1.195 0.602
0.35 1.187 0.603
0.339 1.189 0.603
0.324 1.171 0.604
0.313 1.173 0.605
0.301 1.165 0.605
0.288 1.158 0.606
0.278 1.16 0.606
0.266 1.149 0.607
0.254 1.143 0.608
0.242 1.133 0.608
0.232 1.136 0.609
0.22 1.125 0.609
0.209 1.117 0.61
0.199 1.119 0.611
0.188 1.109 0.611
0.177 1.101 0.612
0.167 1.101 0.612
0.156 1.092 0.613
0.146 1.083 0.613
0.136 1.086 0.614
0.126 1.075 0.614
0.116 1.074 0.615
0.107 1.071 0.615
0.098 1.072 0.616
0.088 1.06 0.616
0.078 1.055 0.617
0.068 1.02 0.617
0.056 0.904 0.618
0.047 0.867 0.619
0.039 0.837 0.619
0.032 0.526 0.619
0.032 -0.404 0.62
0.036 -0.48 0.619
0.041 -0.544 0.619
0.048 -0.633 0.619
0.055 -0.675 0.619
0.063 -0.704 0.618
0.07 -0.724 0.618
0.077 -0.735 0.618
0.085 -0.753 0.617
0.092 -0.763 0.617
0.1 -0.783 0.617
0.108 -0.792 0.616
0.118 -0.822 0.616
0.126 -0.831 0.615
0.137 -0.86 0.615
0.147 -0.878 0.614
0.158 -0.896 0.614
0.171 -0.935 0.613
0.183 -0.953 0.613
0.196 -0.979 0.612
0.206 -0.989 0.612
0.222 -1.028 0.611
0.238 -1.059 0.61
0.253 -1.087 0.61
0.269 -1.115 0.609
0.267 -1.059 0.609
0.252 -0.956 0.61
0.261 -0.954 0.609
0.269 -0.95 0.609
0.276 -0.945 0.609
0.283 -0.938 0.608
0.289 -0.929 0.608
0.298 -0.928 0.608
0.301 -0.908 0.607
0.312 -0.918 0.607
0.319 -0.911 0.607
0.322 -0.893 0.607
0.331 -0.893 0.606
0.34 -0.895 0.606
0.346 -0.887 0.605
0.355 -0.888 0.605
0.36 -0.878 0.605
0.364 -0.866 0.605
0.372 -0.864 0.604
0.38 -0.863 0.604
0.402 -0.894 0.603
0.405 -0.881 0.603
0.416 -0.883 0.602
0.418 -0.869 0.602
0.424 -0.862 0.602
0.435 -0.865 0.601
0.438 -0.853 0.601
0.449 -0.857 0.601
0.454 -0.847 0.601
0.457 -0.835 0.6
0.464 -0.831 0.6
0.471 -0.827 0.6
0.482 -0.83 0.599
0.492 -0.831 0.599
0.5 -0.828 0.599
0.506 -0.823 0.598
0.514 -0.819 0.598
0.523 -0.819 0.597
0.533 -0.819 0.597
0.543 -0.818 0.597
0.548 -0.81 0.596
0.538 -0.781 0.597
0.544 -0.775 0.597
0.555 -0.776 0.596
0.565 -0.777 0.596
0.573 -0.774 0.595
0.58 -0.769 0.595
0.586 -0.763 0.595
0.593 -0.76 0.594
0.6 -0.755 0.594
0.611 -0.756 0.594
0.622 -0.756 0.593
0.625 -0.747 0.593
0.634 -0.745 0.592
0.64 -0.738 0.592
0.645 -0.731 0.592
0.66 -0.736 0.591
0.669 -0.734 0.591
0.676 -0.729 0.591
0.689 -0.731 0.59
0.691 -0.72 0.59
0.699 -0.716 0.59
0.707 -0.712 0.589
0.711 -0.704 0.589
0.722 -0.703 0.589
0.731 -0.699 0.588
0.739 -0.696 0.588
1.785 -1.694 0.541
1.792 -1.672 0.54
1.748 -1.602 0.542
1.724 -1.552 0.543
1.736 -1.536 0.543
1.747 -1.519 0.542
1.751 -1.496 0.542
1.776 -1.491 0.541
1.817 -1.499 0.539
2.142 -1.741 0.525
2.216 -1.77 0.521
2.246 -1.763 0.52
2.28 -1.758 0.518
2.316 -1.754 0.517
1.598 -1.181 0.549
1.409 -1.02 0.558
1.387 -0.986 0.559
1.394 -0.973 0.558
1.378 -0.944 0.559
1.419 -0.954 0.557
2.674 -1.784 0.501
2.685 -1.758 0.5
2.7 -1.734 0.5
2.751 -1.734 0.497
2.839 -1.756 0.493
2.858 -1.734 0.492
2.543 -1.51 0.507
2.419 -1.407 0.512
2.408 -1.373 0.513
2.389 -1.335 0.513
2.376 -1.301 0.514
2.316 -1.242 0.517
2.292 -1.203 0.518
2.268 -1.165 0.519
2.259 -1.136 0.519
2.298 -1.131 0.518
2.296 -1.106 0.518
2.306 -1.086 0.517
2.326 -1.071 0.516
2.351 -1.058 0.515
2.364 -1.039 0.515
2.374 -1.02 0.514
2.395 -1.004 0.513
2.415 -0.988 0.512
2.431 -0.97 0.512
2.445 -0.951 0.511
2.462 -0.934 0.51
2.479 -0.916 0.509
2.517 -0.905 0.508
2.537 -0.888 0.507
2.514 -0.856 0.508
2.582 -0.854 0.505
2.807 -0.903 0.495
2.806 -0.876 0.495
2.805 -0.849 0.495
2.812 -0.824 0.494
2.846 -0.808 0.493
2.914 -0.8 0.49
2.862 -0.759 0.492
2.836 -0.726 0.493
2.832 -0.699 0.494
2.838 -0.674 0.493
2.854 -0.652 0.493
2.894 -0.635 0.491
3.003 -0.632 0.486
1.046 -0.207 0.574
1.068 -0.202 0.573
1.047 -0.188 0.574
1.055 -0.181 0.574
1.051 -0.171 0.574
1.047 -0.161 0.574
0.927 -0.134 0.579
0.897 -0.122 0.581
0.887 -0.113 0.581
0.886 -0.105 0.581
0.881 -0.097 0.581
0.89 -0.09 0.581
0.898 -0.083 0.581
0.901 -0.076 0.58
0.924 -0.07 0.579
0.941 -0.064 0.579
0.968 -0.057 0.577
0.98 -0.05 0.577
0.993 -0.042 0.576
1.022 -0.035 0.575
1.039 -0.026 0.574
1.054 -0.018 0.574
1.077 -0.009 0.573
1.084 -0 0.572
1.103 0.009 0.571
1.113 0.019 0.571
1.132 0.029 0.57
1.135 0.039 0.57
1.149 0.049 0.569
1.172 0.06 0.568
1.175 0.07 0.568
1.19 0.081 0.567
1.216 0.093 0.566
1.235 0.105 0.565
1.286 0.121 0.563
4.854 0.507 0.403
4.633 0.525 0.412
4.61 0.563 0.414
4.585 0.6 0.415
4.572 0.639 0.415
4.544 0.675 0.416
4.531 0.713 0.417
4.501 0.749 0.418
4.475 0.784 0.42
2.051 0.375 0.529
2.089 0.4 0.527
2.099 0.421 0.527
2.116 0.443 0.526
2.145 0.469 0.524
2.21 0.503 0.522
2.263 0.536 0.519
4.56 1.13 0.416
0 0 0
0 0 0
0 0 0
1.921 0.542 0.535
1.895 0.552 0.536
1.883 0.567 0.536
1.862 0.578 0.537
1.856 0.593 0.537
1.846 0.608 0.538
1.841 0.623 0.538
1.834 0.639 0.538
1.825 0.653 0.539
1.808 0.665 0.54
1.795 0.677 0.54
1.765 0.684 0.542
1.751 0.695 0.542
1.75 0.712 0.542
1.74 0.726 0.543
1.732 0.74 0.543
1.722 0.753 0.544
1.706 0.764 0.544
1.705 0.781 0.544
1.698 0.796 0.545
1.682 0.806 0.545
1.681 0.823 0.545
1.689 0.845 0.545
1.83 0.937 0.539
1.876 0.982 0.537
1.479 0.786 0.554
1.456 0.79 0.555
1.353 0.748 0.56
1.306 0.737 0.562
1.289 0.741 0.563
1.112 0.649 0.571
1.063 0.632 0.573
1.058 0.642 0.573
1.052 0.651 0.574
1.053 0.664 0.574
1.042 0.669 0.574
1.04 0.681 0.574
1.029 0.686 0.575
0.999 0.678 0.576
0.622 0.422 0.593
0.56 0.384 0.596
0.548 0.382 0.596
0.553 0.393 0.596
0.542 0.391 0.597
0.546 0.402 0.596
0.542 0.407 0.597
0.539 0.411 0.597
0.535 0.415 0.597
0.531 0.419 0.597
0.528 0.424 0.597
0.523 0.428 0.597
0.526 0.437 0.597
0.522 0.442 0.598
0.518 0.446 0.598
0.514 0.45 0.598
0.517 0.461 0.598
0.513 0.465 0.598
0.509 0.469 0.598
0.505 0.474 0.598
0.501 0.478 0.598
0.503 0.488 0.598
0.499 0.493 0.599
0.494 0.496 0.599
0.49 0.501 0.599
0.491 0.511 0.599
0.494 0.523 0.599
0.489 0.526 0.599
0.484 0.53 0.599
0.479 0.534 0.599
0.481 0.545 0.599
0.476 0.549 0.6
0.477 0.56 0.6
0.472 0.564 0.6
0.467 0.568 0.6
0.462 0.571 0.6
0.463 0.583 0.6
0.458 0.587 0.6
0.453 0.591 0.601
0.448 0.596 0.601
0.448 0.607 0.601
0.444 0.611 0.601
0.438 0.615 0.601
0.433 0.618 0.602
0.434 0.632 0.601
0.428 0.634 0.602
0.428 0.647 0.602
0.422 0.651 0.602
0.421 0.662 0.602
0.416 0.665 0.602
0.415 0.677 0.602
0.408 0.68 0.603
0.407 0.692 0.603
0.401 0.695 0.603
0.4 0.707 0.603
0.392 0.708 0.603
0.392 0.722 0.603
0.385 0.724 0.604
0.383 0.737 0.604
0.392 0.772 0.603
0.453 0.925 0.601
0.617 1.316 0.593
0.602 1.311 0.594
0.586 1.307 0.595
0.571 1.303 0.595
0.552 1.288 0.596
0.536 1.282 0.597
0.522 1.278 0.598
0.507 1.271 0.598
0.489 1.257 0.599
0.475 1.252 0.6
0.46 1.245 0.6
0.446 1.239 0.601
0.432 1.234 0.602
0.418 1.226 0.602
0.405 1.221 0.603
0.391 1.212 0.603
0.377 1.203 0.604
0.363 1.195 0.605
0.35 1.187 0.605
0.339 1.188 0.606
0.326 1.181 0.606
0.313 1.174 0.607
0.301 1.165 0.607
0.291 1.168 0.608
0.278 1.159 0.609
0.266 1.151 0.609
0.254 1.144 0.61
0.242 1.133 0.61
0.232 1.134 0.611
0.22 1.125 0.611
0.21 1.126 0.612
0.199 1.118 0.612
0.188 1.109 0.613
0.177 1.101 0.613
0.166 1.093 0.614
0.156 1.093 0.614
0.146 1.083 0.614
0.136 1.085 0.615
0.127 1.084 0.615
0.116 1.072 0.616
0.107 1.071 0.616
0.097 1.061 0.617
0.087 1.06 0.617
0.078 1.058 0.618
0.068 1.022 0.618
0.056 0.904 0.619
0.047 0.87 0.619
0.039 0.837 0.619
0.032 0.571 0.62
0.032 -0.389 0.62
0.036 -0.478 0.62
0.041 -0.544 0.619
0.048 -0.622 0.619
0.055 -0.674 0.619
0.063 -0.704 0.619
0.069 -0.714 0.618
0.077 -0.734 0.618
0.084 -0.753 0.618
0.092 -0.763 0.617
0.1 -0.783 0.617
0.109 -0.802 0.617
0.118 -0.821 0.616
0.126 -0.831 0.616
0.137 -0.861 0.616
0.147 -0.878 0.615
0.158 -0.897 0.615
0.17 -0.925 0.614
0.183 -0.953 0.614
0.195 -0.978 0.613
0.208 -0.999 0.613
0.222 -1.028 0.612
0.238 -1.059 0.611
0.253 -1.087 0.611
0.269 -1.115 0.61
0.266 -1.058 0.61
0.253 -0.96 0.611
0.259 -0.949 0.611
0.269 -0.952 0.61
0.277 -0.948 0.61
0.282 -0.935 0.61
0.292 -0.939 0.609
0.298 -0.93 0.609
0.301 -0.911 0.609
0.31 -0.911 0.609
0.318 -0.907 0.608
0.325 -0.903 0.608
0.329 -0.888 0.608
0.339 -0.892 0.607
0.347 -0.89 0.607
0.352 -0.881 0.607
0.358 -0.873 0.607
0.364 -0.866 0.606
0.372 -0.864 0.606
0.38 -0.863 0.606
0.4 -0.89 0.605
0.408 -0.887 0.605
0.416 -0.883 0.604
0.419 -0.87 0.604
0.426 -0.865 0.604
0.435 -0.865 0.604
0.444 -0.865 0.603
0.445 -0.848 0.603
0.454 -0.847 0.603
0.457 -0.836 0.603
0.465 -0.832 0.602
0.471 -0.827 0.602
0.483 -0.831 0.602
0.493 -0.833 0.601
0.501 -0.83 0.601
0.508 -0.825 0.601
0.516 -0.822 0.6
0.524 -0.82 0.6
0.538 -0.826 0.599
0.537 -0.81 0.599
0.55 -0.815 0.599
0.541 -0.784 0.599
0.544 -0.775 0.599
0.556 -0.778 0.599
0.559 -0.768 0.599
0.573 -0.774 0.598
0.578 -0.766 0.598
0.592 -0.772 0.597
0.596 -0.763 0.597
0.604 -0.76 0.597
0.612 -0.756 0.596
0.624 -0.758 0.596
0.619 -0.739 0.596
0.634 -0.744 0.596
0.639 -0.738 0.595
0.649 -0.736 0.595
0.657 -0.733 0.595
0.669 -0.734 0.594
0.676 -0.729 0.594
0.682 -0.723 0.594
0.691 -0.72 0.593
0.701 -0.718 0.593
0.711 -0.716 0.592
0.711 -0.704 0.592
0.722 -0.703 0.592
0.728 -0.697 0.592
0.74 -0.696 0.591
1.79 -1.699 0.549
1.792 -1.672 0.549
1.739 -1.593 0.551
1.728 -1.556 0.552
1.737 -1.536 0.551
1.742 -1.514 0.551
1.759 -1.502 0.55
1.777 -1.492 0.55
1.811 -1.494 0.548
2.124 -1.726 0.536
2.216 -1.77 0.532
2.246 -1.763 0.531
2.28 -1.758 0.53
1.76 -1.327 0.55
1.621 -1.199 0.556
1.401 -1.014 0.565
1.387 -0.985 0.565
1.398 -0.975 0.565
1.37 -0.938 0.566
1.405 -0.945 0.565
2.7 -1.801 0.513
2.716 -1.778 0.512
2.718 -1.746 0.512
2.75 -1.733 0.511
2.847 -1.76 0.507
2.862 -1.736 0.506
2.648 -1.573 0.515
2.412 -1.403 0.524
2.394 -1.365 0.525
2.38 -1.33 0.526
2.359 -1.291 0.526
2.306 -1.236 0.528
2.283 -1.198 0.529
2.264 -1.163 0.53
2.254 -1.133 0.531
2.266 -1.115 0.53
2.282 -1.099 0.529
2.295 -1.081 0.529
2.322 -1.069 0.528
2.334 -1.05 0.527
2.352 -1.034 0.527
2.37 -1.018 0.526
2.393 -1.003 0.525
2.403 -0.983 0.525
2.434 -0.971 0.523
2.452 -0.954 0.523
2.471 -0.937 0.522
2.498 -0.923 0.521
2.517 -0.905 0.52
2.546 -0.891 0.519
2.52 -0.858 0.52
2.699 -0.893 0.513
2.811 -0.904 0.508
2.808 -0.876 0.508
2.806 -0.849 0.508
2.822 -0.827 0.508
2.854 -0.81 0.506
2.943 -0.808 0.503
2.869 -0.761 0.506
2.846 -0.728 0.507
2.835 -0.699 0.507
2.841 -0.675 0.507
2.864 -0.654 0.506
2.897 -0.636 0.505
3.002 -0.632 0.501
1.118 -0.221 0.576
1.064 -0.201 0.578
1.046 -0.188 0.579
1.055 -0.181 0.579
1.051 -0.171 0.579
1.006 -0.154 0.581
0.917 -0.132 0.584
0.896 -0.121 0.585
0.898 -0.114 0.585
0.886 -0.105 0.585
0.891 -0.098 0.585
0.89 -0.09 0.585
0.892 -0.083 0.585
0.904 -0.076 0.585
0.917 -0.07 0.584
0.944 -0.064 0.583
0.972 -0.058 0.582
0.976 -0.05 0.582
1.001 -0.042 0.581
1.021 -0.035 0.58
1.047 -0.027 0.579
1.057 -0.018 0.579
1.073 -0.009 0.578
1.088 -0 0.577
1.103 0.009 0.577
1.113 0.019 0.576
1.143 0.029 0.575
1.139 0.039 0.575
1.156 0.049 0.575
1.162 0.059 0.574
1.171 0.07 0.574
1.188 0.081 0.573
1.209 0.093 0.572
1.228 0.105 0.572
5.427 0.52 0.403
4.848 0.507 0.426
4.631 0.524 0.435
4.599 0.561 0.436
4.585 0.6 0.437
4.57 0.638 0.438
4.545 0.675 0.439
4.53 0.713 0.439
4.5 0.748 0.44
2.016 0.35 0.54
2.04 0.372 0.539
2.023 0.387 0.54
2.064 0.414 0.538
2.106 0.441 0.537
2.151 0.47 0.535
2.205 0.502 0.533
2.241 0.531 0.531
0 0 0
0 0 0
0 0 0
0 0 0
1.96 0.553 0.542
1.911 0.557 0.544
1.88 0.565 0.546
1.869 0.58 0.546
1.858 0.594 0.546
1.836 0.604 0.547
1.836 0.622 0.547
1.821 0.634 0.548
1.823 0.653 0.548
1.805 0.664 0.549
1.791 0.676 0.549
1.765 0.683 0.55
1.755 0.697 0.551
1.758 0.716 0.55
1.744 0.728 0.551
1.735 0.741 0.551
1.726 0.755 0.552
1.712 0.766 0.552
1.705 0.781 0.553
1.702 0.797 0.553
1.689 0.809 0.553
1.699 0.832 0.553
1.812 0.908 0.548
1.868 0.957 0.546
1.884 0.985 0.545
1.531 0.815 0.56
1.457 0.791 0.563
1.356 0.75 0.567
1.313 0.74 0.568
1.286 0.739 0.569
1.08 0.63 0.578
1.064 0.633 0.578
1.058 0.642 0.579
1.053 0.651 0.579
1.054 0.664 0.579
1.043 0.669 0.579
1.041 0.681 0.579
1.03 0.686 0.58
1.01 0.685 0.58
0.633 0.429 0.596
0.558 0.383 0.599
0.548 0.382 0.599
0.545 0.387 0.599
0.549 0.398 0.599
0.546 0.402 0.599
0.542 0.407 0.599
0.539 0.411 0.599
0.535 0.415 0.6
0.532 0.42 0.6
0.528 0.424 0.6
0.53 0.433 0.6
0.526 0.437 0.6
0.522 0.442 0.6
0.518 0.446 0.6
0.521 0.457 0.6
0.517 0.461 0.6
0.513 0.465 0.6
0.509 0.469 0.601
0.512 0.48 0.6
0.501 0.478 0.601
0.502 0.488 0.601
0.499 0.493 0.601
0.495 0.497 0.601
0.496 0.507 0.601
0.492 0.512 0.601
0.487 0.515 0.601
0.489 0.526 0.601
0.484 0.53 0.602
0.487 0.542 0.601
0.481 0.546 0.602
0.476 0.549 0.602
0.477 0.56 0.602
0.472 0.563 0.602
0.467 0.567 0.602
0.461 0.57 0.603
0.462 0.582 0.602
0.458 0.587 0.603
0.453 0.591 0.603
0.448 0.595 0.603
0.443 0.599 0.603
0.444 0.612 0.603
0.438 0.615 0.603
0.438 0.626 0.603
0.433 0.631 0.604
0.427 0.633 0.604
0.428 0.647 0.604
0.422 0.651 0.604
0.421 0.662 0.604
0.416 0.665 0.604
0.415 0.677 0.604
0.414 0.689 0.604
0.408 0.693 0.605
0.397 0.688 0.605
0.399 0.705 0.605
0.393 0.709 0.605
0.391 0.721 0.605
0.385 0.724 0.606
0.383 0.737 0.606
0.392 0.772 0.605
0.454 0.927 0.603
0.617 1.316 0.596
0.606 1.321 0.597
0.59 1.316 0.597
0.571 1.303 0.598
0.551 1.287 0.599
0.537 1.283 0.599
0.522 1.277 0.6
0.507 1.272 0.601
0.489 1.256 0.601
0.475 1.252 0.602
0.46 1.245 0.603
0.446 1.239 0.603
0.432 1.233 0.604
0.418 1.226 0.604
0.404 1.219 0.605
0.391 1.212 0.605
0.377 1.204 0.606
0.363 1.196 0.606
0.35 1.188 0.607
0.337 1.18 0.608
0.326 1.181 0.608
0.313 1.174 0.608
0.3 1.164 0.609
0.29 1.167 0.609
0.278 1.159 0.61
0.265 1.148 0.61
0.253 1.141 0.611
0.242 1.134 0.611
0.232 1.134 0.612
0.22 1.126 0.612
0.208 1.116 0.613
0.199 1.119 0.613
0.188 1.109 0.613
0.177 1.101 0.614
0.167 1.102 0.614
0.156 1.092 0.615
0.146 1.084 0.615
0.136 1.084 0.616
0.127 1.085 0.616
0.116 1.074 0.616
0.107 1.071 0.617
0.097 1.072 0.617
0.087 1.06 0.618
0.078 1.058 0.618
0.068 1.031 0.618
0.055 0.904 0.619
0.047 0.877 0.619
0.039 0.83 0.619
0.032 0.58 0.62
0.032 -0.389 0.62
0.036 -0.478 0.62
0.041 -0.551 0.62
0.048 -0.623 0.619
0.055 -0.674 0.619
0.062 -0.704 0.619
0.07 -0.724 0.619
0.077 -0.734 0.619
0.084 -0.753 0.618
0.092 -0.763 0.618
0.1 -0.783 0.618
0.109 -0.802 0.617
0.118 -0.821 0.617
0.127 -0.841 0.617
0.137 -0.86 0.617
0.147 -0.878 0.616
0.159 -0.907 0.616
0.17 -0.925 0.615
0.183 -0.953 0.615
0.195 -0.978 0.615
0.208 -1.001 0.614
0.222 -1.029 0.614
0.237 -1.059 0.613
0.253 -1.088 0.613
0.269 -1.116 0.612
0.266 -1.058 0.612
0.253 -0.96 0.613
0.261 -0.955 0.612
0.267 -0.943 0.612
0.275 -0.943 0.612
0.282 -0.935 0.612
0.29 -0.932 0.612
0.295 -0.919 0.611
0.302 -0.915 0.611
0.308 -0.905 0.611
0.315 -0.9 0.611
0.323 -0.897 0.61
0.333 -0.9 0.61
0.34 -0.895 0.61
0.345 -0.886 0.61
0.351 -0.879 0.61
0.36 -0.878 0.609
0.364 -0.866 0.609
0.368 -0.855 0.609
0.382 -0.867 0.609
0.403 -0.896 0.608
0.408 -0.887 0.608
0.416 -0.884 0.607
0.419 -0.87 0.607
0.426 -0.866 0.607
0.432 -0.858 0.607
0.44 -0.857 0.607
0.445 -0.848 0.606
0.45 -0.839 0.606
0.458 -0.837 0.606
0.465 -0.833 0.606
0.472 -0.828 0.606
0.478 -0.823 0.605
0.494 -0.834 0.605
0.502 -0.831 0.605
0.508 -0.825 0.604
0.517 -0.824 0.604
0.525 -0.821 0.604
0.538 -0.827 0.603
0.544 -0.82 0.603
0.551 -0.816 0.603
0.542 -0.787 0.603
0.544 -0.775 0.603
0.55 -0.769 0.603
0.566 -0.777 0.602
0.573 -0.774 0.602
0.578 -0.766 0.602
0.588 -0.766 0.602
0.592 -0.758 0.602
0.604 -0.76 0.601
0.613 -0.758 0.601
0.622 -0.756 0.601
0.63 -0.752 0.6
0.639 -0.75 0.6
0.646 -0.746 0.6
0.651 -0.738 0.6
0.66 -0.736 0.599
0.664 -0.728 0.599
0.675 -0.728 0.599
0.678 -0.719 0.599
0.689 -0.717 0.598
0.699 -0.716 0.598
0.71 -0.715 0.598
0.711 -0.704 0.598
0.72 -0.7 0.597
0.73 -0.699 0.597
0.749 -0.705 0.596
1.793 -1.702 0.562
1.79 -1.67 0.562
1.733 -1.587 0.564
1.724 -1.552 0.565
1.73 -1.53 0.564
1.746 -1.517 0.564
1.751 -1.495 0.564
1.779 -1.493 0.563
1.811 -1.494 0.562
2.1 -1.706 0.552
2.217 -1.77 0.548
2.248 -1.764 0.547
2.286 -1.762 0.546
1.66 -1.25 0.567
1.619 -1.197 0.568
1.392 -1.007 0.575
1.386 -0.985 0.576
1.393 -0.972 0.575
1.371 -0.938 0.576
1.4 -0.941 0.575
2.707 -1.806 0.532
2.717 -1.778 0.532
2.734 -1.756 0.532
2.759 -1.739 0.531
2.858 -1.767 0.527
2.877 -1.745 0.527
2.838 -1.687 0.528
2.446 -1.423 0.541
2.379 -1.356 0.543
2.369 -1.323 0.543
2.333 -1.277 0.545
2.293 -1.229 0.546
2.272 -1.192 0.547
2.248 -1.154 0.547
2.259 -1.135 0.547
2.249 -1.106 0.547
2.262 -1.088 0.547
2.282 -1.074 0.546
2.3 -1.058 0.546
2.318 -1.043 0.545
2.338 -1.027 0.544
2.364 -1.015 0.544
2.381 -0.998 0.543
2.407 -0.984 0.542
2.417 -0.964 0.542
2.44 -0.949 0.541
2.469 -0.936 0.54
2.483 -0.917 0.54
2.516 -0.905 0.539
2.558 -0.895 0.537
2.527 -0.859 0.538
2.779 -0.92 0.53
2.814 -0.904 0.529
2.808 -0.876 0.529
2.806 -0.849 0.529
2.813 -0.824 0.529
2.853 -0.81 0.528
2.952 -0.81 0.524
2.905 -0.77 0.526
2.853 -0.73 0.528
2.834 -0.699 0.528
2.841 -0.675 0.528
2.866 -0.655 0.527
2.908 -0.638 0.526
3.012 -0.634 0.522
4.111 -0.83 0.486
1.069 -0.202 0.586
1.056 -0.19 0.586
1.052 -0.18 0.587
1.048 -0.17 0.587
1.044 -0.16 0.587
0.916 -0.132 0.591
0.899 -0.122 0.592
0.892 -0.113 0.592
0.88 -0.104 0.592
0.887 -0.097 0.592
0.887 -0.09 0.592
0.895 -0.083 0.592
0.908 -0.077 0.591
0.92 -0.07 0.591
0.945 -0.064 0.59
0.966 -0.057 0.589
0.987 -0.05 0.589
1.012 -0.043 0.588
1.028 -0.035 0.587
1.044 -0.027 0.587
1.06 -0.018 0.586
1.081 -0.009 0.586
1.092 -0 0.585
1.106 0.009 0.585
1.126 0.019 0.584
1.136 0.029 0.584
1.153 0.039 0.583
1.163 0.049 0.583
1.166 0.059 0.583
1.187 0.071 0.582
1.198 0.082 0.582
1.211 0.093 0.581
1.229 0.105 0.581
5.421 0.519 0.444
4.853 0.507 0.462
4.631 0.524 0.469
4.599 0.561 0.47
4.586 0.6 0.471
4.571 0.638 0.471
4.544 0.675 0.472
4.531 0.713 0.473
4.504 0.749 0.474
2.024 0.351 0.555
2.031 0.371 0.555
2.021 0.387 0.555
2.051 0.411 0.554
2.084 0.436 0.553
2.129 0.465 0.551
2.224 0.506 0.548
2.237 0.53 0.548
0 0 0
0 0 0
0 0 0
0 0 0
0 0 0
0 0 0
1.89 0.568 0.559
1.874 0.581 0.56
1.855 0.593 0.56
1.845 0.607 0.561
1.834 0.621 0.561
1.828 0.637 0.561
1.82 0.651 0.561
1.806 0.664 0.562
1.784 0.673 0.563
1.753 0.678 0.564
1.757 0.698 0.563
1.757 0.715 0.563
1.749 0.729 0.564
1.744 0.745 0.564
1.728 0.756 0.564
1.719 0.769 0.565
1.712 0.784 0.565
1.709 0.8 0.565
1.707 0.818 0.565
1.801 0.883 0.562
1.839 0.922 0.561
1.895 0.971 0.559
1.892 0.99 0.559
1.513 0.804 0.571
1.487 0.807 0.572
1.363 0.753 0.576
1.314 0.741 0.578
1.261 0.725 0.58
1.087 0.635 0.585
1.064 0.633 0.586
1.06 0.643 0.586
1.053 0.651 0.587
1.047 0.66 0.587
1.047 0.672 0.587
1.042 0.682 0.587
1.031 0.687 0.587
1.01 0.685 0.588
0.635 0.43 0.6
0.558 0.383 0.603
0.548 0.382 0.603
0.553 0.393 0.603
0.542 0.391 0.603
0.538 0.396 0.603
0.542 0.407 0.603
0.539 0.411 0.603
0.535 0.415 0.604
0.532 0.42 0.604
0.528 0.424 0.604
0.53 0.433 0.604
0.526 0.437 0.604
0.529 0.448 0.604
0.518 0.446 0.604
0.521 0.457 0.604
0.517 0.461 0.604
0.513 0.465 0.604
0.509 0.469 0.604
0.504 0.473 0.604
0.508 0.485 0.604
0.503 0.488 0.605
0.499 0.493 0.605
0.494 0.496 0.605
0.496 0.507 0.605
0.492 0.511 0.605
0.494 0.523 0.605
0.489 0.526 0.605
0.484 0.53 0.605
0.479 0.533 0.605
0.481 0.546 0.605
0.476 0.549 0.605
0.471 0.553 0.606
0.472 0.564 0.606
0.467 0.567 0.606
0.462 0.572 0.606
0.462 0.582 0.606
0.457 0.586 0.606
0.453 0.591 0.606
0.448 0.595 0.606
0.449 0.607 0.606
0.443 0.61 0.607
0.439 0.615 0.607
0.433 0.618 0.607
0.433 0.631 0.607
0.428 0.634 0.607
0.428 0.647 0.607
0.422 0.65 0.607
0.422 0.663 0.607
0.415 0.665 0.607
0.414 0.676 0.607
0.408 0.68 0.608
0.403 0.684 0.608
0.4 0.694 0.608
0.399 0.707 0.608
0.393 0.709 0.608
0.392 0.723 0.608
0.384 0.723 0.608
0.383 0.737 0.608
0.391 0.77 0.608
0.449 0.915 0.606
0.616 1.314 0.601
0.606 1.321 0.601
0.586 1.307 0.602
0.571 1.303 0.602
0.552 1.289 0.603
0.536 1.282 0.603
0.522 1.278 0.604
0.508 1.274 0.604
0.489 1.256 0.605
0.474 1.251 0.605
0.461 1.246 0.606
0.446 1.239 0.606
0.432 1.233 0.607
0.418 1.225 0.607
0.405 1.22 0.608
0.39 1.212 0.608
0.377 1.204 0.609
0.363 1.196 0.609
0.35 1.188 0.61
0.339 1.19 0.61
0.326 1.182 0.61
0.313 1.173 0.611
0.301 1.165 0.611
0.288 1.158 0.612
0.278 1.16 0.612
0.265 1.149 0.612
0.253 1.142 0.613
0.242 1.134 0.613
0.232 1.134 0.613
0.22 1.125 0.614
0.21 1.126 0.614
0.199 1.119 0.615
0.187 1.109 0.615
0.178 1.109 0.615
0.167 1.102 0.616
0.156 1.092 0.616
0.146 1.093 0.616
0.136 1.084 0.617
0.127 1.085 0.617
0.116 1.075 0.617
0.107 1.072 0.618
0.097 1.07 0.618
0.087 1.061 0.618
0.078 1.056 0.618
0.067 1.023 0.619
0.055 0.904 0.619
0.047 0.86 0.619
0.039 0.84 0.62
0.032 0.544 0.62
0.032 -0.387 0.62
0.036 -0.486 0.62
0.041 -0.551 0.62
0.048 -0.63 0.62
0.055 -0.676 0.62
0.062 -0.704 0.619
0.069 -0.724 0.619
0.076 -0.735 0.619
0.084 -0.753 0.619
0.092 -0.763 0.619
0.1 -0.783 0.618
0.109 -0.802 0.618
0.118 -0.821 0.618
0.127 -0.841 0.618
0.137 -0.86 0.618
0.147 -0.878 0.617
0.159 -0.906 0.617
0.17 -0.925 0.617
0.182 -0.951 0.616
0.195 -0.979 0.616
0.207 -0.998 0.616
0.222 -1.027 0.615
0.237 -1.059 0.615
0.255 -1.098 0.615
0.269 -1.116 0.614
0.268 -1.068 0.614
0.254 -0.964 0.615
0.263 -0.965 0.614
0.269 -0.953 0.614
0.277 -0.948 0.614
0.285 -0.945 0.614
0.289 -0.929 0.614
0.298 -0.93 0.613
0.304 -0.919 0.613
0.308 -0.905 0.613
0.315 -0.9 0.613
0.323 -0.897 0.613
0.331 -0.896 0.613
0.34 -0.895 0.612
0.347 -0.89 0.612
0.351 -0.879 0.612
0.361 -0.88 0.612
0.363 -0.864 0.612
0.369 -0.858 0.612
0.382 -0.867 0.611
0.4 -0.889 0.611
0.408 -0.887 0.611
0.416 -0.884 0.61
0.415 -0.862 0.61
0.427 -0.869 0.61
0.432 -0.86 0.61
0.441 -0.858 0.61
0.446 -0.849 0.61
0.45 -0.839 0.61
0.458 -0.838 0.609
0.465 -0.834 0.609
0.472 -0.829 0.609
0.478 -0.823 0.609
0.489 -0.826 0.609
0.498 -0.824 0.608
0.508 -0.826 0.608
0.518 -0.826 0.608
0.521 -0.814 0.608
0.539 -0.828 0.607
0.538 -0.812 0.607
0.549 -0.813 0.607
0.547 -0.793 0.607
0.544 -0.775 0.607
0.559 -0.782 0.607
0.561 -0.771 0.607
0.571 -0.771 0.607
0.58 -0.769 0.606
0.592 -0.772 0.606
0.592 -0.758 0.606
0.606 -0.763 0.606
0.607 -0.751 0.606
0.617 -0.749 0.605
0.631 -0.754 0.605
0.634 -0.745 0.605
0.64 -0.738 0.605
0.653 -0.741 0.604
0.667 -0.744 0.604
0.672 -0.737 0.604
0.675 -0.728 0.604
0.688 -0.73 0.604
0.698 -0.728 0.603
0.701 -0.718 0.603
0.704 -0.709 0.603
0.711 -0.704 0.603
0.717 -0.698 0.603
0.728 -0.697 0.603
0.742 -0.699 0.602
1.785 -1.694 0.576
1.783 -1.663 0.576
1.733 -1.587 0.577
1.725 -1.552 0.577
1.735 -1.534 0.577
1.739 -1.511 0.577
1.753 -1.497 0.577
1.777 -1.491 0.576
1.808 -1.491 0.575
2.076 -1.686 0.568
2.217 -1.77 0.565
2.248 -1.764 0.564
2.278 -1.756 0.563
1.813 -1.367 0.575
1.598 -1.181 0.581
1.397 -1.011 0.586
1.394 -0.99 0.586
1.386 -0.966 0.586
1.372 -0.939 0.586
1.389 -0.933 0.586
0 0 0
2.724 -1.783 0.552
2.735 -1.756 0.552
2.867 -1.807 0.548
2.864 -1.77 0.548
2.896 -1.756 0.548
2.894 -1.721 0.548
2.478 -1.441 0.558
2.379 -1.355 0.561
2.352 -1.313 0.561
2.329 -1.274 0.562
2.296 -1.23 0.563
2.266 -1.188 0.564
2.242 -1.151 0.564
2.242 -1.127 0.564
2.247 -1.105 0.564
2.255 -1.085 0.564
2.275 -1.07 0.563
2.299 -1.058 0.563
2.324 -1.045 0.562
2.336 -1.026 0.562
2.367 -1.016 0.561
2.385 -0.999 0.561
2.41 -0.985 0.56
2.423 -0.966 0.56
2.447 -0.952 0.559
2.458 -0.932 0.559
2.484 -0.917 0.558
2.512 -0.903 0.557
2.533 -0.886 0.557
2.532 -0.861 0.557
2.77 -0.917 0.551
2.808 -0.902 0.55
2.808 -0.876 0.55
2.806 -0.848 0.55
2.823 -0.827 0.549
2.864 -0.813 0.548
2.959 -0.812 0.546
2.926 -0.776 0.547
2.891 -0.74 0.548
2.853 -0.704 0.549
2.85 -0.677 0.549
2.874 -0.656 0.548
2.899 -0.636 0.548
2.992 -0.63 0.545
4.094 -0.827 0.517
1.058 -0.2 0.594
1.054 -0.19 0.594
1.054 -0.18 0.594
1.054 -0.171 0.594
0 0 0
0.908 -0.131 0.598
0.889 -0.121 0.598
0.887 -0.113 0.599
0.896 -0.106 0.598
0.891 -0.098 0.598
0.897 -0.091 0.598
0.895 -0.083 0.598
0.908 -0.077 0.598
0.924 -0.07 0.598
0.983 -0.067 0.596
0.968 -0.057 0.596
0.986 -0.05 0.596
1.012 -0.043 0.595
1.028 -0.035 0.595
1.049 -0.027 0.594
1.07 -0.018 0.594
1.084 -0.009 0.594
1.092 -0 0.593
1.113 0.009 0.593
1.126 0.019 0.592
1.136 0.029 0.592
1.152 0.039 0.592
1.16 0.049 0.592
1.166 0.059 0.591
1.18 0.07 0.591
1.198 0.082 0.591
1.223 0.094 0.59
1.23 0.105 0.59
5.424 0.519 0.484
4.864 0.508 0.498
4.633 0.524 0.504
4.601 0.561 0.504
4.583 0.599 0.505
4.563 0.637 0.505
4.541 0.674 0.506
4.522 0.711 0.506
4.511 0.75 0.507
2.003 0.348 0.57
2.013 0.367 0.57
2.017 0.386 0.57
2.032 0.407 0.57
2.069 0.433 0.569
2.119 0.463 0.567
2.208 0.503 0.565
2.23 0.528 0.564
0 0 0
0 0 0
0 0 0
0 0 0
0 0 0
0 0 0
1.907 0.574 0.573
1.871 0.58 0.574
1.863 0.595 0.574
1.847 0.608 0.574
1.838 0.622 0.574
1.829 0.637 0.575
1.807 0.646 0.575
1.802 0.662 0.575
1.792 0.676 0.576
1.771 0.685 0.576
1.762 0.699 0.576
0 0 0
1.744 0.727 0.577
1.739 0.742 0.577
1.735 0.759 0.577
1.728 0.773 0.577
1.72 0.788 0.577
1.72 0.805 0.577
1.776 0.851 0.576
1.839 0.901 0.574
1.89 0.947 0.573
1.875 0.96 0.573
1.867 0.976 0.574
1.843 0.984 0.574
1.661 0.904 0.579
1.393 0.771 0.586
1.306 0.736 0.588
1.224 0.702 0.59
1.079 0.629 0.594
1.065 0.633 0.594
1.06 0.643 0.594
1.054 0.652 0.594
1.047 0.66 0.594
1.049 0.674 0.594
1.042 0.682 0.595
1.023 0.681 0.595
1.011 0.686 0.595
0.648 0.44 0.605
0.558 0.383 0.607
0.548 0.382 0.607
0.553 0.393 0.607
0.541 0.391 0.607
0.546 0.402 0.607
0.535 0.4 0.607
0.539 0.411 0.607
0.535 0.415 0.607
0.532 0.42 0.608
0.528 0.424 0.608
0.523 0.427 0.608
0.526 0.437 0.608
0.522 0.442 0.608
0.518 0.446 0.608
0.521 0.457 0.608
0.517 0.461 0.608
0.513 0.465 0.608
0.509 0.469 0.608
0.511 0.48 0.608
0.507 0.484 0.608
0.503 0.488 0.608
0.499 0.493 0.608
0.494 0.496 0.608
0.496 0.507 0.608
0.492 0.511 0.609
0.487 0.515 0.609
0.489 0.526 0.609
0.484 0.53 0.609
0.479 0.533 0.609
0.48 0.545 0.609
0.476 0.549 0.609
0.471 0.553 0.609
0.471 0.563 0.609
0.467 0.567 0.609
0.462 0.571 0.609
0.457 0.575 0.609
0.458 0.587 0.609
0.453 0.591 0.61
0.448 0.595 0.61
0.449 0.607 0.61
0.444 0.611 0.61
0.439 0.615 0.61
0.438 0.626 0.61
0.433 0.63 0.61
0.427 0.633 0.61
0.427 0.646 0.61
0.417 0.641 0.61
0.417 0.655 0.61
0.415 0.665 0.61
0.41 0.668 0.611
0.409 0.681 0.611
0.403 0.684 0.611
0.401 0.695 0.611
0.395 0.698 0.611
0.393 0.71 0.611
0.391 0.721 0.611
0.385 0.725 0.611
0.381 0.733 0.611
0.387 0.762 0.611
0.444 0.905 0.61
0.617 1.315 0.605
0.606 1.321 0.606
0.59 1.316 0.606
0.571 1.303 0.607
0.552 1.288 0.607
0.537 1.283 0.607
0.521 1.276 0.608
0.503 1.262 0.608
0.489 1.257 0.609
0.475 1.252 0.609
0.46 1.246 0.609
0.446 1.239 0.61
0.432 1.233 0.61
0.415 1.218 0.61
0.404 1.219 0.611
0.39 1.212 0.611
0.377 1.204 0.611
0.363 1.196 0.612
0.352 1.197 0.612
0.339 1.189 0.612
0.326 1.183 0.613
0.313 1.174 0.613
0.303 1.174 0.613
0.288 1.157 0.614
0.278 1.159 0.614
0.265 1.149 0.614
0.253 1.141 0.615
0.243 1.143 0.615
0.232 1.135 0.615
0.22 1.125 0.615
0.208 1.116 0.616
0.197 1.107 0.616
0.187 1.108 0.616
0.176 1.1 0.617
0.167 1.103 0.617
0.156 1.094 0.617
0.146 1.085 0.617
0.136 1.085 0.618
0.126 1.084 0.618
0.116 1.074 0.618
0.106 1.072 0.618
0.097 1.072 0.619
0.087 1.06 0.619
0.078 1.057 0.619
0.068 1.033 0.619
0.055 0.904 0.62
0.047 0.874 0.62
0.039 0.83 0.62
0.032 0.563 0.62
0.031 -0.38 0.62
0.036 -0.481 0.62
0.041 -0.537 0.62
0.048 -0.623 0.62
0.055 -0.674 0.62
0.062 -0.703 0.62
0.069 -0.724 0.62
0.076 -0.735 0.619
0.084 -0.753 0.619
0.091 -0.763 0.619
0.1 -0.784 0.619
0.109 -0.802 0.619
0.118 -0.821 0.619
0.127 -0.841 0.618
0.137 -0.86 0.618
0.147 -0.878 0.618
0.159 -0.907 0.618
0.171 -0.933 0.618
0.182 -0.953 0.617
0.194 -0.97 0.617
0.207 -0.998 0.617
0.222 -1.027 0.616
0.237 -1.059 0.616
0.253 -1.088 0.616
0.268 -1.115 0.616
0.266 -1.058 0.616
0.253 -0.962 0.616
0.259 -0.949 0.616
0.27 -0.957 0.615
0.276 -0.948 0.615
0.283 -0.94 0.615
0.29 -0.934 0.615
0.296 -0.924 0.615
0.303 -0.919 0.615
0.312 -0.918 0.615
0.317 -0.905 0.615
0.324 -0.9 0.614
0.331 -0.894 0.614
0.34 -0.895 0.614
0.346 -0.89 0.614
0.352 -0.881 0.614
0.359 -0.878 0.614
0.364 -0.866 0.614
0.372 -0.864 0.613
0.38 -0.862 0.613
0.401 -0.892 0.613
0.41 -0.891 0.613
0.412 -0.875 0.613
0.416 -0.864 0.612
0.424 -0.861 0.612
0.437 -0.869 0.612
0.442 -0.86 0.612
0.446 -0.85 0.612
0.45 -0.839 0.612
0.458 -0.838 0.612
0.461 -0.826 0.612
0.472 -0.829 0.611
0.479 -0.824 0.611
0.489 -0.827 0.611
0.499 -0.827 0.611
0.509 -0.828 0.611
0.519 -0.827 0.61
0.521 -0.815 0.61
0.534 -0.82 0.61
0.542 -0.818 0.61
