# .PCD v0.7 - Point Cloud Data file format
VERSION 0.7
FIELDS x y z
SIZE 4 4 4
TYPE F F F
COUNT 1 1 1
WIDTH 2492
HEIGHT 1
VIEWPOINT 0 0 0 1 0 0 0
POINTS 2492
DATA ascii
0.125 -0.477 0.636
0.129 -0.476 0.637
0.133 -0.475 0.637
0.137 -0.475 0.638
0.142 -0.475 0.639
0.146 -0.474 0.639
0.15 -0.473 0.64
0.154 -0.473 0.64
0.158 -0.47 0.64
0.162 -0.469 0.641
0.166 -0.467 0.641
0.172 -0.475 0.642
0.176 -0.473 0.643
0.18 -0.471 0.643
0.184 -0.469 0.644
0.188 -0.467 0.644
0.195 -0.475 0.645
0.199 -0.474 0.646
0.203 -0.472 0.646
0.207 -0.47 0.647
0.215 -0.477 0.647
0.219 -0.477 0.648
0.224 -0.476 0.649
0.228 -0.474 0.649
0.233 -0.474 0.65
0.237 -0.472 0.65
0.241 -0.47 0.651
0.249 -0.478 0.652
0.253 -0.476 0.652
0.258 -0.474 0.653
0.261 -0.471 0.653
0.27 -0.478 0.654
0.274 -0.475 0.655
0.278 -0.473 0.655
0.282 -0.47 0.656
0.29 -0.475 0.657
0.293 -0.471 0.657
0.302 -0.478 0.658
0.307 -0.476 0.659
0.311 -0.474 0.659
0.32 -0.479 0.66
0.324 -0.477 0.661
0.328 -0.475 0.661
0.337 -0.479 0.662
0.34 -0.474 0.663
0.35 -0.481 0.664
0.353 -0.476 0.664
0.358 -0.475 0.665
0.367 -0.479 0.666
0.371 -0.476 0.667
0.381 -0.48 0.668
0.387 -0.479 0.669
0.386 -0.47 0.668
0.396 -0.474 0.67
0.406 -0.479 0.671
0.41 -0.475 0.671
0.413 -0.471 0.672
0.425 -0.476 0.673
0.428 -0.471 0.674
0.438 -0.475 0.675
0.446 -0.476 0.676
0.45 -0.472 0.676
0.461 -0.476 0.678
0.5 -0.51 0.682
0.604 -0.611 0.695
1.011 -1.026 0.745
1.018 -1.015 0.746
1.029 -1.008 0.747
1.03 -0.992 0.747
1.032 -0.977 0.748
1.04 -0.967 0.749
1.04 -0.951 0.749
1.048 -0.942 0.75
1.049 -0.926 0.75
1.057 -0.917 0.751
1.057 -0.901 0.751
1.065 -0.892 0.752
1.073 -0.883 0.753
1.072 -0.867 0.753
1.08 -0.858 0.754
1.078 -0.841 0.753
1.086 -0.832 0.754
1.092 -0.822 0.755
1.091 -0.807 0.755
1.098 -0.798 0.756
1.105 -0.788 0.757
1.103 -0.772 0.756
1.11 -0.763 0.757
1.108 -0.748 0.757
1.114 -0.738 0.758
1.121 -0.729 0.759
1.179 -0.753 0.766
1.589 -1.002 0.816
1.599 -0.989 0.817
1.599 -0.97 0.817
1.607 -0.956 0.818
1.616 -0.942 0.819
1.616 -0.923 0.819
1.624 -0.91 0.82
1.656 -0.909 0.824
1.862 -1.003 0.849
1.962 -1.036 0.862
2.098 -1.086 0.878
2.183 -1.106 0.889
2.224 -1.103 0.894
2.231 -1.082 0.895
2.222 -1.054 0.894
2.202 -1.021 0.891
2.251 -1.021 0.897
2.348 -1.04 0.909
2.46 -1.065 0.923
2.47 -1.044 0.924
2.535 -1.046 0.932
2.897 -1.168 0.976
2.909 -1.143 0.978
2.07 -0.789 0.875
1.951 -0.724 0.86
1.815 -0.655 0.844
1.774 -0.623 0.839
1.773 -0.605 0.839
1.778 -0.59 0.839
1.781 -0.574 0.84
1.796 -0.561 0.841
1.835 -0.556 0.846
1.822 -0.535 0.845
1.827 -0.52 0.845
1.843 -0.507 0.847
2.003 -0.533 0.867
2.137 -0.549 0.883
2.012 -0.498 0.868
1.987 -0.474 0.865
2.01 -0.461 0.868
2.033 -0.448 0.87
2.064 -0.436 0.874
2.17 -0.439 0.887
3.396 -0.66 1.038
3.344 -0.619 1.031
3.549 -0.625 1.056
4.729 -0.793 1.201
4.463 -0.708 1.168
4.428 -0.662 1.164
4.445 -0.625 1.166
4.458 -0.587 1.168
4.481 -0.551 1.171
4.502 -0.513 1.173
4.509 -0.474 1.174
4.578 -0.441 1.182
4.606 -0.404 1.186
4.391 -0.346 1.16
3.915 -0.274 1.101
3.906 -0.239 1.1
3.913 -0.205 1.101
3.897 -0.17 1.099
3.922 -0.137 1.102
3.899 -0.102 1.099
3.923 -0.069 1.102
3.917 -0.034 1.101
3.922 -0 1.102
3.932 0.034 1.103
3.942 0.069 1.105
4.115 0.108 1.126
4.305 0.15 1.149
4.237 0.185 1.141
4.208 0.221 1.137
4.245 0.26 1.142
4.268 0.299 1.144
4.5 0.355 1.173
4.036 0.353 1.116
3.246 0.312 1.019
3.208 0.337 1.014
3.164 0.36 1.009
3.049 0.374 0.995
3.019 0.397 0.991
3.005 0.422 0.99
2.993 0.446 0.988
2.998 0.474 0.989
3.002 0.501 0.989
3.026 0.533 0.992
3.181 0.589 1.011
3.757 0.73 1.082
3.695 0.752 1.074
3.705 0.787 1.075
3.723 0.825 1.078
3.165 0.73 1.009
2.879 0.69 0.974
2.831 0.704 0.968
2.767 0.714 0.96
2.725 0.728 0.955
2.671 0.738 0.949
2.646 0.756 0.946
2.619 0.773 0.942
2.598 0.791 0.94
2.567 0.806 0.936
2.548 0.825 0.934
2.495 0.832 0.927
2.491 0.854 0.927
2.63 0.928 0.944
2.651 0.962 0.946
2.649 0.987 0.946
2.631 1.007 0.944
2.619 1.028 0.942
2.609 1.05 0.941
2.598 1.072 0.94
2.597 1.099 0.94
2.622 1.136 0.943
2.651 1.176 0.946
2.626 1.193 0.943
2.632 1.223 0.944
2.648 1.259 0.946
2.664 1.295 0.948
2.697 1.34 0.952
2.813 1.43 0.966
3.052 1.586 0.995
3.232 1.716 1.017
3.032 1.643 0.993
3.17 1.755 1.01
2.981 1.683 0.987
3.136 1.808 1.006
2.774 1.63 0.961
2.724 1.632 0.955
2.693 1.645 0.951
2.652 1.652 0.946
2.622 1.665 0.943
2.631 1.703 0.944
2.274 1.497 0.9
1.955 1.31 0.861
1.941 1.324 0.859
1.922 1.336 0.857
1.884 1.333 0.852
1.857 1.338 0.849
1.837 1.348 0.846
1.803 1.347 0.842
1.776 1.351 0.839
1.76 1.363 0.837
1.728 1.362 0.833
1.711 1.373 0.831
1.696 1.385 0.829
1.677 1.394 0.827
1.658 1.403 0.824
1.648 1.418 0.823
1.624 1.422 0.82
1.599 1.425 0.817
1.58 1.433 0.815
1.556 1.435 0.812
1.623 1.525 0.82
1.666 1.594 0.825
1.666 1.622 0.825
1.664 1.648 0.825
1.688 1.702 0.828
1.723 1.768 0.832
1.751 1.829 0.836
1.756 1.867 0.837
1.769 1.914 0.838
1.626 1.788 0.821
1.597 1.786 0.817
1.57 1.786 0.814
1.557 1.804 0.812
1.545 1.822 0.811
1.706 2.05 0.83
1.815 2.223 0.844
1.748 2.179 0.836
1.713 2.173 0.831
1.59 2.051 0.816
1.617 2.124 0.819
1.609 2.153 0.818
1.592 2.168 0.816
1.571 2.179 0.814
1.545 2.183 0.811
1.529 2.2 0.809
1.491 2.185 0.804
1.472 2.198 0.802
1.452 2.209 0.799
1.428 2.213 0.796
1.403 2.216 0.793
1.378 2.219 0.79
1.358 2.23 0.788
1.34 2.244 0.785
0.461 0.755 0.678
0.449 0.749 0.676
0.442 0.751 0.675
0.435 0.755 0.674
0.424 0.75 0.673
0.417 0.753 0.672
0.411 0.756 0.672
0.404 0.76 0.671
0.398 0.763 0.67
0.391 0.766 0.669
0.384 0.769 0.668
0.378 0.773 0.668
0.369 0.77 0.666
0.362 0.773 0.666
0.356 0.777 0.665
0.346 0.772 0.664
0.339 0.776 0.663
0.334 0.782 0.662
0.325 0.779 0.661
0.309 0.757 0.659
0.28 0.697 0.656
0.25 0.632 0.652
0.239 0.616 0.65
0.232 0.614 0.65
0.228 0.618 0.649
0.226 0.632 0.649
0.224 0.644 0.649
0.215 0.636 0.648
0.208 0.631 0.647
0.201 0.629 0.646
0.194 0.624 0.645
0.188 0.623 0.644
0.181 0.618 0.643
0.177 0.623 0.643
0.168 0.611 0.642
0.161 0.604 0.641
0.156 0.604 0.64
0.154 0.623 0.64
0.149 0.626 0.639
0.145 0.633 0.639
0.139 0.63 0.638
0.135 0.64 0.638
0.13 0.647 0.637
0.125 0.654 0.637
0.119 0.651 0.636
0.118 0.684 0.636
0.116 0.717 0.635
0.119 0.8 0.636
0.116 0.843 0.635
0.109 0.844 0.635
0.102 0.853 0.634
0.095 0.851 0.633
0.088 0.861 0.632
0.081 0.862 0.631
0.073 0.864 0.63
0.065 0.846 0.629
0.056 0.797 0.628
0.048 0.75 0.627
0.041 0.745 0.626
0.034 0.724 0.625
0.028 0.497 0.625
0.028 -0.376 0.625
0.032 -0.405 0.625
0.036 -0.434 0.626
0.039 -0.44 0.626
0.043 -0.446 0.627
0.048 -0.451 0.627
0.052 -0.458 0.628
0.056 -0.455 0.628
0.06 -0.465 0.629
0.064 -0.455 0.629
0.068 -0.462 0.63
0.072 -0.461 0.631
0.076 -0.459 0.631
0.081 -0.467 0.632
0.085 -0.466 0.632
0.089 -0.465 0.633
0.094 -0.471 0.633
0.098 -0.471 0.634
0.103 -0.477 0.635
0.107 -0.474 0.635
0.111 -0.472 0.636
0.115 -0.471 0.636
0.12 -0.479 0.637
0.124 -0.477 0.637
0.128 -0.476 0.638
0.132 -0.474 0.638
0.137 -0.475 0.639
0.141 -0.475 0.64
0.145 -0.474 0.64
0.147 -0.464 0.64
0.154 -0.472 0.641
0.158 -0.471 0.642
0.162 -0.47 0.642
0.165 -0.468 0.643
0.172 -0.475 0.644
0.176 -0.474 0.644
0.18 -0.473 0.645
0.184 -0.469 0.645
0.191 -0.477 0.646
0.195 -0.476 0.647
0.199 -0.474 0.647
0.203 -0.472 0.648
0.207 -0.47 0.648
0.214 -0.477 0.649
0.219 -0.477 0.65
0.223 -0.475 0.65
0.228 -0.475 0.651
0.229 -0.465 0.651
0.237 -0.472 0.652
0.241 -0.47 0.652
0.245 -0.469 0.653
0.253 -0.476 0.654
0.257 -0.473 0.655
0.261 -0.472 0.655
0.269 -0.478 0.656
0.273 -0.475 0.657
0.278 -0.473 0.657
0.281 -0.469 0.658
0.289 -0.474 0.659
0.298 -0.48 0.66
0.302 -0.478 0.66
0.307 -0.477 0.661
0.31 -0.474 0.662
0.315 -0.472 0.662
0.324 -0.477 0.663
0.328 -0.475 0.664
0.336 -0.479 0.665
0.339 -0.474 0.665
0.349 -0.479 0.667
0.353 -0.476 0.667
0.357 -0.474 0.668
0.362 -0.472 0.668
0.371 -0.476 0.669
0.375 -0.473 0.67
0.386 -0.479 0.671
0.391 -0.478 0.672
0.396 -0.474 0.673
0.4 -0.471 0.673
0.409 -0.475 0.674
0.414 -0.472 0.675
0.418 -0.469 0.676
0.428 -0.472 0.677
0.437 -0.475 0.678
0.445 -0.476 0.679
0.45 -0.473 0.68
0.46 -0.476 0.681
0.499 -0.51 0.686
0.602 -0.61 0.7
1.011 -1.026 0.753
1.017 -1.015 0.754
1.02 -1.001 0.754
1.03 -0.992 0.755
1.03 -0.976 0.755
1.039 -0.968 0.756
1.039 -0.951 0.756
1.047 -0.942 0.757
1.049 -0.927 0.758
1.056 -0.917 0.759
1.056 -0.901 0.759
1.064 -0.892 0.76
1.072 -0.883 0.761
1.07 -0.866 0.76
1.078 -0.857 0.761
1.076 -0.841 0.761
1.084 -0.832 0.762
1.091 -0.822 0.763
1.09 -0.807 0.763
1.097 -0.798 0.764
1.104 -0.788 0.765
1.102 -0.772 0.765
1.108 -0.763 0.765
1.107 -0.748 0.765
1.113 -0.738 0.766
1.127 -0.734 0.768
1.18 -0.754 0.775
1.587 -1.002 0.828
1.597 -0.989 0.829
1.597 -0.97 0.829
1.606 -0.956 0.83
1.615 -0.942 0.831
1.614 -0.923 0.831
1.622 -0.91 0.832
1.665 -0.915 0.838
1.964 -1.06 0.877
2.045 -1.082 0.887
2.128 -1.102 0.898
2.182 -1.107 0.905
2.224 -1.104 0.91
2.231 -1.084 0.911
2.242 -1.065 0.913
2.241 -1.04 0.913
2.249 -1.021 0.914
2.346 -1.041 0.926
2.471 -1.071 0.943
2.476 -1.048 0.943
2.578 -1.065 0.957
2.979 -1.202 1.009
3.053 -1.202 1.018
2.03 -0.775 0.885
1.958 -0.728 0.876
1.824 -0.659 0.858
1.782 -0.626 0.853
1.779 -0.608 0.853
1.774 -0.589 0.852
1.789 -0.577 0.854
1.803 -0.564 0.856
1.832 -0.556 0.859
1.829 -0.538 0.859
1.818 -0.518 0.858
1.844 -0.508 0.861
1.949 -0.519 0.875
2.13 -0.548 0.898
2.012 -0.499 0.883
1.985 -0.474 0.879
2.017 -0.463 0.884
2.022 -0.446 0.884
2.062 -0.436 0.889
2.174 -0.44 0.904
3.342 -0.65 1.056
3.352 -0.621 1.057
3.555 -0.627 1.084
4.645 -0.779 1.226
4.463 -0.708 1.202
4.449 -0.666 1.2
4.475 -0.63 1.203
4.458 -0.588 1.201
4.493 -0.553 1.206
4.499 -0.514 1.207
4.539 -0.478 1.212
4.623 -0.446 1.223
4.584 -0.402 1.218
4.491 -0.354 1.205
3.924 -0.275 1.132
3.899 -0.239 1.128
3.905 -0.205 1.129
3.896 -0.17 1.128
3.894 -0.136 1.128
3.895 -0.102 1.128
3.907 -0.068 1.129
3.916 -0.034 1.131
3.915 -0 1.131
3.935 0.034 1.133
3.943 0.069 1.134
4.179 0.11 1.165
4.291 0.15 1.18
4.222 0.185 1.17
4.198 0.22 1.167
4.234 0.259 1.172
4.272 0.299 1.177
4.514 0.356 1.209
4.011 0.351 1.143
3.241 0.312 1.043
3.205 0.337 1.038
3.161 0.36 1.032
3.045 0.374 1.017
3.016 0.397 1.014
3.002 0.422 1.012
2.99 0.446 1.01
2.986 0.472 1.01
3 0.502 1.012
3.023 0.533 1.015
3.152 0.584 1.031
3.736 0.727 1.107
3.684 0.75 1.1
3.685 0.784 1.101
3.717 0.825 1.105
3.139 0.724 1.03
2.863 0.686 0.994
2.81 0.699 0.987
2.744 0.708 0.978
2.692 0.72 0.971
2.663 0.737 0.968
2.635 0.754 0.964
2.603 0.769 0.96
2.58 0.787 0.957
2.552 0.803 0.953
2.534 0.821 0.951
2.487 0.83 0.945
2.506 0.86 0.947
2.656 0.938 0.967
2.66 0.966 0.967
2.647 0.988 0.966
2.639 1.011 0.964
2.62 1.03 0.962
2.598 1.047 0.959
2.595 1.072 0.959
2.604 1.103 0.96
2.618 1.136 0.962
2.639 1.172 0.965
2.627 1.194 0.963
2.63 1.223 0.963
2.637 1.255 0.964
2.651 1.29 0.966
2.686 1.336 0.971
2.803 1.426 0.986
2.935 1.526 1.003
2.915 1.548 1
2.848 1.544 0.992
2.849 1.577 0.992
2.774 1.567 0.982
2.774 1.599 0.982
2.713 1.595 0.974
2.686 1.611 0.971
2.648 1.619 0.966
2.617 1.632 0.962
2.578 1.638 0.957
2.565 1.661 0.955
2.235 1.473 0.912
1.958 1.313 0.876
1.944 1.328 0.874
1.92 1.336 0.871
1.882 1.333 0.866
1.853 1.337 0.862
1.826 1.342 0.859
1.793 1.341 0.855
1.775 1.352 0.852
1.753 1.359 0.849
1.738 1.371 0.847
1.707 1.371 0.843
1.688 1.38 0.841
1.674 1.393 0.839
1.656 1.402 0.837
1.636 1.41 0.834
1.613 1.414 0.831
1.601 1.428 0.829
1.581 1.435 0.827
1.555 1.436 0.824
1.655 1.557 0.837
1.666 1.595 0.838
1.665 1.623 0.838
1.662 1.648 0.837
1.673 1.688 0.839
1.703 1.749 0.843
1.737 1.816 0.847
1.759 1.872 0.85
1.708 1.849 0.843
1.618 1.781 0.832
1.59 1.78 0.828
1.569 1.787 0.825
1.556 1.804 0.824
1.54 1.817 0.822
1.66 1.996 0.837
1.704 2.087 0.843
1.658 2.067 0.837
1.651 2.095 0.836
1.576 2.035 0.826
1.61 2.116 0.831
1.609 2.154 0.83
1.591 2.169 0.828
1.582 2.197 0.827
1.567 2.217 0.825
1.552 2.237 0.823
1.503 2.205 0.817
1.469 2.195 0.812
1.45 2.208 0.81
1.427 2.215 0.807
1.401 2.216 0.803
1.378 2.222 0.801
1.357 2.23 0.798
1.337 2.241 0.795
1.318 2.253 0.793
0.45 0.753 0.68
0.441 0.751 0.679
0.434 0.755 0.678
0.428 0.758 0.677
0.421 0.761 0.676
0.41 0.756 0.675
0.404 0.76 0.674
0.397 0.763 0.673
0.391 0.767 0.672
0.38 0.761 0.671
0.374 0.765 0.67
0.367 0.768 0.669
0.361 0.772 0.668
0.355 0.778 0.667
0.345 0.771 0.666
0.339 0.777 0.665
0.333 0.781 0.664
0.324 0.779 0.663
0.309 0.757 0.661
0.283 0.708 0.658
0.253 0.641 0.654
0.239 0.617 0.652
0.229 0.605 0.651
0.228 0.619 0.651
0.229 0.642 0.651
0.223 0.643 0.65
0.215 0.636 0.649
0.207 0.63 0.648
0.201 0.629 0.647
0.194 0.624 0.646
0.188 0.623 0.646
0.181 0.618 0.645
0.174 0.615 0.644
0.166 0.602 0.643
0.159 0.596 0.642
0.155 0.604 0.641
0.154 0.625 0.641
0.149 0.626 0.641
0.144 0.633 0.64
0.14 0.64 0.639
0.134 0.64 0.639
0.129 0.645 0.638
0.125 0.655 0.637
0.12 0.66 0.637
0.117 0.684 0.636
0.115 0.718 0.636
0.118 0.8 0.637
0.116 0.843 0.636
0.109 0.844 0.635
0.101 0.844 0.634
0.095 0.862 0.634
0.088 0.862 0.633
0.08 0.862 0.632
0.073 0.864 0.631
0.065 0.848 0.63
0.056 0.802 0.628
0.048 0.754 0.627
0.041 0.732 0.626
0.034 0.724 0.626
0.028 0.497 0.625
0.028 -0.377 0.625
0.031 -0.405 0.626
0.035 -0.424 0.626
0.039 -0.441 0.627
0.043 -0.448 0.627
0.047 -0.453 0.628
0.052 -0.459 0.628
0.055 -0.456 0.629
0.06 -0.466 0.629
0.064 -0.464 0.63
0.068 -0.464 0.631
0.072 -0.461 0.631
0.076 -0.459 0.632
0.08 -0.458 0.632
0.085 -0.466 0.633
0.089 -0.466 0.633
0.092 -0.462 0.634
0.098 -0.471 0.635
0.101 -0.468 0.635
0.106 -0.474 0.636
0.11 -0.473 0.636
0.114 -0.471 0.637
0.12 -0.479 0.638
0.124 -0.478 0.638
0.128 -0.477 0.639
0.132 -0.474 0.639
0.136 -0.475 0.64
0.141 -0.475 0.641
0.145 -0.475 0.641
0.149 -0.474 0.642
0.153 -0.473 0.642
0.158 -0.472 0.643
0.161 -0.469 0.643
0.165 -0.467 0.644
0.172 -0.475 0.645
0.176 -0.474 0.645
0.18 -0.473 0.646
0.184 -0.47 0.646
0.188 -0.469 0.647
0.192 -0.467 0.648
0.199 -0.475 0.649
0.203 -0.474 0.649
0.21 -0.479 0.65
0.211 -0.469 0.65
0.219 -0.477 0.651
0.223 -0.477 0.652
0.228 -0.476 0.653
0.232 -0.474 0.653
0.236 -0.472 0.654
0.24 -0.47 0.654
0.244 -0.469 0.655
0.253 -0.476 0.656
0.257 -0.474 0.657
0.261 -0.472 0.657
0.269 -0.478 0.658
0.273 -0.475 0.659
0.277 -0.473 0.659
0.281 -0.471 0.66
0.289 -0.475 0.661
0.298 -0.481 0.662
0.302 -0.479 0.663
0.306 -0.477 0.663
0.311 -0.475 0.664
0.315 -0.472 0.664
0.323 -0.477 0.666
0.327 -0.474 0.666
0.335 -0.478 0.667
0.338 -0.474 0.668
0.349 -0.48 0.669
0.352 -0.476 0.67
0.357 -0.475 0.67
0.367 -0.48 0.672
0.37 -0.476 0.672
0.38 -0.481 0.674
0.386 -0.48 0.674
0.392 -0.478 0.675
0.396 -0.475 0.676
0.399 -0.471 0.676
0.409 -0.475 0.677
0.413 -0.472 0.678
0.424 -0.476 0.68
0.427 -0.472 0.68
0.437 -0.475 0.681
0.445 -0.476 0.682
0.456 -0.48 0.684
0.46 -0.476 0.684
0.499 -0.51 0.69
0.604 -0.613 0.704
1.004 -1.021 0.759
1.017 -1.016 0.761
1.02 -1.001 0.762
1.028 -0.992 0.763
1.03 -0.977 0.763
1.038 -0.968 0.764
1.039 -0.951 0.764
1.047 -0.942 0.765
1.047 -0.926 0.765
1.055 -0.918 0.766
1.056 -0.902 0.767
1.063 -0.892 0.767
1.071 -0.884 0.769
1.07 -0.867 0.768
1.078 -0.858 0.77
1.075 -0.841 0.769
1.083 -0.832 0.77
1.09 -0.822 0.771
1.097 -0.813 0.772
1.096 -0.798 0.772
1.103 -0.788 0.773
1.101 -0.772 0.773
1.107 -0.763 0.774
1.114 -0.753 0.774
1.112 -0.738 0.774
1.118 -0.729 0.775
1.175 -0.752 0.783
1.586 -1.002 0.839
1.596 -0.989 0.841
1.605 -0.976 0.842
1.605 -0.956 0.842
1.613 -0.942 0.843
1.621 -0.928 0.844
1.621 -0.91 0.844
1.712 -0.942 0.857
2.119 -1.146 0.913
2.115 -1.12 0.912
2.147 -1.114 0.917
2.174 -1.104 0.92
2.223 -1.105 0.927
2.231 -1.085 0.928
2.233 -1.062 0.928
2.242 -1.042 0.93
2.251 -1.023 0.931
2.337 -1.038 0.943
2.502 -1.086 0.965
2.502 -1.06 0.966
2.639 -1.092 0.984
3.405 -1.377 1.09
3.019 -1.189 1.037
2.044 -0.781 0.903
1.974 -0.734 0.893
1.832 -0.663 0.873
1.788 -0.629 0.867
1.779 -0.608 0.866
1.782 -0.592 0.866
1.787 -0.577 0.867
1.805 -0.566 0.87
1.831 -0.556 0.873
1.838 -0.541 0.874
1.816 -0.518 0.871
1.83 -0.505 0.873
1.904 -0.508 0.883
2.112 -0.544 0.912
2.002 -0.497 0.897
1.99 -0.476 0.895
2.007 -0.461 0.897
2.02 -0.446 0.899
2.07 -0.438 0.906
2.188 -0.444 0.922
3.324 -0.647 1.079
3.348 -0.621 1.082
3.372 -0.595 1.085
4.448 -0.747 1.233
4.438 -0.705 1.232
4.397 -0.659 1.226
4.476 -0.631 1.237
4.45 -0.588 1.234
4.506 -0.555 1.241
4.498 -0.514 1.24
4.544 -0.479 1.247
4.537 -0.438 1.246
4.554 -0.4 1.248
4.483 -0.354 1.238
3.929 -0.275 1.162
3.895 -0.239 1.157
3.892 -0.204 1.157
3.887 -0.17 1.156
3.898 -0.136 1.158
3.891 -0.102 1.157
3.897 -0.068 1.157
3.906 -0.034 1.159
3.91 -0 1.159
3.919 0.034 1.161
3.949 0.069 1.165
4.234 0.111 1.204
4.267 0.149 1.208
4.22 0.185 1.202
4.21 0.221 1.201
4.235 0.26 1.204
4.358 0.306 1.221
4.091 0.323 1.184
3.977 0.349 1.169
3.245 0.313 1.068
3.201 0.337 1.062
3.158 0.36 1.056
3.051 0.375 1.041
3.013 0.397 1.036
2.991 0.42 1.033
2.987 0.446 1.032
2.983 0.472 1.032
2.997 0.502 1.034
3.021 0.533 1.037
3.133 0.581 1.052
3.723 0.725 1.134
3.682 0.75 1.128
3.682 0.784 1.128
3.721 0.826 1.133
3.151 0.728 1.055
2.851 0.684 1.014
2.79 0.695 1.005
2.734 0.707 0.998
2.695 0.721 0.992
2.653 0.735 0.986
2.624 0.751 0.982
2.598 0.769 0.979
2.573 0.786 0.975
2.545 0.801 0.971
2.514 0.815 0.967
2.487 0.831 0.964
2.56 0.88 0.973
2.672 0.945 0.989
2.661 0.968 0.987
2.646 0.988 0.985
2.628 1.007 0.983
2.61 1.027 0.98
2.594 1.047 0.978
2.602 1.076 0.979
2.609 1.106 0.98
2.633 1.143 0.983
2.632 1.171 0.983
2.618 1.191 0.981
2.622 1.221 0.982
2.635 1.255 0.984
2.649 1.291 0.986
2.673 1.331 0.989
2.774 1.412 1.003
2.89 1.504 1.019
2.858 1.519 1.015
2.811 1.525 1.008
2.788 1.545 1.005
2.75 1.555 1
2.717 1.568 0.995
2.692 1.584 0.992
2.67 1.603 0.989
2.623 1.605 0.982
2.604 1.625 0.98
2.558 1.627 0.973
2.527 1.638 0.969
2.267 1.496 0.933
1.964 1.319 0.892
1.939 1.326 0.888
1.915 1.334 0.885
1.88 1.333 0.88
1.854 1.34 0.876
1.822 1.34 0.872
1.798 1.346 0.869
1.773 1.351 0.865
1.748 1.357 0.862
1.728 1.365 0.859
1.704 1.37 0.856
1.687 1.381 0.853
1.668 1.389 0.851
1.651 1.4 0.848
1.635 1.41 0.846
1.615 1.417 0.843
1.592 1.421 0.84
1.572 1.428 0.838
1.552 1.434 0.835
1.666 1.569 0.85
1.66 1.591 0.85
1.664 1.623 0.85
1.661 1.649 0.85
1.664 1.681 0.85
1.688 1.736 0.854
1.718 1.797 0.858
1.757 1.872 0.863
1.674 1.813 0.852
1.617 1.782 0.844
1.59 1.783 0.84
1.57 1.791 0.837
1.555 1.805 0.835
1.545 1.825 0.834
1.64 1.975 0.847
1.631 1.998 0.846
1.607 2.003 0.842
1.586 2.013 0.839
1.57 2.029 0.837
1.589 2.092 0.84
1.627 2.181 0.845
1.615 2.205 0.843
1.647 2.292 0.848
1.615 2.289 0.844
1.605 2.317 0.842
1.524 2.239 0.831
1.487 2.225 0.826
1.452 2.214 0.821
1.43 2.221 0.818
1.401 2.218 0.814
1.372 2.214 0.81
1.352 2.224 0.807
1.337 2.243 0.805
0.489 0.805 0.688
0.446 0.747 0.683
0.44 0.751 0.682
0.434 0.755 0.681
0.423 0.75 0.679
0.421 0.762 0.679
0.41 0.757 0.678
0.403 0.76 0.677
0.397 0.763 0.676
0.39 0.766 0.675
0.384 0.77 0.674
0.373 0.764 0.673
0.367 0.769 0.672
0.36 0.772 0.671
0.355 0.777 0.67
0.345 0.772 0.669
0.338 0.776 0.668
0.333 0.782 0.667
0.324 0.779 0.666
0.308 0.757 0.664
0.282 0.706 0.66
0.253 0.641 0.656
0.238 0.616 0.654
0.231 0.614 0.653
0.227 0.618 0.652
0.228 0.641 0.653
0.222 0.643 0.652
0.214 0.636 0.651
0.207 0.63 0.65
0.201 0.629 0.649
0.193 0.624 0.648
0.188 0.623 0.647
0.181 0.618 0.646
0.176 0.623 0.645
0.166 0.603 0.644
0.159 0.597 0.643
0.155 0.605 0.643
0.154 0.626 0.642
0.149 0.627 0.642
0.144 0.633 0.641
0.14 0.64 0.64
0.134 0.64 0.64
0.129 0.645 0.639
0.125 0.654 0.638
0.118 0.651 0.637
0.117 0.684 0.637
0.115 0.716 0.637
0.118 0.803 0.638
0.116 0.844 0.637
0.108 0.845 0.636
0.102 0.854 0.635
0.094 0.851 0.634
0.088 0.863 0.633
0.08 0.862 0.632
0.073 0.865 0.631
0.065 0.848 0.63
0.056 0.805 0.629
0.047 0.754 0.628
0.041 0.747 0.627
0.034 0.724 0.626
0.028 0.482 0.625
0.028 -0.377 0.625
0.031 -0.416 0.626
0.035 -0.422 0.626
0.039 -0.442 0.627
0.043 -0.448 0.627
0.047 -0.453 0.628
0.052 -0.458 0.629
0.055 -0.457 0.629
0.06 -0.465 0.63
0.064 -0.464 0.63
0.068 -0.463 0.631
0.072 -0.462 0.631
0.076 -0.459 0.632
0.08 -0.459 0.633
0.084 -0.466 0.633
0.088 -0.466 0.634
0.094 -0.473 0.635
0.097 -0.47 0.635
0.101 -0.467 0.636
0.106 -0.474 0.636
0.11 -0.474 0.637
0.116 -0.482 0.638
0.118 -0.47 0.638
0.124 -0.478 0.639
0.128 -0.476 0.639
0.132 -0.475 0.64
0.137 -0.476 0.641
0.141 -0.475 0.641
0.145 -0.474 0.642
0.149 -0.473 0.642
0.153 -0.473 0.643
0.157 -0.471 0.644
0.161 -0.47 0.644
0.165 -0.469 0.645
0.172 -0.476 0.646
0.175 -0.473 0.646
0.18 -0.473 0.647
0.184 -0.47 0.647
0.191 -0.478 0.648
0.195 -0.477 0.649
0.199 -0.475 0.65
0.202 -0.472 0.65
0.206 -0.47 0.651
0.214 -0.478 0.652
0.219 -0.477 0.652
0.223 -0.477 0.653
0.227 -0.475 0.654
0.232 -0.475 0.654
0.236 -0.473 0.655
0.24 -0.471 0.655
0.248 -0.478 0.657
0.252 -0.476 0.657
0.256 -0.474 0.658
0.261 -0.472 0.658
0.269 -0.478 0.66
0.273 -0.476 0.66
0.277 -0.473 0.661
0.285 -0.478 0.662
0.288 -0.475 0.662
0.292 -0.472 0.663
0.301 -0.479 0.664
0.306 -0.477 0.665
0.31 -0.474 0.665
0.315 -0.473 0.666
0.324 -0.479 0.667
0.327 -0.474 0.668
0.335 -0.478 0.669
0.339 -0.474 0.669
0.349 -0.481 0.671
0.353 -0.478 0.672
0.357 -0.475 0.672
0.366 -0.48 0.673
0.369 -0.475 0.674
0.38 -0.482 0.675
0.38 -0.473 0.675
0.386 -0.471 0.676
0.395 -0.474 0.677
0.405 -0.479 0.679
0.409 -0.476 0.68
0.413 -0.472 0.68
0.424 -0.476 0.682
0.433 -0.48 0.683
0.436 -0.475 0.683
0.446 -0.478 0.685
0.449 -0.473 0.685
0.46 -0.476 0.687
0.498 -0.509 0.692
0.608 -0.618 0.708
1.009 -1.026 0.765
1.016 -1.016 0.766
1.026 -1.008 0.768
1.027 -0.992 0.768
1.029 -0.977 0.768
1.037 -0.968 0.769
1.038 -0.951 0.769
1.045 -0.942 0.77
1.047 -0.927 0.77
1.055 -0.918 0.772
1.055 -0.902 0.772
1.062 -0.892 0.773
1.07 -0.883 0.774
1.069 -0.867 0.774
1.076 -0.858 0.775
1.075 -0.842 0.775
1.082 -0.832 0.775
1.089 -0.822 0.776
1.088 -0.807 0.776
1.095 -0.798 0.777
1.102 -0.788 0.778
1.1 -0.772 0.778
1.106 -0.763 0.779
1.113 -0.753 0.78
1.112 -0.739 0.78
1.117 -0.729 0.781
1.174 -0.752 0.789
1.577 -0.997 0.846
1.595 -0.989 0.849
1.604 -0.976 0.85
1.604 -0.956 0.85
1.612 -0.942 0.851
1.612 -0.924 0.851
1.62 -0.91 0.852
1.72 -0.948 0.867
2.129 -1.152 0.925
2.139 -1.134 0.926
2.148 -1.115 0.928
2.168 -1.101 0.93
2.221 -1.105 0.938
2.231 -1.085 0.939
2.233 -1.063 0.94
2.24 -1.042 0.941
2.249 -1.023 0.942
2.348 -1.043 0.956
2.607 -1.133 0.993
2.604 -1.105 0.993
2.751 -1.139 1.013
3.429 -1.388 1.11
2.959 -1.166 1.043
2.118 -0.811 0.923
1.982 -0.738 0.904
1.849 -0.67 0.885
1.787 -0.629 0.876
1.785 -0.611 0.876
1.79 -0.596 0.876
1.797 -0.581 0.877
1.805 -0.566 0.879
1.821 -0.554 0.881
1.842 -0.543 0.884
1.822 -0.52 0.881
1.833 -0.506 0.883
1.833 -0.489 0.883
2.099 -0.541 0.92
2.001 -0.497 0.906
1.991 -0.476 0.905
1.999 -0.46 0.906
2.018 -0.446 0.909
2.067 -0.438 0.916
2.189 -0.444 0.933
3.29 -0.641 1.09
3.361 -0.624 1.1
3.664 -0.648 1.144
4.425 -0.743 1.252
4.431 -0.704 1.253
4.457 -0.669 1.257
4.434 -0.626 1.254
4.49 -0.593 1.261
4.515 -0.557 1.265
4.52 -0.517 1.266
4.545 -0.48 1.269
4.587 -0.443 1.275
4.56 -0.401 1.271
4.571 -0.361 1.273
3.961 -0.278 1.186
3.879 -0.238 1.174
3.887 -0.204 1.176
3.88 -0.17 1.174
3.885 -0.136 1.175
3.891 -0.102 1.176
3.889 -0.068 1.176
3.9 -0.034 1.177
3.904 -0 1.178
3.909 0.034 1.179
4.075 0.071 1.202
4.239 0.111 1.226
4.244 0.149 1.226
4.221 0.185 1.223
4.236 0.223 1.225
4.237 0.26 1.225
4.497 0.316 1.262
5.412 0.428 1.393
3.932 0.345 1.182
3.248 0.313 1.084
3.208 0.338 1.079
3.157 0.36 1.071
3.05 0.375 1.056
3.011 0.397 1.05
2.988 0.42 1.047
2.985 0.446 1.047
2.981 0.472 1.046
2.995 0.502 1.048
3.019 0.533 1.052
3.105 0.576 1.064
3.711 0.723 1.15
3.69 0.753 1.147
3.679 0.784 1.146
3.714 0.826 1.151
2.913 0.673 1.037
2.835 0.681 1.025
2.788 0.695 1.019
2.718 0.703 1.009
2.688 0.72 1.004
2.64 0.732 0.998
2.618 0.75 0.995
2.592 0.767 0.991
2.557 0.781 0.986
2.541 0.8 0.984
2.509 0.814 0.979
2.498 0.835 0.977
2.586 0.89 0.99
2.699 0.955 1.006
2.658 0.967 1
2.642 0.987 0.998
2.626 1.007 0.996
2.618 1.031 0.994
2.595 1.048 0.991
2.599 1.076 0.992
2.615 1.109 0.994
2.642 1.148 0.998
2.623 1.167 0.995
2.615 1.191 0.994
2.621 1.221 0.995
2.625 1.251 0.996
2.639 1.287 0.998
2.659 1.325 1
2.76 1.406 1.015
2.892 1.506 1.034
2.854 1.518 1.028
2.798 1.519 1.02
2.779 1.541 1.018
2.719 1.538 1.009
2.71 1.565 1.008
2.687 1.583 1.004
2.662 1.599 1.001
2.64 1.617 0.998
2.6 1.624 0.992
2.563 1.632 0.987
2.525 1.638 0.981
2.27 1.499 0.945
1.963 1.319 0.901
1.934 1.324 0.897
1.903 1.326 0.893
1.868 1.326 0.888
1.84 1.33 0.884
1.815 1.336 0.88
1.79 1.341 0.876
1.756 1.34 0.872
1.744 1.354 0.87
1.716 1.356 0.866
1.696 1.365 0.863
1.692 1.386 0.863
1.664 1.386 0.858
1.647 1.397 0.856
1.636 1.412 0.855
1.615 1.419 0.852
1.593 1.424 0.848
1.569 1.426 0.845
1.542 1.427 0.841
1.665 1.569 0.859
1.663 1.595 0.858
1.662 1.623 0.858
1.662 1.65 0.858
1.659 1.677 0.858
1.669 1.717 0.859
1.703 1.783 0.864
1.738 1.853 0.869
1.659 1.798 0.858
1.611 1.776 0.851
1.588 1.781 0.848
1.57 1.792 0.845
1.553 1.804 0.843
1.542 1.822 0.841
1.636 1.971 0.854
1.633 2.003 0.854
1.606 2.004 0.85
1.586 2.014 0.847
1.583 2.048 0.847
1.596 2.103 0.849
1.657 2.223 0.857
1.664 2.275 0.858
1.761 2.455 0.872
1.686 2.392 0.862
1.693 2.447 0.863
1.561 2.296 0.844
1.485 2.224 0.833
1.457 2.223 0.829
1.425 2.215 0.824
1.395 2.211 0.82
1.366 2.207 0.816
1.347 2.217 0.813
1.335 2.241 0.812
1.317 2.255 0.809
0.442 0.739 0.684
0.44 0.751 0.684
0.429 0.747 0.682
0.427 0.758 0.682
0.42 0.762 0.681
0.409 0.756 0.68
0.403 0.76 0.679
0.396 0.763 0.678
0.39 0.767 0.677
0.383 0.769 0.676
0.377 0.774 0.675
0.367 0.769 0.674
0.36 0.772 0.673
0.354 0.777 0.672
0.344 0.772 0.67
0.339 0.777 0.669
0.332 0.781 0.669
0.323 0.778 0.667
0.307 0.755 0.665
0.282 0.707 0.661
0.253 0.642 0.657
0.238 0.616 0.655
0.231 0.615 0.654
0.226 0.617 0.653
0.227 0.64 0.654
0.222 0.642 0.653
0.214 0.636 0.652
0.206 0.629 0.651
0.2 0.629 0.65
0.193 0.624 0.649
0.187 0.623 0.648
0.18 0.617 0.647
0.176 0.623 0.646
0.164 0.594 0.645
0.159 0.597 0.644
0.155 0.605 0.643
0.154 0.626 0.643
0.149 0.628 0.642
0.144 0.633 0.642
0.138 0.63 0.641
0.134 0.64 0.64
0.129 0.645 0.64
0.124 0.654 0.639
0.121 0.669 0.638
0.117 0.684 0.638
0.115 0.717 0.638
0.118 0.801 0.638
0.116 0.844 0.638
0.109 0.854 0.637
0.102 0.854 0.636
0.094 0.851 0.635
0.087 0.862 0.634
0.08 0.861 0.633
0.073 0.864 0.632
0.064 0.85 0.63
0.056 0.805 0.629
0.047 0.757 0.628
0.041 0.742 0.627
0.034 0.723 0.626
0.028 0.476 0.625
0.028 -0.377 0.625
0.031 -0.404 0.626
0.035 -0.432 0.626
0.039 -0.441 0.627
0.043 -0.447 0.628
0.047 -0.452 0.628
0.051 -0.459 0.629
0.055 -0.457 0.629
0.059 -0.457 0.63
0.064 -0.465 0.631
0.068 -0.464 0.631
0.071 -0.46 0.632
0.075 -0.459 0.632
0.079 -0.458 0.633
0.084 -0.466 0.634
0.088 -0.465 0.634
0.092 -0.463 0.635
0.097 -0.47 0.636
0.101 -0.468 0.636
0.106 -0.475 0.637
0.11 -0.473 0.637
0.114 -0.471 0.638
0.118 -0.47 0.639
0.124 -0.477 0.639
0.128 -0.476 0.64
0.132 -0.475 0.641
0.136 -0.475 0.641
0.141 -0.475 0.642
0.145 -0.475 0.643
0.149 -0.473 0.643
0.153 -0.473 0.644
0.157 -0.471 0.644
0.161 -0.469 0.645
0.164 -0.467 0.645
0.171 -0.475 0.647
0.175 -0.473 0.647
0.179 -0.472 0.648
0.183 -0.47 0.648
0.187 -0.468 0.649
0.195 -0.477 0.65
0.198 -0.474 0.65
0.202 -0.471 0.651
0.206 -0.471 0.652
0.214 -0.477 0.653
0.218 -0.477 0.653
0.223 -0.476 0.654
0.227 -0.475 0.655
0.232 -0.474 0.655
0.236 -0.472 0.656
0.24 -0.47 0.657
0.248 -0.478 0.658
0.252 -0.476 0.658
0.256 -0.474 0.659
0.264 -0.48 0.66
0.268 -0.478 0.661
0.272 -0.475 0.661
0.281 -0.481 0.663
0.284 -0.478 0.663
0.288 -0.475 0.664
0.292 -0.473 0.664
0.301 -0.479 0.666
0.305 -0.476 0.666
0.309 -0.474 0.667
0.314 -0.472 0.668
0.323 -0.478 0.669
0.325 -0.472 0.669
0.334 -0.477 0.671
0.339 -0.475 0.671
0.348 -0.48 0.673
0.353 -0.478 0.673
0.357 -0.475 0.674
0.365 -0.479 0.675
0.37 -0.476 0.676
0.374 -0.473 0.676
0.386 -0.481 0.678
0.39 -0.478 0.679
0.394 -0.474 0.679
0.398 -0.471 0.68
0.409 -0.476 0.682
0.413 -0.472 0.682
0.422 -0.476 0.684
0.432 -0.478 0.685
0.436 -0.475 0.686
0.439 -0.47 0.686
0.449 -0.473 0.687
0.459 -0.476 0.689
0.497 -0.508 0.694
0.601 -0.611 0.71
1.003 -1.021 0.769
1.014 -1.015 0.771
1.018 -1.001 0.771
1.026 -0.992 0.773
1.028 -0.977 0.773
1.036 -0.967 0.774
1.037 -0.951 0.774
1.044 -0.942 0.775
1.045 -0.926 0.775
1.053 -0.917 0.777
1.053 -0.901 0.777
1.061 -0.892 0.778
1.069 -0.883 0.779
1.068 -0.867 0.779
1.075 -0.857 0.78
1.074 -0.841 0.78
1.081 -0.832 0.781
1.088 -0.822 0.782
1.087 -0.807 0.782
1.094 -0.798 0.783
1.101 -0.788 0.784
1.099 -0.772 0.783
1.105 -0.763 0.784
1.112 -0.753 0.785
1.11 -0.738 0.785
1.116 -0.728 0.786
1.168 -0.749 0.794
1.575 -0.997 0.854
1.593 -0.989 0.856
1.593 -0.97 0.856
1.601 -0.956 0.858
1.61 -0.942 0.859
1.611 -0.924 0.859
1.618 -0.91 0.86
1.719 -0.948 0.875
2.132 -1.155 0.936
2.134 -1.132 0.936
2.144 -1.114 0.938
2.164 -1.1 0.941
2.215 -1.103 0.948
2.227 -1.084 0.95
2.228 -1.061 0.95
2.237 -1.041 0.951
2.237 -1.018 0.951
2.366 -1.052 0.97
2.684 -1.168 1.017
2.676 -1.136 1.016
2.821 -1.169 1.037
3.23 -1.308 1.098
2.943 -1.161 1.055
2.22 -0.851 0.949
2.024 -0.754 0.92
1.877 -0.68 0.898
1.795 -0.633 0.886
1.783 -0.611 0.884
1.789 -0.596 0.885
1.795 -0.581 0.886
1.799 -0.564 0.887
1.82 -0.554 0.89
1.853 -0.546 0.895
1.829 -0.522 0.891
1.828 -0.505 0.891
1.82 -0.486 0.89
2.06 -0.531 0.925
2.005 -0.498 0.917
1.976 -0.473 0.913
1.994 -0.459 0.915
2.007 -0.443 0.917
2.046 -0.434 0.923
2.207 -0.448 0.947
3.231 -0.629 1.098
3.383 -0.629 1.12
3.7 -0.654 1.167
4.431 -0.745 1.275
4.45 -0.708 1.278
4.468 -0.671 1.28
4.458 -0.629 1.279
4.502 -0.595 1.286
4.539 -0.56 1.291
4.594 -0.526 1.299
4.612 -0.487 1.302
4.672 -0.452 1.311
4.61 -0.405 1.302
4.621 -0.365 1.303
4.155 -0.292 1.234
3.873 -0.238 1.193
3.879 -0.204 1.194
3.881 -0.17 1.194
3.879 -0.136 1.194
3.88 -0.102 1.194
3.883 -0.068 1.194
3.887 -0.034 1.195
3.895 -0 1.196
3.901 0.034 1.197
4.147 0.073 1.233
4.239 0.111 1.247
4.235 0.149 1.246
4.232 0.186 1.246
4.225 0.222 1.245
4.282 0.263 1.253
5.034 0.354 1.364
5.406 0.428 1.419
3.885 0.341 1.194
3.241 0.313 1.099
3.197 0.337 1.093
3.153 0.36 1.087
3.058 0.376 1.072
3.007 0.397 1.065
2.985 0.42 1.062
2.981 0.446 1.061
2.978 0.472 1.061
2.993 0.502 1.063
3.006 0.531 1.065
3.053 0.567 1.072
3.566 0.695 1.147
3.683 0.752 1.165
3.677 0.784 1.164
3.687 0.82 1.165
3.223 0.746 1.097
2.804 0.674 1.035
2.761 0.689 1.029
2.709 0.701 1.021
2.669 0.715 1.015
2.636 0.731 1.01
2.618 0.751 1.008
2.575 0.763 1.001
2.557 0.782 0.999
2.529 0.797 0.994
2.512 0.816 0.992
2.517 0.842 0.993
2.658 0.915 1.013
2.696 0.955 1.019
2.66 0.969 1.014
2.638 0.987 1.01
2.622 1.007 1.008
2.606 1.027 1.006
2.59 1.047 1.003
2.605 1.079 1.006
2.627 1.116 1.009
2.651 1.153 1.012
2.613 1.164 1.007
2.609 1.189 1.006
2.616 1.22 1.007
2.622 1.251 1.008
2.628 1.282 1.009
2.651 1.322 1.012
2.715 1.384 1.022
3.095 1.614 1.078
2.861 1.523 1.043
2.775 1.508 1.031
2.701 1.498 1.02
2.668 1.51 1.015
2.673 1.544 1.016
2.671 1.574 1.015
2.668 1.604 1.015
2.664 1.633 1.014
2.661 1.663 1.014
2.571 1.638 1.001
2.515 1.633 0.992
2.328 1.539 0.965
1.951 1.311 0.909
1.917 1.312 0.904
1.887 1.316 0.9
1.866 1.325 0.897
1.841 1.332 0.893
1.809 1.332 0.888
1.789 1.341 0.885
1.761 1.344 0.881
1.74 1.352 0.878
1.721 1.361 0.875
1.701 1.37 0.872
1.674 1.372 0.868
1.657 1.382 0.866
1.64 1.392 0.863
1.626 1.405 0.861
1.606 1.411 0.858
1.593 1.425 0.856
1.567 1.426 0.853
1.546 1.432 0.849
1.661 1.567 0.866
1.663 1.596 0.867
1.66 1.621 0.866
1.652 1.642 0.865
1.652 1.671 0.865
1.66 1.709 0.866
1.684 1.765 0.87
1.718 1.833 0.875
1.648 1.787 0.864
1.608 1.775 0.859
1.586 1.78 0.855
1.568 1.791 0.853
1.55 1.802 0.85
1.546 1.829 0.849
1.643 1.981 0.864
1.636 2.008 0.863
1.606 2.006 0.858
1.591 2.023 0.856
1.599 2.071 0.857
1.629 2.148 0.862
1.678 2.254 0.869
1.678 2.296 0.869
1.813 2.529 0.889
1.746 2.48 0.879
1.719 2.487 0.875
1.546 2.276 0.849
1.481 2.219 0.84
1.448 2.212 0.835
1.413 2.198 0.83
1.39 2.203 0.826
1.361 2.199 0.822
1.341 2.21 0.819
1.329 2.233 0.817
0.478 0.788 0.692
0.446 0.747 0.687
0.44 0.751 0.686
0.433 0.755 0.685
0.427 0.758 0.684
0.42 0.761 0.683
0.409 0.756 0.682
0.402 0.759 0.681
0.396 0.764 0.68
0.389 0.766 0.679
0.383 0.769 0.678
0.373 0.766 0.676
0.37 0.777 0.676
0.36 0.772 0.674
0.354 0.777 0.673
0.344 0.771 0.672
0.338 0.777 0.671
0.331 0.78 0.67
0.326 0.787 0.669
0.31 0.763 0.667
0.281 0.705 0.663
0.249 0.632 0.658
0.238 0.616 0.656
0.231 0.614 0.655
0.226 0.616 0.655
0.227 0.64 0.655
0.222 0.642 0.654
0.214 0.636 0.653
0.205 0.627 0.652
0.2 0.627 0.651
0.193 0.623 0.65
0.187 0.623 0.649
0.182 0.627 0.648
0.176 0.623 0.647
0.163 0.594 0.645
0.157 0.589 0.644
0.155 0.605 0.644
0.152 0.618 0.644
0.148 0.628 0.643
0.144 0.633 0.642
0.138 0.63 0.642
0.133 0.639 0.641
0.129 0.644 0.64
0.124 0.654 0.64
0.119 0.66 0.639
0.117 0.684 0.638
0.115 0.717 0.638
0.117 0.793 0.638
0.115 0.844 0.638
0.109 0.855 0.637
0.101 0.854 0.636
0.095 0.862 0.635
0.087 0.863 0.634
0.08 0.861 0.633
0.072 0.864 0.632
0.064 0.843 0.631
0.055 0.801 0.629
0.047 0.76 0.628
0.04 0.742 0.627
0.034 0.713 0.626
0.028 0.467 0.625
0.027 -0.387 0.626
0.031 -0.414 0.626
0.035 -0.432 0.627
0.039 -0.441 0.627
0.043 -0.448 0.628
0.047 -0.452 0.629
0.051 -0.458 0.629
0.055 -0.456 0.63
0.059 -0.455 0.63
0.063 -0.455 0.631
0.067 -0.462 0.632
0.071 -0.462 0.632
0.075 -0.459 0.633
0.08 -0.468 0.634
0.084 -0.466 0.634
0.088 -0.465 0.635
0.092 -0.462 0.635
0.097 -0.47 0.636
0.1 -0.466 0.637
0.106 -0.473 0.638
0.11 -0.473 0.638
0.114 -0.471 0.639
0.119 -0.478 0.64
0.123 -0.477 0.64
0.127 -0.476 0.641
0.131 -0.474 0.642
0.136 -0.475 0.642
0.14 -0.475 0.643
0.145 -0.475 0.644
0.148 -0.473 0.644
0.152 -0.472 0.645
0.157 -0.471 0.646
0.163 -0.478 0.647
0.167 -0.477 0.647
0.171 -0.475 0.648
0.175 -0.473 0.648
0.179 -0.473 0.649
0.183 -0.469 0.65
0.187 -0.469 0.65
0.194 -0.476 0.651
0.198 -0.474 0.652
0.202 -0.472 0.653
0.209 -0.48 0.654
0.214 -0.478 0.654
0.214 -0.467 0.654
0.222 -0.476 0.656
0.227 -0.475 0.656
0.231 -0.474 0.657
0.235 -0.472 0.658
0.239 -0.47 0.658
0.243 -0.469 0.659
0.252 -0.476 0.66
0.256 -0.474 0.661
0.26 -0.472 0.662
0.268 -0.478 0.663
0.272 -0.475 0.663
0.276 -0.473 0.664
0.284 -0.478 0.665
0.288 -0.475 0.666
0.296 -0.48 0.667
0.301 -0.479 0.668
0.305 -0.476 0.669
0.309 -0.474 0.669
0.313 -0.472 0.67
0.322 -0.477 0.671
0.325 -0.472 0.672
0.334 -0.478 0.673
0.338 -0.474 0.674
0.348 -0.481 0.675
0.352 -0.478 0.676
0.356 -0.474 0.676
0.36 -0.472 0.677
0.374 -0.483 0.679
0.374 -0.474 0.679
0.379 -0.473 0.68
0.39 -0.478 0.682
0.395 -0.476 0.683
0.404 -0.479 0.684
0.407 -0.475 0.684
0.412 -0.472 0.685
0.416 -0.469 0.686
0.426 -0.472 0.687
0.435 -0.475 0.689
0.445 -0.477 0.69
0.448 -0.473 0.691
0.465 -0.483 0.693
0.496 -0.508 0.698
0.607 -0.618 0.715
1 -1.019 0.776
1.013 -1.015 0.778
1.024 -1.008 0.78
1.025 -0.992 0.78
1.027 -0.977 0.781
1.035 -0.968 0.782
1.035 -0.951 0.782
1.043 -0.942 0.783
1.044 -0.926 0.783
1.052 -0.917 0.784
1.052 -0.901 0.784
1.06 -0.892 0.786
1.068 -0.883 0.787
1.067 -0.867 0.787
1.074 -0.858 0.788
1.073 -0.842 0.788
1.079 -0.832 0.789
1.086 -0.822 0.79
1.086 -0.807 0.79
1.093 -0.798 0.791
1.099 -0.788 0.792
1.097 -0.772 0.791
1.104 -0.763 0.792
1.111 -0.753 0.794
1.109 -0.738 0.793
1.115 -0.729 0.794
1.167 -0.749 0.802
1.573 -0.997 0.865
1.591 -0.989 0.868
1.6 -0.975 0.869
1.6 -0.956 0.869
1.608 -0.942 0.871
1.608 -0.923 0.871
1.617 -0.91 0.872
1.717 -0.948 0.888
2.13 -1.155 0.952
2.138 -1.136 0.953
2.142 -1.114 0.953
2.161 -1.1 0.956
2.214 -1.103 0.965
2.224 -1.084 0.966
2.224 -1.06 0.966
2.233 -1.041 0.968
2.242 -1.021 0.969
2.358 -1.05 0.987
2.801 -1.221 1.056
2.82 -1.2 1.059
2.873 -1.193 1.067
2.996 -1.214 1.086
2.872 -1.134 1.067
2.849 -1.096 1.063
2.066 -0.771 0.942
1.901 -0.69 0.916
1.803 -0.636 0.901
1.79 -0.614 0.899
1.786 -0.596 0.898
1.795 -0.581 0.9
1.796 -0.564 0.9
1.819 -0.554 0.903
1.855 -0.548 0.909
1.826 -0.522 0.904
1.83 -0.506 0.905
1.833 -0.49 0.906
2.028 -0.524 0.936
2 -0.498 0.931
1.982 -0.475 0.929
1.992 -0.459 0.93
1.994 -0.441 0.93
2.03 -0.431 0.936
2.288 -0.465 0.976
3.222 -0.628 1.121
3.396 -0.632 1.148
3.375 -0.597 1.145
4.576 -0.77 1.331
4.482 -0.714 1.316
4.482 -0.674 1.316
4.465 -0.631 1.314
4.493 -0.595 1.318
4.537 -0.56 1.325
4.649 -0.533 1.342
4.659 -0.493 1.344
4.703 -0.456 1.351
4.641 -0.408 1.341
4.61 -0.365 1.336
4.359 -0.307 1.297
4.023 -0.247 1.245
3.865 -0.204 1.221
3.863 -0.169 1.22
3.864 -0.136 1.221
3.865 -0.102 1.221
3.882 -0.068 1.223
3.872 -0.034 1.222
3.875 -0 1.222
3.966 0.035 1.236
4.168 0.073 1.268
4.224 0.111 1.276
4.225 0.148 1.277
4.219 0.185 1.276
4.231 0.223 1.278
4.49 0.276 1.318
5.223 0.368 1.431
5.394 0.427 1.458
3.879 0.341 1.223
3.313 0.32 1.135
3.182 0.336 1.115
3.097 0.354 1.102
3.044 0.375 1.093
3.005 0.397 1.087
2.982 0.42 1.084
2.977 0.446 1.083
2.974 0.472 1.083
2.989 0.502 1.085
3.002 0.531 1.087
3.048 0.567 1.094
3.267 0.637 1.128
3.679 0.752 1.192
3.681 0.786 1.192
3.707 0.826 1.196
3.372 0.781 1.144
2.804 0.675 1.056
2.746 0.686 1.047
2.699 0.699 1.04
2.659 0.714 1.034
2.621 0.728 1.028
2.59 0.744 1.023
2.577 0.764 1.021
2.551 0.781 1.017
2.527 0.797 1.013
2.511 0.817 1.011
2.612 0.875 1.026
2.7 0.931 1.04
2.692 0.955 1.039
2.657 0.969 1.033
2.641 0.989 1.031
2.616 1.006 1.027
2.599 1.025 1.024
2.589 1.047 1.023
2.602 1.079 1.025
2.643 1.123 1.031
2.639 1.149 1.031
2.617 1.167 1.027
2.606 1.189 1.026
2.613 1.22 1.027
2.62 1.251 1.028
2.625 1.282 1.028
2.64 1.318 1.031
2.744 1.401 1.047
3.075 1.606 1.098
2.885 1.538 1.069
2.776 1.51 1.052
2.697 1.498 1.04
2.654 1.504 1.033
2.657 1.537 1.033
2.664 1.572 1.035
2.663 1.602 1.034
2.658 1.631 1.034
2.655 1.661 1.033
2.574 1.642 1.021
2.519 1.638 1.012
2.391 1.583 0.992
1.959 1.319 0.925
1.912 1.311 0.918
1.887 1.318 0.914
1.854 1.319 0.909
1.826 1.323 0.905
1.801 1.328 0.901
1.778 1.335 0.897
1.755 1.342 0.894
1.73 1.346 0.89
1.706 1.351 0.886
1.695 1.366 0.884
1.676 1.375 0.881
1.656 1.383 0.878
1.643 1.396 0.876
1.62 1.401 0.872
1.601 1.409 0.87
1.589 1.423 0.868
1.563 1.424 0.864
1.55 1.437 0.862
1.653 1.561 0.878
1.661 1.596 0.879
1.652 1.616 0.878
1.65 1.642 0.877
1.641 1.661 0.876
1.658 1.709 0.878
1.673 1.755 0.881
1.693 1.807 0.884
1.635 1.775 0.875
1.606 1.774 0.87
1.584 1.78 0.867
1.565 1.79 0.864
1.548 1.802 0.861
1.55 1.836 0.862
1.665 2.01 0.879
1.647 2.024 0.877
1.613 2.017 0.871
1.609 2.048 0.871
1.609 2.086 0.871
1.674 2.211 0.881
1.69 2.274 0.883
1.683 2.307 0.882
1.893 2.647 0.915
1.888 2.688 0.914
1.717 2.487 0.888
1.532 2.257 0.859
1.466 2.2 0.849
1.435 2.194 0.844
1.407 2.191 0.839
1.378 2.188 0.835
1.36 2.2 0.832
1.34 2.211 0.829
1.324 2.227 0.827
1.312 2.252 0.825
0.445 0.748 0.69
0.439 0.751 0.689
0.432 0.755 0.688
0.426 0.758 0.687
0.415 0.753 0.686
0.408 0.756 0.685
0.402 0.76 0.684
0.395 0.763 0.683
0.389 0.767 0.682
0.382 0.77 0.681
0.376 0.773 0.68
0.366 0.769 0.678
0.359 0.772 0.677
0.353 0.776 0.676
0.343 0.771 0.674
0.337 0.776 0.674
0.331 0.78 0.673
0.322 0.778 0.671
0.309 0.762 0.669
0.281 0.705 0.665
0.252 0.642 0.66
0.237 0.616 0.658
0.23 0.614 0.657
0.228 0.624 0.657
0.226 0.638 0.656
0.221 0.641 0.656
0.213 0.636 0.654
0.205 0.628 0.653
0.199 0.627 0.652
0.195 0.633 0.651
0.186 0.621 0.65
0.182 0.627 0.649
0.175 0.623 0.648
0.163 0.596 0.647
0.156 0.589 0.646
0.153 0.597 0.645
0.152 0.619 0.645
0.148 0.629 0.644
0.143 0.633 0.643
0.139 0.639 0.643
0.133 0.639 0.642
0.13 0.653 0.641
0.124 0.654 0.64
0.119 0.659 0.64
0.116 0.683 0.639
0.114 0.715 0.639
0.117 0.792 0.639
0.115 0.843 0.639
0.108 0.845 0.638
0.101 0.853 0.637
0.094 0.851 0.636
0.087 0.863 0.635
0.08 0.862 0.634
0.072 0.863 0.632
0.064 0.853 0.631
0.055 0.801 0.63
0.047 0.754 0.629
0.04 0.739 0.627
0.034 0.723 0.626
0.027 0.504 0.626
0.027 -0.386 0.626
0.031 -0.405 0.626
0.035 -0.432 0.627
0.039 -0.441 0.628
0.043 -0.448 0.628
0.047 -0.451 0.629
0.051 -0.458 0.63
0.055 -0.455 0.63
0.059 -0.465 0.631
0.063 -0.455 0.631
0.067 -0.463 0.632
0.071 -0.462 0.633
0.075 -0.46 0.633
0.079 -0.459 0.634
0.084 -0.466 0.635
0.088 -0.465 0.636
0.091 -0.462 0.636
0.096 -0.469 0.637
0.1 -0.467 0.638
0.105 -0.472 0.638
0.11 -0.474 0.639
0.113 -0.47 0.64
0.119 -0.478 0.641
0.123 -0.477 0.641
0.127 -0.476 0.642
0.131 -0.474 0.643
0.135 -0.475 0.643
0.14 -0.475 0.644
0.142 -0.465 0.644
0.148 -0.473 0.645
0.152 -0.472 0.646
0.156 -0.471 0.647
0.163 -0.479 0.648
0.164 -0.468 0.648
0.171 -0.475 0.649
0.175 -0.474 0.65
0.179 -0.472 0.65
0.185 -0.479 0.651
0.19 -0.477 0.652
0.194 -0.476 0.653
0.197 -0.474 0.653
0.201 -0.472 0.654
0.205 -0.47 0.655
0.213 -0.478 0.656
0.217 -0.477 0.657
0.222 -0.476 0.657
0.227 -0.476 0.658
0.231 -0.474 0.659
0.235 -0.472 0.659
0.239 -0.47 0.66
0.243 -0.469 0.661
0.247 -0.467 0.661
0.255 -0.473 0.663
0.263 -0.479 0.664
0.267 -0.478 0.665
0.272 -0.475 0.665
0.276 -0.473 0.666
0.283 -0.478 0.667
0.287 -0.475 0.668
0.291 -0.473 0.669
0.3 -0.479 0.67
0.304 -0.476 0.671
0.308 -0.474 0.671
0.318 -0.48 0.673
0.322 -0.477 0.674
0.325 -0.473 0.674
0.333 -0.477 0.675
0.338 -0.475 0.676
0.346 -0.479 0.678
0.351 -0.477 0.678
0.356 -0.475 0.679
0.365 -0.48 0.681
0.369 -0.477 0.681
0.372 -0.473 0.682
0.384 -0.48 0.684
0.39 -0.478 0.685
0.394 -0.475 0.685
0.397 -0.471 0.686
0.407 -0.476 0.688
0.41 -0.471 0.688
0.416 -0.469 0.689
0.426 -0.473 0.691
0.435 -0.475 0.692
0.443 -0.476 0.693
0.448 -0.473 0.694
0.465 -0.484 0.697
0.495 -0.508 0.702
0.599 -0.61 0.719
1 -1.021 0.784
1.012 -1.016 0.786
1.015 -1.001 0.786
1.023 -0.992 0.788
1.025 -0.977 0.788
1.034 -0.968 0.789
1.034 -0.951 0.789
1.041 -0.941 0.791
1.042 -0.926 0.791
1.05 -0.917 0.792
1.051 -0.901 0.792
1.058 -0.892 0.793
1.066 -0.883 0.795
1.065 -0.867 0.795
1.064 -0.851 0.794
1.071 -0.841 0.795
1.078 -0.832 0.797
1.085 -0.822 0.798
1.084 -0.807 0.798
1.091 -0.798 0.799
1.098 -0.788 0.8
1.096 -0.772 0.8
1.103 -0.763 0.801
1.101 -0.748 0.8
1.107 -0.738 0.801
1.114 -0.729 0.802
1.165 -0.748 0.811
1.564 -0.992 0.876
1.589 -0.989 0.88
1.598 -0.975 0.881
1.597 -0.956 0.881
1.606 -0.942 0.882
1.607 -0.924 0.883
1.615 -0.91 0.884
1.715 -0.948 0.9
2.119 -1.151 0.966
2.128 -1.131 0.967
2.139 -1.114 0.969
2.156 -1.099 0.972
2.21 -1.103 0.981
2.221 -1.084 0.983
2.22 -1.059 0.982
2.231 -1.041 0.984
2.238 -1.021 0.985
2.343 -1.044 1.002
2.425 -1.056 1.016
2.78 -1.184 1.074
2.802 -1.165 1.077
2.874 -1.165 1.089
2.856 -1.129 1.086
2.864 -1.103 1.087
2.119 -0.793 0.966
1.926 -0.7 0.935
1.811 -0.64 0.916
1.787 -0.614 0.912
1.784 -0.596 0.912
1.791 -0.581 0.913
1.794 -0.564 0.913
1.817 -0.554 0.917
1.856 -0.549 0.923
1.831 -0.524 0.919
1.83 -0.506 0.919
1.836 -0.491 0.92
1.998 -0.516 0.946
2.007 -0.5 0.948
1.976 -0.474 0.943
1.988 -0.459 0.945
1.98 -0.439 0.943
2.021 -0.429 0.95
2.287 -0.466 0.993
3.26 -0.637 1.152
3.419 -0.637 1.178
4.96 -0.881 1.428
4.644 -0.783 1.377
4.484 -0.715 1.351
4.475 -0.673 1.349
4.471 -0.633 1.349
4.488 -0.595 1.351
4.56 -0.564 1.363
4.78 -0.549 1.399
4.735 -0.501 1.392
4.803 -0.466 1.403
4.68 -0.412 1.383
4.673 -0.37 1.381
4.589 -0.323 1.368
4.132 -0.254 1.294
3.861 -0.204 1.249
3.852 -0.169 1.248
3.857 -0.135 1.249
3.848 -0.101 1.247
3.864 -0.068 1.25
3.866 -0.034 1.25
3.878 -0 1.252
4.077 0.036 1.284
4.214 0.074 1.307
4.224 0.111 1.308
4.218 0.148 1.307
4.259 0.187 1.314
4.373 0.231 1.333
5.366 0.331 1.494
5.384 0.379 1.497
5.39 0.428 1.498
5.408 0.477 1.501
3.32 0.321 1.161
3.146 0.332 1.133
3.074 0.352 1.121
3.031 0.374 1.114
3 0.397 1.109
2.988 0.422 1.107
2.974 0.446 1.105
2.97 0.472 1.104
2.986 0.502 1.107
3 0.531 1.109
3.033 0.564 1.115
3.215 0.628 1.144
3.683 0.754 1.22
3.677 0.786 1.219
3.731 0.832 1.228
3.693 0.858 1.222
2.806 0.676 1.078
2.766 0.692 1.071
2.696 0.699 1.06
2.657 0.714 1.053
2.629 0.731 1.049
2.597 0.747 1.044
2.57 0.763 1.039
2.555 0.783 1.037
2.627 0.831 1.049
2.643 0.861 1.051
2.7 0.906 1.06
2.736 0.945 1.066
2.689 0.955 1.059
2.662 0.972 1.054
2.636 0.988 1.05
2.613 1.006 1.046
2.607 1.03 1.045
2.593 1.05 1.043
2.599 1.079 1.044
2.643 1.125 1.051
2.619 1.142 1.047
2.612 1.166 1.046
2.611 1.193 1.046
2.61 1.22 1.046
2.615 1.251 1.047
2.623 1.283 1.048
2.637 1.318 1.05
2.746 1.404 1.068
3.309 1.731 1.16
2.903 1.549 1.094
2.789 1.519 1.075
2.69 1.496 1.059
2.659 1.508 1.054
2.666 1.544 1.055
2.677 1.581 1.057
2.668 1.607 1.055
2.66 1.634 1.054
2.661 1.668 1.054
2.565 1.638 1.039
2.516 1.637 1.031
2.465 1.635 1.022
2.126 1.434 0.967
1.906 1.308 0.931
1.88 1.315 0.927
1.847 1.315 0.922
1.824 1.323 0.918
1.801 1.33 0.914
1.769 1.33 0.909
1.744 1.335 0.905
1.733 1.35 0.903
1.704 1.351 0.899
1.689 1.364 0.896
1.669 1.371 0.893
1.647 1.377 0.889
1.633 1.389 0.887
1.619 1.402 0.885
1.603 1.413 0.882
1.586 1.422 0.879
1.565 1.428 0.876
1.548 1.437 0.873
1.646 1.556 0.889
1.659 1.596 0.891
1.656 1.622 0.891
1.648 1.642 0.889
1.641 1.663 0.888
1.643 1.695 0.889
1.663 1.747 0.892
1.675 1.79 0.894
1.631 1.773 0.887
1.604 1.774 0.882
1.581 1.78 0.879
1.563 1.79 0.876
1.546 1.802 0.873
1.553 1.842 0.874
1.824 2.208 0.918
1.68 2.068 0.895
1.676 2.101 0.894
1.646 2.099 0.889
1.66 2.156 0.891
1.704 2.255 0.899
1.702 2.293 0.898
1.702 2.335 0.898
1.892 2.648 0.929
1.885 2.688 0.928
1.683 2.44 0.895
1.505 2.22 0.866
1.46 2.193 0.859
1.429 2.187 0.854
1.4 2.184 0.849
1.372 2.181 0.845
1.355 2.195 0.842
1.334 2.203 0.838
1.318 2.22 0.836
1.308 2.248 0.834
0.44 0.739 0.693
0.438 0.75 0.692
0.432 0.755 0.692
0.425 0.758 0.69
0.414 0.753 0.689
0.408 0.756 0.688
0.401 0.76 0.687
0.395 0.763 0.685
0.388 0.766 0.684
0.382 0.77 0.683
0.375 0.773 0.682
0.364 0.767 0.681
0.358 0.771 0.68
0.353 0.777 0.679
0.346 0.781 0.678
0.337 0.777 0.676
0.33 0.78 0.675
0.321 0.775 0.673
0.309 0.762 0.671
0.28 0.704 0.667
0.252 0.642 0.662
0.236 0.616 0.66
0.23 0.614 0.659
0.227 0.623 0.658
0.226 0.638 0.658
0.223 0.648 0.658
0.213 0.635 0.656
0.205 0.627 0.655
0.199 0.626 0.654
0.192 0.622 0.652
0.186 0.623 0.652
0.181 0.626 0.651
0.173 0.616 0.649
0.161 0.587 0.647
0.155 0.582 0.646
0.151 0.589 0.646
0.15 0.612 0.646
0.148 0.629 0.645
0.143 0.633 0.645
0.137 0.63 0.644
0.133 0.639 0.643
0.129 0.653 0.642
0.124 0.654 0.641
0.118 0.658 0.641
0.115 0.674 0.64
0.114 0.714 0.64
0.116 0.791 0.64
0.115 0.843 0.64
