# .PCD v0.7 - Point Cloud Data file format
VERSION 0.7
FIELDS x y z
SIZE 4 4 4
TYPE F F F
COUNT 1 1 1
WIDTH 2504
HEIGHT 1
VIEWPOINT 0 0 0 1 0 0 0
POINTS 2504
DATA ascii
0.892 1.742 1.412
0.869 1.728 1.391
0.845 1.713 1.37
0.826 1.705 1.353
0.789 1.66 1.321
0.681 1.46 1.227
0.662 1.445 1.209
0.67 1.492 1.216
0.665 1.512 1.212
0 0 0
0.647 1.531 1.196
0.611 1.476 1.165
0.594 1.462 1.149
0.568 1.427 1.127
0.552 1.418 1.113
0.532 1.394 1.095
0.518 1.388 1.083
0.506 1.385 1.072
0.491 1.375 1.059
0.48 1.376 1.05
0.464 1.358 1.035
0.211 0.617 0.813
0.215 0.644 0.817
0.199 0.611 0.803
0.195 0.612 0.799
0.187 0.601 0.792
0.185 0.608 0.79
0.178 0.6 0.784
0.173 0.6 0.78
0.167 0.593 0.775
0.162 0.589 0.77
0.158 0.592 0.767
0.152 0.585 0.762
0.148 0.585 0.758
0.144 0.584 0.754
0.138 0.579 0.749
0.134 0.58 0.746
0.128 0.571 0.741
0.125 0.573 0.738
0.121 0.575 0.734
0.118 0.577 0.731
0.112 0.569 0.726
0.107 0.563 0.722
0.105 0.571 0.72
0.1 0.565 0.716
0.096 0.565 0.712
0.092 0.566 0.709
0.088 0.567 0.706
0.084 0.559 0.701
0.08 0.561 0.698
0.075 0.552 0.694
0.072 0.553 0.691
0.068 0.557 0.688
0.064 0.548 0.684
0.059 0.54 0.68
0.056 0.541 0.677
0.052 0.543 0.674
0.048 0.535 0.67
0.045 0.542 0.668
0.041 0.538 0.664
0.038 0.537 0.661
0.034 0.534 0.658
0.03 0.529 0.655
0.027 0.539 0.652
0.023 0.525 0.648
0.02 0.518 0.645
0.016 0.498 0.642
0.013 0.476 0.639
0.009 0.423 0.636
0.009 -0.433 0.636
0.013 -0.563 0.64
0.017 -0.622 0.643
0.022 -0.651 0.648
0.026 -0.66 0.652
0.031 -0.669 0.656
0.035 -0.666 0.659
0.039 -0.656 0.663
0.044 -0.657 0.667
0.048 -0.658 0.671
0.052 -0.659 0.675
0.056 -0.652 0.678
0.06 -0.651 0.682
0.065 -0.652 0.686
0.069 -0.651 0.689
0.073 -0.651 0.693
0.078 -0.65 0.697
0.081 -0.644 0.7
0.085 -0.64 0.704
0.09 -0.642 0.708
0.095 -0.647 0.712
0.098 -0.637 0.715
0.102 -0.639 0.719
0.106 -0.639 0.723
0.108 -0.624 0.724
0.113 -0.623 0.728
0.117 -0.625 0.732
0.119 -0.614 0.734
0.124 -0.615 0.738
0.129 -0.617 0.742
0.131 -0.607 0.744
0.135 -0.605 0.748
0.14 -0.608 0.752
0.143 -0.603 0.755
0.147 -0.601 0.758
0.151 -0.603 0.762
0.155 -0.601 0.766
0.159 -0.599 0.769
0.163 -0.597 0.773
0.167 -0.595 0.776
0.171 -0.594 0.78
0.175 -0.592 0.783
0.178 -0.587 0.786
0.184 -0.593 0.791
0.19 -0.599 0.797
0.199 -0.613 0.805
0.203 -0.61 0.808
0.209 -0.615 0.814
0.214 -0.614 0.818
0.22 -0.617 0.823
0.223 -0.613 0.826
0.226 -0.607 0.828
0.233 -0.613 0.835
0.25 -0.644 0.849
0.267 -0.676 0.865
0.267 -0.663 0.865
0.269 -0.652 0.867
0.274 -0.653 0.872
0.28 -0.652 0.876
0.288 -0.659 0.884
0.311 -0.698 0.904
0.291 -0.638 0.886
0.668 -1.466 1.221
0.714 -1.536 1.261
0.72 -1.521 1.267
1.305 -2.72 1.786
1.324 -2.707 1.803
1.343 -2.693 1.819
1.36 -2.678 1.835
1.378 -2.662 1.85
1.4 -2.656 1.87
1.421 -2.647 1.889
1.439 -2.63 1.904
1.46 -2.621 1.924
1.482 -2.613 1.943
1.5 -2.597 1.959
1.521 -2.587 1.978
1.543 -2.578 1.997
1.565 -2.568 2.016
1.581 -2.549 2.031
1.603 -2.539 2.05
1.626 -2.53 2.07
1.647 -2.519 2.09
1.668 -2.506 2.108
1.69 -2.495 2.127
1.711 -2.482 2.146
1.732 -2.47 2.165
1.754 -2.458 2.184
1.775 -2.444 2.202
1.796 -2.431 2.221
1.818 -2.418 2.241
1.839 -2.404 2.26
1.866 -2.397 2.283
1.887 -2.382 2.302
1.908 -2.367 2.32
1.934 -2.358 2.344
1.955 -2.342 2.362
1.981 -2.332 2.386
2.001 -2.315 2.403
2.03 -2.307 2.429
2.049 -2.288 2.446
2.076 -2.277 2.469
2.096 -2.259 2.488
2.122 -2.246 2.51
2.148 -2.234 2.534
2.174 -2.22 2.556
2.199 -2.206 2.579
2.226 -2.193 2.603
2.253 -2.179 2.627
2.277 -2.163 2.648
2.303 -2.147 2.671
2.327 -2.13 2.693
2.361 -2.12 2.723
2.387 -2.104 2.746
2.414 -2.088 2.77
2.44 -2.07 2.793
2.466 -2.052 2.816
2.499 -2.04 2.845
2.525 -2.021 2.868
2.551 -2.002 2.891
2.584 -1.987 2.921
2.617 -1.972 2.95
2.649 -1.956 2.978
2.681 -1.939 3.006
2.708 -1.918 3.03
2.74 -1.901 3.059
2.772 -1.882 3.087
2.804 -1.862 3.115
2.837 -1.843 3.144
2.87 -1.824 3.174
2.91 -1.808 3.209
2.944 -1.788 3.24
2.977 -1.766 3.269
3.015 -1.747 3.303
3.055 -1.728 3.338
3.087 -1.704 3.366
3.126 -1.683 3.401
3.164 -1.661 3.435
3.203 -1.639 3.469
3.248 -1.619 3.509
3.284 -1.593 3.542
3.331 -1.572 3.583
3.368 -1.546 3.616
3.414 -1.523 3.656
3.46 -1.499 3.697
3.506 -1.474 3.738
3.553 -1.448 3.78
3.598 -1.421 3.82
3.651 -1.396 3.867
3.694 -1.366 3.905
3.718 -1.328 3.926
3.704 -1.277 3.914
3.715 -1.235 3.924
3.703 -1.185 3.913
3.71 -1.142 3.919
3.696 -1.093 3.907
3.71 -1.051 3.919
3.696 -1.003 3.907
3.702 -0.96 3.912
3.694 -0.913 3.905
3.707 -0.872 3.917
3.692 -0.824 3.903
3.704 -0.782 3.914
3.687 -0.735 3.899
3.699 -0.693 3.91
3.689 -0.648 3.9
3.691 -0.604 3.903
3.685 -0.56 3.897
3.705 -0.519 3.914
3.682 -0.473 3.895
3.69 -0.43 3.901
3.678 -0.386 3.891
3.688 -0.344 3.9
3.675 -0.3 3.888
3.685 -0.257 3.897
3.672 -0.214 3.886
3.679 -0.171 3.892
3.674 -0.128 3.887
3.681 -0.086 3.894
3.666 -0.043 3.881
3.681 -0 3.893
3.664 0.043 3.879
3.672 0.085 3.886
3.657 0.128 3.872
3.67 0.171 3.884
3.654 0.213 3.87
3.66 0.256 3.875
3.651 0.298 3.867
3.655 0.341 3.871
3.646 0.383 3.863
3.658 0.427 3.873
3.64 0.467 3.857
3.652 0.512 3.868
3.641 0.553 3.858
3.652 0.598 3.868
3.637 0.638 3.854
3.646 0.683 3.862
3.639 0.725 3.856
3.65 0.771 3.866
3.637 0.812 3.855
3.646 0.857 3.863
3.627 0.896 3.845
3.638 0.943 3.855
3.623 0.983 3.842
3.642 1.032 3.859
3.627 1.072 3.846
3.636 1.119 3.854
3.629 1.162 3.847
3.638 1.21 3.856
3.623 1.249 3.842
3.636 1.299 3.854
3.626 1.341 3.845
3.624 1.386 3.843
3.608 1.425 3.829
3.61 1.472 3.831
3.601 1.514 3.822
3.611 1.564 3.831
3.592 1.603 3.815
3.709 1.703 3.919
3.698 1.746 3.909
3.753 1.822 3.958
3.741 1.865 3.947
3.706 1.897 3.916
3.699 1.943 3.909
3.702 1.994 3.912
3.706 2.047 3.916
3.714 2.102 3.923
3.714 2.154 3.923
3.652 2.168 3.868
3.633 2.208 3.851
3.611 2.245 3.832
3.606 2.293 3.827
3.594 2.337 3.816
3.577 2.378 3.801
3.561 2.419 3.787
3.545 2.461 3.773
3.529 2.502 3.759
3.519 2.548 3.75
3.496 2.584 3.729
3.485 2.629 3.72
3.467 2.669 3.704
3.451 2.71 3.689
3.44 2.755 3.68
3.42 2.794 3.662
3.403 2.835 3.647
3.391 2.88 3.636
3.373 2.92 3.621
3.358 2.963 3.607
3.34 3.003 3.591
3.325 3.047 3.578
3.313 3.092 3.567
3.232 3.073 3.495
3.099 3.001 3.378
2.961 2.92 3.255
2.846 2.858 3.153
2.73 2.791 3.05
2.626 2.733 2.958
2.524 2.674 2.867
2.435 2.626 2.788
2.349 2.578 2.712
2.263 2.528 2.636
2.183 2.482 2.564
2.111 2.443 2.501
2.036 2.397 2.435
1.977 2.369 2.382
1.907 2.324 2.319
1.852 2.297 2.271
1.791 2.261 2.217
1.738 2.231 2.17
1.685 2.201 2.123
1.633 2.171 2.077
1.581 2.138 2.031
1.541 2.12 1.995
1.493 2.09 1.952
1.451 2.066 1.915
1.408 2.041 1.877
1.373 2.024 1.846
1.332 1.999 1.81
1.306 1.994 1.787
1.272 1.976 1.756
1.229 1.943 1.718
1.192 1.918 1.686
1.16 1.9 1.657
1.136 1.894 1.636
1.104 1.872 1.607
1.064 1.837 1.572
1.038 1.825 1.549
1.012 1.812 1.526
0.987 1.798 1.503
0.961 1.785 1.481
0.936 1.77 1.459
0.912 1.756 1.437
0.889 1.743 1.416
0.865 1.728 1.395
0.841 1.713 1.374
0.822 1.705 1.357
0.78 1.649 1.32
0.678 1.46 1.23
0.661 1.449 1.214
0.682 1.526 1.233
0 0 0
0 0 0
0 0 0
0.609 1.477 1.169
0.59 1.461 1.152
0.562 1.42 1.127
0.547 1.411 1.114
0.534 1.408 1.102
0.516 1.389 1.086
0.505 1.389 1.076
0.488 1.372 1.061
0.474 1.362 1.048
0.464 1.364 1.039
0.263 0.779 0.861
0.209 0.631 0.814
0.199 0.612 0.804
0.194 0.612 0.8
0.189 0.61 0.796
0.184 0.608 0.791
0.177 0.6 0.785
0.173 0.6 0.781
0.167 0.594 0.776
0.161 0.59 0.771
0.157 0.592 0.768
0.151 0.583 0.762
0.147 0.585 0.759
0.143 0.585 0.755
0.138 0.579 0.75
0.134 0.581 0.747
0.13 0.581 0.743
0.124 0.571 0.738
0.12 0.574 0.735
0.115 0.569 0.73
0.111 0.569 0.727
0.108 0.57 0.724
0.103 0.562 0.719
0.099 0.564 0.716
0.095 0.565 0.713
0.092 0.566 0.709
0.087 0.558 0.705
0.083 0.56 0.702
0.079 0.559 0.698
0.075 0.552 0.694
0.071 0.553 0.691
0.067 0.545 0.687
0.063 0.548 0.684
0.059 0.541 0.68
0.055 0.542 0.677
0.052 0.543 0.674
0.048 0.534 0.67
0.045 0.542 0.668
0.04 0.53 0.664
0.037 0.537 0.661
0.034 0.533 0.658
0.03 0.529 0.655
0.027 0.539 0.652
0.023 0.529 0.649
0.019 0.518 0.645
0.016 0.501 0.642
0.012 0.476 0.639
0.009 0.433 0.636
0.009 -0.434 0.636
0.013 -0.543 0.64
0.017 -0.622 0.644
0.022 -0.649 0.648
0.026 -0.66 0.652
0.031 -0.669 0.656
0.035 -0.666 0.66
0.039 -0.656 0.663
0.043 -0.657 0.667
0.047 -0.658 0.671
0.052 -0.658 0.675
0.056 -0.651 0.678
0.06 -0.651 0.682
0.064 -0.652 0.686
0.068 -0.652 0.69
0.073 -0.65 0.694
0.076 -0.639 0.696
0.081 -0.645 0.701
0.084 -0.64 0.704
0.089 -0.643 0.708
0.093 -0.639 0.712
0.097 -0.636 0.715
0.101 -0.636 0.719
0.105 -0.638 0.723
0.109 -0.635 0.727
0.112 -0.624 0.729
0.116 -0.625 0.733
0.12 -0.624 0.737
0.123 -0.616 0.739
0.127 -0.616 0.743
0.13 -0.607 0.745
0.135 -0.611 0.75
0.138 -0.606 0.753
0.142 -0.606 0.756
0.148 -0.611 0.761
0.15 -0.602 0.763
0.154 -0.601 0.767
0.157 -0.596 0.77
0.162 -0.597 0.774
0.165 -0.593 0.777
0.169 -0.593 0.781
0.173 -0.591 0.784
0.177 -0.589 0.788
0.182 -0.593 0.793
0.19 -0.602 0.799
0.2 -0.62 0.808
0.204 -0.617 0.812
0.208 -0.617 0.816
0.215 -0.621 0.821
0.215 -0.607 0.821
0.221 -0.612 0.827
0.225 -0.609 0.831
0.24 -0.638 0.845
0.251 -0.653 0.854
0.267 -0.681 0.868
0.268 -0.671 0.87
0.27 -0.661 0.872
0.275 -0.658 0.875
0.278 -0.653 0.879
0.297 -0.685 0.896
0.332 -0.753 0.927
0.629 -1.417 1.195
0.665 -1.468 1.227
0.712 -1.543 1.269
0.712 -1.513 1.269
1.294 -2.713 1.793
1.312 -2.7 1.809
1.335 -2.696 1.83
1.352 -2.68 1.846
1.373 -2.671 1.865
1.39 -2.655 1.88
1.412 -2.648 1.9
1.429 -2.63 1.915
1.451 -2.622 1.935
1.473 -2.614 1.954
1.494 -2.605 1.974
1.511 -2.587 1.989
1.532 -2.577 2.008
1.554 -2.568 2.028
1.571 -2.549 2.043
1.593 -2.539 2.062
1.613 -2.528 2.081
1.635 -2.518 2.101
1.657 -2.506 2.12
1.678 -2.495 2.139
1.699 -2.482 2.158
1.721 -2.47 2.177
1.742 -2.457 2.196
1.763 -2.444 2.215
1.785 -2.431 2.235
1.806 -2.418 2.255
1.827 -2.404 2.273
1.853 -2.396 2.296
1.875 -2.382 2.316
1.895 -2.367 2.334
1.922 -2.358 2.359
1.942 -2.342 2.377
1.968 -2.332 2.4
1.99 -2.317 2.42
2.015 -2.306 2.443
2.036 -2.288 2.461
2.062 -2.277 2.485
2.088 -2.265 2.508
2.107 -2.246 2.526
2.134 -2.234 2.549
2.159 -2.22 2.572
2.186 -2.207 2.596
2.212 -2.194 2.62
2.236 -2.178 2.642
2.262 -2.163 2.665
2.287 -2.146 2.687
2.314 -2.131 2.711
2.345 -2.12 2.74
2.37 -2.103 2.762
2.397 -2.087 2.787
2.424 -2.07 2.811
2.456 -2.058 2.84
2.481 -2.039 2.863
2.514 -2.025 2.892
2.541 -2.007 2.916
2.574 -1.992 2.946
2.599 -1.972 2.969
2.632 -1.956 2.998
2.663 -1.939 3.026
2.697 -1.923 3.056
2.727 -1.904 3.084
2.762 -1.887 3.115
2.792 -1.867 3.142
2.818 -1.843 3.165
2.858 -1.828 3.201
2.89 -1.808 3.231
2.924 -1.788 3.261
2.964 -1.771 3.297
3.002 -1.751 3.331
3.036 -1.729 3.362
3.073 -1.708 3.395
3.112 -1.687 3.43
3.15 -1.665 3.465
3.189 -1.642 3.499
3.226 -1.618 3.533
3.269 -1.597 3.572
3.315 -1.575 3.613
3.353 -1.549 3.647
3.397 -1.526 3.687
3.437 -1.499 3.723
3.49 -1.477 3.77
3.529 -1.448 3.806
3.582 -1.424 3.853
3.626 -1.396 3.894
3.649 -1.358 3.914
3.665 -1.318 3.928
3.647 -1.266 3.912
3.657 -1.224 3.921
3.636 -1.172 3.903
3.65 -1.131 3.915
3.636 -1.082 3.902
3.65 -1.041 3.915
3.636 -0.993 3.902
3.642 -0.95 3.907
3.633 -0.904 3.899
3.647 -0.863 3.912
3.629 -0.815 3.896
3.642 -0.774 3.908
3.632 -0.729 3.899
3.642 -0.687 3.908
3.628 -0.641 3.895
3.637 -0.599 3.903
3.626 -0.555 3.893
3.634 -0.513 3.9
3.622 -0.468 3.889
3.634 -0.427 3.9
3.622 -0.383 3.89
3.633 -0.341 3.899
3.619 -0.297 3.887
3.631 -0.255 3.897
3.616 -0.212 3.885
3.625 -0.17 3.892
3.612 -0.127 3.881
3.62 -0.085 3.888
3.615 -0.042 3.883
3.625 -0 3.892
3.603 0.042 3.873
3.617 0.085 3.885
3.595 0.126 3.865
3.609 0.169 3.878
3.592 0.211 3.862
3.606 0.254 3.875
3.589 0.295 3.86
3.602 0.338 3.872
3.584 0.379 3.856
3.597 0.422 3.867
3.587 0.464 3.858
3.598 0.508 3.868
3.58 0.548 3.852
3.597 0.593 3.867
3.581 0.633 3.853
3.589 0.677 3.86
3.578 0.718 3.85
3.589 0.763 3.86
3.576 0.803 3.848
3.586 0.849 3.857
3.573 0.889 3.846
3.581 0.934 3.853
3.568 0.974 3.841
3.582 1.022 3.853
3.567 1.061 3.84
3.58 1.109 3.851
3.565 1.149 3.838
3.574 1.196 3.846
3.565 1.238 3.839
3.577 1.286 3.849
3.567 1.328 3.84
3.573 1.375 3.845
3.557 1.414 3.831
3.565 1.463 3.838
3.556 1.505 3.83
3.553 1.549 3.827
3.543 1.591 3.819
3.545 1.638 3.82
3.534 1.68 3.81
3.549 1.734 3.824
3.537 1.775 3.813
3.68 1.896 3.942
3.671 1.941 3.933
3.677 1.994 3.939
3.68 2.046 3.942
3.689 2.102 3.949
3.684 2.15 3.945
3.628 2.168 3.895
3.609 2.208 3.878
3.595 2.25 3.865
3.59 2.298 3.861
3.575 2.34 3.847
3.56 2.382 3.833
3.544 2.424 3.819
3.528 2.465 3.805
3.512 2.507 3.791
3.503 2.553 3.782
3.479 2.588 3.761
3.469 2.634 3.752
3.452 2.675 3.737
3.435 2.715 3.721
3.417 2.755 3.705
3.405 2.801 3.694
3.387 2.84 3.678
3.375 2.885 3.667
3.356 2.925 3.65
3.344 2.97 3.639
3.324 3.009 3.621
3.311 3.053 3.609
3.291 3.092 3.591
3.2 3.063 3.509
3.067 2.989 3.39
2.936 2.914 3.271
2.822 2.852 3.169
2.706 2.785 3.065
2.602 2.726 2.971
2.501 2.667 2.88
2.413 2.62 2.801
2.321 2.565 2.718
2.243 2.522 2.648
2.168 2.482 2.581
2.092 2.437 2.512
2.023 2.397 2.45
1.957 2.361 2.391
1.893 2.323 2.333
1.834 2.289 2.279
1.774 2.254 2.226
1.72 2.224 2.177
1.668 2.194 2.13
1.622 2.171 2.089
1.571 2.138 2.042
1.525 2.112 2.001
1.483 2.09 1.963
1.441 2.066 1.926
1.399 2.041 1.888
1.363 2.024 1.856
1.323 1.998 1.819
1.294 1.989 1.794
1.263 1.976 1.765
1.225 1.95 1.731
1.179 1.911 1.69
1.153 1.902 1.667
1.117 1.874 1.634
1.093 1.867 1.612
1.057 1.837 1.58
1.031 1.825 1.557
1.005 1.812 1.533
0.98 1.798 1.511
0.955 1.785 1.488
0.93 1.77 1.466
0.906 1.756 1.444
0.882 1.743 1.423
0.859 1.728 1.402
0.835 1.713 1.381
0.812 1.697 1.36
0.774 1.647 1.325
0.676 1.465 1.237
0.657 1.451 1.22
0.672 1.516 1.234
0.661 1.521 1.224
0.64 1.501 1.205
0 0 0
0.615 1.501 1.182
0.583 1.453 1.153
0.558 1.42 1.131
0.543 1.411 1.118
0.528 1.4 1.103
0.514 1.392 1.091
0.501 1.389 1.08
0.484 1.372 1.064
0.472 1.368 1.053
0.458 1.356 1.04
0.254 0.757 0.857
0.205 0.621 0.813
0.198 0.614 0.807
0.192 0.608 0.801
0.188 0.611 0.797
0.182 0.608 0.792
0.176 0.601 0.787
0.171 0.6 0.782
0.165 0.594 0.777
0.159 0.587 0.772
0.154 0.581 0.767
0.15 0.585 0.764
0.146 0.585 0.76
0.14 0.576 0.754
0.136 0.578 0.751
0.133 0.582 0.748
0.127 0.572 0.743
0.123 0.572 0.739
0.119 0.574 0.736
0.116 0.578 0.733
0.11 0.569 0.728
0.107 0.57 0.724
0.103 0.571 0.721
0.098 0.564 0.717
0.095 0.566 0.713
0.091 0.565 0.71
0.086 0.558 0.705
0.082 0.56 0.702
0.079 0.559 0.699
0.074 0.552 0.695
0.07 0.553 0.692
0.066 0.547 0.688
0.063 0.549 0.685
0.059 0.55 0.682
0.055 0.541 0.678
0.051 0.543 0.675
0.047 0.533 0.671
0.044 0.542 0.668
0.04 0.527 0.664
0.037 0.537 0.661
0.033 0.534 0.658
0.03 0.54 0.655
0.026 0.539 0.652
0.023 0.527 0.649
0.019 0.509 0.645
0.015 0.5 0.642
0.012 0.468 0.639
0.009 0.435 0.636
0.009 -0.435 0.636
0.012 -0.543 0.64
0.017 -0.63 0.644
0.021 -0.653 0.648
0.026 -0.662 0.652
0.03 -0.668 0.656
0.035 -0.667 0.66
0.039 -0.659 0.663
0.043 -0.658 0.667
0.047 -0.659 0.671
0.051 -0.652 0.675
0.056 -0.662 0.679
0.06 -0.652 0.683
0.064 -0.654 0.687
0.068 -0.653 0.69
0.071 -0.642 0.693
0.075 -0.64 0.697
0.08 -0.645 0.701
0.084 -0.641 0.705
0.088 -0.643 0.709
0.093 -0.642 0.713
0.096 -0.639 0.716
0.101 -0.64 0.72
0.105 -0.64 0.724
0.109 -0.636 0.727
0.111 -0.625 0.73
0.115 -0.625 0.733
0.118 -0.616 0.736
0.124 -0.626 0.741
0.127 -0.617 0.744
0.129 -0.608 0.746
0.134 -0.61 0.75
0.137 -0.606 0.753
0.143 -0.613 0.758
0.148 -0.614 0.763
0.149 -0.603 0.764
0.154 -0.602 0.768
0.157 -0.6 0.772
0.161 -0.598 0.775
0.165 -0.597 0.779
0.169 -0.595 0.782
0.173 -0.593 0.786
0.176 -0.588 0.788
0.183 -0.599 0.795
0.192 -0.614 0.803
0.201 -0.626 0.811
0.205 -0.624 0.815
0.208 -0.619 0.817
0.214 -0.622 0.823
0.217 -0.617 0.826
0.22 -0.613 0.829
0.228 -0.62 0.835
0.241 -0.644 0.848
0.266 -0.697 0.87
0.265 -0.68 0.869
0.269 -0.677 0.873
0.272 -0.669 0.876
0.284 -0.685 0.886
0.285 -0.673 0.887
0.318 -0.74 0.918
0.286 -0.65 0.889
0.628 -1.421 1.199
0.663 -1.471 1.231
0.707 -1.54 1.271
0.707 -1.51 1.271
1.289 -2.717 1.801
1.307 -2.701 1.817
1.329 -2.695 1.836
1.346 -2.679 1.852
1.368 -2.673 1.872
1.385 -2.656 1.887
1.406 -2.648 1.907
1.428 -2.641 1.927
1.445 -2.624 1.943
1.467 -2.615 1.962
1.488 -2.606 1.982
1.505 -2.589 1.997
1.526 -2.579 2.016
1.548 -2.568 2.036
1.569 -2.559 2.055
1.586 -2.54 2.07
1.607 -2.53 2.09
1.63 -2.52 2.11
1.65 -2.507 2.128
1.671 -2.495 2.148
1.694 -2.485 2.169
1.714 -2.471 2.187
1.735 -2.458 2.206
1.762 -2.454 2.23
1.783 -2.44 2.249
1.804 -2.426 2.269
1.82 -2.406 2.283
1.846 -2.397 2.306
1.866 -2.382 2.325
1.892 -2.374 2.349
1.914 -2.359 2.368
1.934 -2.343 2.387
1.96 -2.333 2.41
1.987 -2.324 2.435
2.007 -2.306 2.453
2.027 -2.289 2.472
2.053 -2.278 2.495
2.079 -2.266 2.519
2.105 -2.254 2.542
2.13 -2.24 2.566
2.151 -2.221 2.584
2.177 -2.208 2.608
2.201 -2.193 2.63
2.227 -2.178 2.653
2.259 -2.169 2.682
2.285 -2.154 2.706
2.309 -2.137 2.728
2.336 -2.122 2.752
2.362 -2.105 2.776
2.388 -2.088 2.8
2.421 -2.077 2.829
2.446 -2.059 2.853
2.478 -2.045 2.881
2.504 -2.027 2.906
2.531 -2.008 2.93
2.563 -1.993 2.959
2.588 -1.972 2.981
2.621 -1.957 3.012
2.654 -1.941 3.041
2.686 -1.924 3.071
2.718 -1.906 3.1
2.749 -1.887 3.128
2.782 -1.869 3.158
2.814 -1.849 3.187
2.846 -1.829 3.216
2.879 -1.809 3.246
2.918 -1.792 3.282
2.952 -1.771 3.312
2.99 -1.752 3.347
3.023 -1.729 3.377
3.062 -1.709 3.413
3.099 -1.688 3.446
3.138 -1.666 3.481
3.176 -1.643 3.516
3.22 -1.623 3.556
3.257 -1.598 3.59
3.301 -1.576 3.63
3.339 -1.55 3.665
3.384 -1.526 3.705
3.429 -1.502 3.747
3.476 -1.477 3.789
3.522 -1.452 3.831
3.566 -1.424 3.871
3.601 -1.392 3.903
3.599 -1.346 3.901
3.607 -1.303 3.908
3.598 -1.255 3.9
3.606 -1.212 3.907
3.592 -1.163 3.895
3.6 -1.12 3.901
3.586 -1.072 3.889
3.599 -1.031 3.901
3.585 -0.983 3.888
3.591 -0.941 3.893
3.581 -0.895 3.884
3.594 -0.855 3.897
3.585 -0.809 3.888
3.598 -0.768 3.9
3.586 -0.723 3.889
3.6 -0.682 3.901
3.58 -0.636 3.884
3.592 -0.595 3.895
3.574 -0.549 3.878
3.586 -0.508 3.889
3.573 -0.464 3.877
3.583 -0.423 3.886
3.57 -0.379 3.874
3.586 -0.338 3.889
3.574 -0.295 3.878
3.588 -0.254 3.891
3.574 -0.21 3.878
3.581 -0.169 3.884
3.566 -0.126 3.871
3.574 -0.084 3.879
3.565 -0.042 3.87
3.571 -0 3.875
3.559 0.042 3.864
3.565 0.084 3.87
3.549 0.125 3.856
3.556 0.167 3.862
3.547 0.209 3.854
3.552 0.251 3.858
3.537 0.292 3.844
3.549 0.335 3.855
3.539 0.376 3.846
3.552 0.419 3.858
3.534 0.459 3.841
3.546 0.502 3.853
3.535 0.543 3.843
3.542 0.586 3.849
3.536 0.628 3.844
3.546 0.672 3.853
3.526 0.711 3.835
3.538 0.755 3.845
3.525 0.795 3.834
3.541 0.842 3.848
3.522 0.88 3.831
3.53 0.925 3.838
3.516 0.965 3.826
3.533 1.012 3.84
3.519 1.052 3.828
3.535 1.1 3.842
3.519 1.139 3.828
3.529 1.186 3.838
3.512 1.225 3.822
3.522 1.272 3.831
3.512 1.313 3.822
3.528 1.364 3.836
3.511 1.402 3.821
3.519 1.45 3.828
3.503 1.489 3.814
3.514 1.54 3.824
3.505 1.581 3.815
3.505 1.627 3.816
3.495 1.668 3.806
3.495 1.715 3.806
3.489 1.759 3.801
3.492 1.807 3.804
3.476 1.846 3.789
3.607 1.965 3.908
3.626 2.025 3.925
3.674 2.103 3.969
3.663 2.147 3.959
3.62 2.173 3.92
3.601 2.213 3.903
3.588 2.256 3.891
3.582 2.304 3.886
3.567 2.346 3.872
3.551 2.387 3.857
3.536 2.429 3.844
3.521 2.471 3.829
3.506 2.513 3.816
3.488 2.553 3.8
3.472 2.594 3.785
3.462 2.64 3.776
3.445 2.681 3.76
3.427 2.721 3.744
3.409 2.762 3.728
3.398 2.807 3.718
3.379 2.847 3.701
3.366 2.891 3.689
3.348 2.931 3.673
3.336 2.977 3.662
3.316 3.015 3.643
3.302 3.059 3.631
3.283 3.099 3.614
3.174 3.052 3.514
3.05 2.986 3.401
2.917 2.909 3.281
2.798 2.841 3.173
2.69 2.78 3.074
2.586 2.722 2.98
2.491 2.669 2.893
2.404 2.621 2.814
2.312 2.567 2.731
2.234 2.524 2.66
2.154 2.476 2.587
2.083 2.437 2.523
2.014 2.398 2.46
1.944 2.355 2.396
1.88 2.318 2.338
1.821 2.284 2.284
1.766 2.254 2.235
1.714 2.225 2.186
1.661 2.194 2.138
1.61 2.164 2.093
1.564 2.139 2.051
1.519 2.113 2.009
1.472 2.083 1.966
1.43 2.059 1.928
1.388 2.034 1.89
1.352 2.016 1.858
1.315 1.996 1.824
1.289 1.991 1.801
1.25 1.965 1.765
1.22 1.95 1.737
1.169 1.902 1.691
1.148 1.901 1.672
1.118 1.885 1.645
1.087 1.866 1.617
1.052 1.838 1.585
1.027 1.826 1.562
1.001 1.813 1.539
0.976 1.798 1.515
0.947 1.777 1.489
0.926 1.771 1.471
0.898 1.749 1.445
0.879 1.744 1.428
0.856 1.729 1.406
0.832 1.714 1.385
0.809 1.699 1.364
0.766 1.637 1.324
0.674 1.467 1.241
0.66 1.466 1.229
0.667 1.51 1.235
0 0 0
0 0 0
0.625 1.503 1.197
0.605 1.484 1.179
0.576 1.443 1.152
0.557 1.423 1.135
0.54 1.41 1.12
0.525 1.4 1.106
0.51 1.389 1.092
0.499 1.39 1.082
0.484 1.378 1.069
0.472 1.374 1.058
0.456 1.357 1.043
0.25 0.748 0.855
0.203 0.617 0.813
0.195 0.608 0.806
0.191 0.61 0.802
0.187 0.612 0.799
0.182 0.61 0.794
0.175 0.601 0.788
0.168 0.592 0.781
0.162 0.586 0.776
0.159 0.588 0.773
0.152 0.58 0.767
0.149 0.585 0.764
0.146 0.587 0.761
0.139 0.577 0.755
0.136 0.579 0.752
0.132 0.581 0.748
0.127 0.574 0.744
0.123 0.574 0.74
0.119 0.578 0.737
0.114 0.569 0.732
0.11 0.57 0.728
0.106 0.571 0.725
0.102 0.57 0.721
0.098 0.564 0.717
0.094 0.565 0.714
0.089 0.557 0.709
0.085 0.558 0.706
0.082 0.561 0.703
0.077 0.551 0.698
0.074 0.553 0.695
0.07 0.554 0.692
0.066 0.555 0.689
0.062 0.549 0.685
0.059 0.552 0.682
0.055 0.543 0.678
0.051 0.545 0.675
0.048 0.543 0.672
0.044 0.543 0.668
0.04 0.541 0.665
0.037 0.537 0.662
0.033 0.536 0.658
0.029 0.531 0.655
0.026 0.541 0.652
0.023 0.539 0.649
0.019 0.519 0.646
0.015 0.502 0.642
0.012 0.477 0.639
0.009 0.427 0.636
0.009 -0.425 0.636
0.012 -0.564 0.64
0.017 -0.621 0.644
0.021 -0.652 0.648
0.026 -0.662 0.652
0.03 -0.659 0.656
0.034 -0.658 0.66
0.038 -0.658 0.664
0.043 -0.667 0.668
0.047 -0.66 0.672
0.051 -0.661 0.676
0.055 -0.652 0.679
0.059 -0.652 0.683
0.063 -0.654 0.687
0.067 -0.652 0.691
0.072 -0.652 0.695
0.076 -0.65 0.698
0.079 -0.644 0.702
0.083 -0.642 0.705
0.088 -0.644 0.71
0.091 -0.64 0.713
0.095 -0.637 0.717
0.1 -0.638 0.721
0.104 -0.639 0.725
0.108 -0.638 0.728
0.11 -0.626 0.731
0.115 -0.626 0.734
0.119 -0.624 0.738
0.121 -0.616 0.741
0.126 -0.616 0.744
0.13 -0.615 0.748
0.134 -0.617 0.752
0.137 -0.608 0.755
0.142 -0.613 0.76
0.144 -0.604 0.762
0.148 -0.604 0.766
0.152 -0.602 0.769
0.156 -0.6 0.773
0.16 -0.598 0.776
0.164 -0.597 0.78
0.168 -0.595 0.783
0.171 -0.59 0.786
0.176 -0.595 0.791
0.185 -0.608 0.799
0.192 -0.619 0.806
0.199 -0.625 0.812
0.202 -0.62 0.815
0.209 -0.626 0.821
0.209 -0.613 0.822
0.215 -0.615 0.827
0.217 -0.609 0.829
0.23 -0.633 0.841
0.249 -0.67 0.858
0.275 -0.727 0.882
0.263 -0.681 0.872
0.271 -0.686 0.879
0.279 -0.692 0.886
0.292 -0.709 0.898
0.297 -0.708 0.903
0.373 -0.876 0.973
0.589 -1.368 1.172
0.62 -1.412 1.201
0.65 -1.453 1.229
0.7 -1.536 1.275
0.706 -1.52 1.28
1.281 -2.717 1.811
1.302 -2.711 1.83
1.319 -2.695 1.846
1.337 -2.679 1.862
1.358 -2.673 1.882
1.38 -2.665 1.902
1.397 -2.648 1.918
1.418 -2.641 1.938
1.435 -2.623 1.953
1.457 -2.615 1.973
1.478 -2.606 1.993
1.494 -2.588 2.008
1.515 -2.578 2.027
1.538 -2.571 2.048
1.559 -2.559 2.067
1.574 -2.539 2.082
1.596 -2.53 2.102
1.622 -2.526 2.126
1.638 -2.507 2.141
1.66 -2.495 2.16
1.681 -2.484 2.18
1.702 -2.471 2.199
1.722 -2.458 2.218
1.743 -2.444 2.237
1.771 -2.44 2.263
1.792 -2.427 2.282
1.812 -2.412 2.301
1.833 -2.398 2.32
1.853 -2.382 2.339
1.879 -2.374 2.363
1.9 -2.358 2.382
1.927 -2.35 2.406
1.947 -2.333 2.425
1.974 -2.325 2.45
1.994 -2.307 2.469
2.02 -2.297 2.493
2.04 -2.279 2.511
2.065 -2.266 2.534
2.091 -2.254 2.558
2.116 -2.24 2.581
2.135 -2.22 2.599
2.161 -2.207 2.623
2.193 -2.2 2.652
2.218 -2.184 2.675
2.244 -2.17 2.7
2.268 -2.153 2.722
2.294 -2.137 2.745
2.321 -2.122 2.77
2.346 -2.105 2.793
2.378 -2.094 2.823
2.404 -2.077 2.847
2.43 -2.059 2.871
2.462 -2.046 2.901
2.487 -2.027 2.924
2.513 -2.008 2.948
2.545 -1.993 2.978
2.578 -1.978 3.008
2.61 -1.963 3.038
2.636 -1.941 3.061
2.668 -1.924 3.09
2.705 -1.91 3.124
2.732 -1.888 3.15
2.762 -1.868 3.177
2.796 -1.85 3.209
2.834 -1.834 3.243
2.866 -1.813 3.273
2.899 -1.793 3.304
2.939 -1.775 3.341
2.97 -1.752 3.369
3.009 -1.733 3.405
3.047 -1.713 3.44
3.085 -1.691 3.475
3.123 -1.669 3.511
3.16 -1.646 3.545
3.198 -1.623 3.58
3.234 -1.598 3.613
3.279 -1.576 3.655
3.323 -1.553 3.695
3.369 -1.53 3.738
3.406 -1.502 3.772
3.459 -1.48 3.821
3.499 -1.452 3.857
3.533 -1.421 3.889
3.563 -1.387 3.916
3.539 -1.332 3.895
3.551 -1.292 3.906
3.539 -1.242 3.894
3.547 -1.2 3.902
3.533 -1.151 3.889
3.547 -1.111 3.901
3.531 -1.063 3.887
3.539 -1.021 3.894
3.531 -0.975 3.887
3.537 -0.933 3.893
3.528 -0.887 3.884
3.54 -0.847 3.896
3.532 -0.802 3.888
3.538 -0.761 3.893
3.526 -0.715 3.883
3.534 -0.674 3.89
3.528 -0.63 3.884
3.532 -0.589 3.888
3.521 -0.545 3.878
3.532 -0.504 3.888
3.52 -0.46 3.877
3.53 -0.419 3.886
3.517 -0.376 3.874
3.527 -0.335 3.883
3.507 -0.291 3.865
3.522 -0.251 3.879
3.511 -0.208 3.868
3.522 -0.167 3.879
3.516 -0.125 3.873
3.517 -0.083 3.874
3.506 -0.042 3.864
3.513 -0 3.871
3.498 0.041 3.857
3.505 0.083 3.863
3.497 0.124 3.855
3.503 0.166 3.861
3.494 0.207 3.853
3.5 0.249 3.858
3.484 0.289 3.844
3.496 0.332 3.855
3.48 0.372 3.84
3.491 0.415 3.85
3.482 0.455 3.842
3.493 0.498 3.852
3.482 0.539 3.842
3.491 0.582 3.85
3.473 0.621 3.834
3.485 0.665 3.845
3.473 0.705 3.834
3.483 0.749 3.843
3.464 0.787 3.826
3.481 0.833 3.841
3.468 0.872 3.829
3.477 0.917 3.837
3.463 0.956 3.824
3.48 1.004 3.84
3.466 1.043 3.827
3.474 1.089 3.834
3.459 1.127 3.821
3.474 1.176 3.835
3.461 1.215 3.822
3.474 1.264 3.835
3.454 1.3 3.816
3.465 1.349 3.826
3.456 1.39 3.818
3.463 1.437 3.825
3.447 1.475 3.81
3.461 1.526 3.822
3.451 1.567 3.814
3.456 1.615 3.818
3.446 1.656 3.809
3.453 1.706 3.815
3.442 1.747 3.805
3.441 1.793 3.804
3.436 1.837 3.799
3.44 1.887 3.803
3.425 1.926 3.789
3.477 2.004 3.838
3.517 2.076 3.874
3.596 2.174 3.947
3.583 2.217 3.935
3.569 2.259 3.922
3.564 2.308 3.917
3.549 2.35 3.904
3.535 2.393 3.891
3.52 2.434 3.877
3.504 2.476 3.862
3.488 2.517 3.847
3.47 2.558 3.831
3.456 2.601 3.818
3.445 2.645 3.807
3.427 2.686 3.792
3.41 2.726 3.776
3.392 2.767 3.759
3.381 2.812 3.749
3.363 2.852 3.732
3.344 2.892 3.715
3.326 2.931 3.698
3.313 2.977 3.686
3.293 3.015 3.667
3.281 3.06 3.656
3.259 3.097 3.636
3.146 3.045 3.532
3.016 2.973 3.412
2.892 2.903 3.297
2.774 2.836 3.189
2.666 2.775 3.089
2.563 2.716 2.994
2.468 2.662 2.906
2.382 2.615 2.826
2.296 2.566 2.747
2.212 2.516 2.67
2.134 2.471 2.598
2.064 2.431 2.533
1.994 2.391 2.469
1.931 2.355 2.411
1.867 2.317 2.351
1.809 2.284 2.298
1.75 2.248 2.243
1.696 2.218 2.194
1.644 2.187 2.146
1.599 2.164 2.104
1.548 2.132 2.057
1.508 2.113 2.021
1.461 2.083 1.977
1.42 2.059 1.939
1.378 2.034 1.901
1.343 2.017 1.868
1.305 1.994 1.833
1.282 1.993 1.812
1.243 1.967 1.776
1.21 1.949 1.745
1.17 1.917 1.708
1.143 1.906 1.683
1.112 1.888 1.655
1.077 1.86 1.622
1.045 1.838 1.593
1.02 1.826 1.57
0.994 1.813 1.546
0.964 1.79 1.519
0.94 1.777 1.496
0.916 1.763 1.474
0.892 1.749 1.452
0.869 1.736 1.431
0.85 1.729 1.413
0.827 1.714 1.391
0.804 1.699 1.37
0.754 1.624 1.325
0.671 1.471 1.248
0.657 1.469 1.235
0.672 1.532 1.248
0 0 0
0 0 0
0.625 1.512 1.205
0.606 1.498 1.188
0.573 1.445 1.157
0.552 1.421 1.138
0.532 1.399 1.12
0.524 1.406 1.112
0.505 1.384 1.094
0.493 1.381 1.083
0.48 1.376 1.072
0.467 1.368 1.059
0.454 1.361 1.047
0.242 0.73 0.852
0.2 0.614 0.813
0.194 0.609 0.807
0.191 0.614 0.805
0.186 0.613 0.8
0.181 0.61 0.795
0.173 0.599 0.788
0.169 0.601 0.785
0.163 0.595 0.779
0.158 0.59 0.774
0.154 0.59 0.77
0.148 0.585 0.765
0.142 0.577 0.76
0.138 0.578 0.756
0.135 0.581 0.753
0.131 0.58 0.749
0.127 0.582 0.746
0.123 0.581 0.742
0.118 0.578 0.738
0.113 0.569 0.733
0.109 0.57 0.729
0.105 0.571 0.726
0.1 0.562 0.721
0.097 0.566 0.718
0.093 0.565 0.714
0.088 0.558 0.71
0.085 0.559 0.707
0.081 0.561 0.704
0.077 0.56 0.7
0.073 0.553 0.696
0.069 0.554 0.693
0.066 0.555 0.689
0.062 0.55 0.686
0.058 0.551 0.682
0.054 0.541 0.678
0.051 0.544 0.675
0.047 0.543 0.672
0.043 0.542 0.669
0.039 0.532 0.665
0.036 0.539 0.662
0.033 0.535 0.659
0.029 0.53 0.655
0.026 0.541 0.652
0.022 0.528 0.649
0.019 0.522 0.646
0.015 0.501 0.642
0.012 0.477 0.639
0.009 0.434 0.636
0.008 -0.434 0.637
0.012 -0.545 0.64
0.016 -0.629 0.644
0.021 -0.663 0.648
0.025 -0.662 0.652
0.03 -0.668 0.656
0.034 -0.668 0.66
0.038 -0.658 0.664
0.042 -0.659 0.668
0.046 -0.66 0.672
0.05 -0.652 0.675
0.054 -0.652 0.679
0.058 -0.651 0.683
0.063 -0.654 0.687
0.066 -0.643 0.691
0.07 -0.642 0.694
0.075 -0.649 0.699
0.079 -0.645 0.702
0.082 -0.641 0.706
0.087 -0.644 0.71
0.091 -0.639 0.714
0.095 -0.638 0.717
0.1 -0.646 0.722
0.103 -0.64 0.726
0.105 -0.625 0.727
0.109 -0.625 0.731
0.114 -0.625 0.735
0.116 -0.616 0.738
0.12 -0.616 0.742
0.124 -0.616 0.745
0.128 -0.61 0.748
0.132 -0.609 0.752
0.137 -0.615 0.757
0.141 -0.612 0.76
0.143 -0.604 0.763
0.147 -0.603 0.766
0.151 -0.601 0.77
0.155 -0.599 0.774
0.158 -0.598 0.777
0.162 -0.597 0.781
0.166 -0.595 0.785
0.171 -0.598 0.789
0.177 -0.601 0.794
0.188 -0.624 0.805
0.191 -0.618 0.807
0.197 -0.623 0.813
0.2 -0.62 0.817
0.204 -0.617 0.82
0.207 -0.612 0.823
0.213 -0.615 0.828
0.219 -0.619 0.834
0.232 -0.643 0.846
0.265 -0.721 0.877
0.28 -0.747 0.891
0.267 -0.697 0.879
0.289 -0.738 0.899
0.291 -0.729 0.902
0.311 -0.763 0.92
0.319 -0.769 0.928
0.563 -1.344 1.156
0.587 -1.374 1.179
0.611 -1.401 1.201
0.641 -1.442 1.229
0.695 -1.535 1.279
0.787 -1.708 1.366
1.271 -2.717 1.82
1.293 -2.71 1.839
1.31 -2.695 1.856
1.332 -2.689 1.876
1.349 -2.673 1.892
1.371 -2.666 1.913
1.387 -2.648 1.928
1.409 -2.641 1.948
1.425 -2.624 1.964
1.446 -2.615 1.983
1.468 -2.606 2.004
1.484 -2.589 2.019
1.505 -2.578 2.038
1.527 -2.569 2.059
1.548 -2.559 2.078
1.569 -2.548 2.098
1.59 -2.537 2.118
1.606 -2.518 2.133
1.627 -2.507 2.153
1.649 -2.497 2.173
1.674 -2.491 2.197
1.691 -2.473 2.213
1.717 -2.467 2.237
1.738 -2.454 2.256
1.758 -2.44 2.276
1.779 -2.427 2.295
1.8 -2.413 2.315
1.821 -2.398 2.334
1.841 -2.383 2.353
1.867 -2.375 2.377
1.887 -2.358 2.396
1.912 -2.349 2.42
1.94 -2.342 2.446
1.959 -2.324 2.464
1.98 -2.307 2.483
2.005 -2.295 2.507
2.03 -2.284 2.53
2.05 -2.266 2.549
2.076 -2.254 2.573
2.101 -2.24 2.597
2.125 -2.226 2.619
2.152 -2.213 2.644
2.177 -2.198 2.668
2.204 -2.185 2.693
2.229 -2.17 2.716
2.253 -2.154 2.739
2.278 -2.137 2.762
2.304 -2.122 2.787
2.328 -2.104 2.81
2.361 -2.094 2.84
2.386 -2.076 2.864
2.412 -2.058 2.888
2.445 -2.046 2.919
2.47 -2.027 2.942
2.502 -2.013 2.973
2.526 -1.992 2.995
2.56 -1.978 3.027
2.592 -1.963 3.057
2.624 -1.946 3.086
2.656 -1.929 3.116
2.687 -1.911 3.146
2.719 -1.893 3.176
2.749 -1.872 3.204
2.782 -1.853 3.234
2.813 -1.833 3.264
2.847 -1.813 3.295
2.885 -1.796 3.331
2.919 -1.775 3.362
2.957 -1.757 3.399
2.988 -1.733 3.427
3.026 -1.713 3.463
3.064 -1.691 3.498
3.101 -1.669 3.534
3.139 -1.646 3.568
3.182 -1.626 3.609
3.219 -1.601 3.643
3.263 -1.579 3.685
3.3 -1.553 3.72
3.353 -1.533 3.769
3.391 -1.506 3.805
3.435 -1.48 3.846
3.474 -1.452 3.882
3.495 -1.415 3.902
3.5 -1.372 3.907
3.483 -1.32 3.891
3.492 -1.279 3.899
3.486 -1.232 3.893
3.493 -1.19 3.901
3.48 -1.142 3.888
3.487 -1.1 3.894
3.479 -1.054 3.887
3.486 -1.013 3.894
3.477 -0.967 3.885
3.482 -0.925 3.89
3.474 -0.88 3.883
3.48 -0.839 3.888
3.479 -0.796 3.887
3.489 -0.755 3.896
3.473 -0.709 3.882
3.484 -0.669 3.892
3.466 -0.624 3.875
3.478 -0.584 3.886
3.467 -0.54 3.876
3.47 -0.498 3.879
3.46 -0.455 3.869
3.469 -0.415 3.878
3.457 -0.372 3.867
3.467 -0.331 3.876
3.455 -0.289 3.865
3.471 -0.249 3.88
3.451 -0.206 3.861
3.462 -0.165 3.871
3.453 -0.124 3.863
3.464 -0.083 3.874
3.449 -0.041 3.86
3.458 -0 3.868
3.45 0.041 3.86
3.452 0.082 3.862
3.444 0.123 3.854
3.45 0.165 3.86
3.435 0.205 3.846
3.448 0.247 3.858
3.433 0.287 3.844
3.444 0.329 3.855
3.435 0.369 3.846
3.439 0.411 3.85
3.429 0.451 3.841
3.434 0.493 3.845
3.429 0.534 3.84
3.437 0.577 3.848
3.424 0.616 3.835
3.426 0.658 3.838
3.415 0.698 3.828
3.424 0.741 3.836
3.413 0.781 3.826
3.422 0.825 3.834
3.409 0.864 3.822
3.424 0.91 3.836
3.406 0.947 3.818
3.419 0.993 3.831
3.406 1.032 3.819
3.42 1.079 3.832
3.407 1.118 3.82
3.422 1.166 3.834
3.411 1.206 3.823
3.416 1.251 3.828
3.405 1.29 3.818
3.41 1.336 3.822
3.393 1.374 3.807
3.409 1.425 3.822
3.393 1.462 3.807
3.406 1.513 3.819
3.397 1.554 3.81
3.402 1.601 3.815
3.393 1.642 3.807
3.397 1.69 3.81
3.386 1.73 3.8
3.398 1.783 3.812
3.386 1.823 3.8
3.394 1.874 3.807
3.378 1.912 3.792
3.394 1.969 3.808
3.4 2.021 3.814
3.454 2.102 3.864
3.443 2.144 3.853
3.553 2.265 3.957
3.547 2.313 3.951
3.532 2.355 3.937
3.517 2.397 3.923
3.502 2.439 3.909
3.486 2.481 3.894
3.47 2.522 3.879
3.454 2.563 3.864
3.439 2.605 3.85
3.427 2.65 3.839
3.404 2.686 3.817
3.392 2.731 3.805
3.374 2.771 3.789
3.358 2.812 3.773
3.346 2.858 3.763
3.328 2.898 3.746
3.308 2.936 3.727
3.297 2.982 3.716
3.284 3.027 3.704
3.263 3.065 3.685
3.242 3.102 3.665
3.117 3.038 3.548
2.995 2.974 3.434
2.866 2.897 3.313
2.75 2.83 3.204
2.641 2.768 3.102
2.539 2.709 3.007
2.445 2.656 2.919
2.359 2.608 2.838
2.269 2.554 2.754
2.191 2.509 2.681
2.113 2.463 2.608
2.05 2.431 2.548
1.976 2.385 2.48
1.912 2.349 2.42
1.849 2.311 2.361
1.79 2.277 2.305
1.737 2.248 2.256
1.685 2.218 2.207
1.633 2.188 2.158
1.583 2.157 2.111
1.537 2.132 2.069
1.493 2.106 2.027
1.451 2.083 1.987
1.409 2.059 1.949
1.369 2.034 1.911
1.336 2.021 1.88
1.294 1.991 1.841
1.27 1.988 1.818
1.231 1.961 1.781
1.199 1.944 1.752
1.16 1.914 1.715
1.133 1.902 1.69
1.108 1.895 1.667
1.068 1.858 1.629
1.038 1.839 1.601
1.013 1.826 1.577
0.983 1.805 1.549
0.958 1.79 1.526
0.934 1.777 1.503
0.909 1.763 1.48
0.886 1.749 1.458
0.863 1.736 1.437
0.84 1.721 1.415
0.821 1.714 1.398
0.798 1.698 1.376
0.745 1.616 1.327
0.664 1.467 1.251
0.655 1.474 1.242
0.654 1.502 1.241
0 0 0
0 0 0
0 0 0
0.595 1.48 1.186
0.566 1.437 1.159
0.547 1.418 1.141
0.534 1.413 1.129
0.516 1.396 1.112
0.501 1.384 1.098
0.489 1.382 1.087
0.474 1.369 1.073
0.463 1.368 1.063
0.45 1.358 1.05
0.236 0.716 0.849
0.198 0.612 0.814
0.193 0.61 0.809
0.188 0.611 0.805
0.182 0.605 0.799
0.179 0.609 0.796
0.172 0.599 0.79
0.165 0.591 0.784
0.162 0.595 0.781
0.157 0.591 0.776
0.15 0.581 0.769
0.147 0.585 0.766
0.143 0.587 0.763
0.137 0.579 0.757
0.134 0.58 0.754
0.13 0.581 0.75
0.126 0.583 0.747
0.12 0.573 0.741
0.117 0.576 0.738
0.114 0.579 0.735
0.108 0.571 0.73
0.104 0.57 0.726
0.101 0.571 0.723
0.097 0.573 0.72
0.092 0.566 0.715
0.088 0.559 0.711
0.084 0.559 0.707
0.08 0.56 0.704
0.077 0.561 0.701
0.072 0.553 0.696
0.069 0.554 0.693
0.065 0.556 0.69
0.061 0.551 0.686
0.058 0.552 0.683
0.053 0.542 0.679
0.05 0.544 0.676
0.046 0.542 0.672
0.043 0.542 0.669
0.039 0.539 0.666
0.035 0.53 0.662
0.032 0.533 0.659
0.029 0.53 0.656
0.026 0.541 0.653
0.022 0.528 0.649
0.018 0.52 0.646
0.015 0.502 0.643
0.011 0.477 0.639
0.008 0.423 0.637
0.008 -0.435 0.637
0.011 -0.564 0.64
0.016 -0.63 0.644
0.02 -0.663 0.649
0.025 -0.671 0.653
0.029 -0.67 0.657
0.033 -0.658 0.66
0.037 -0.659 0.664
0.041 -0.659 0.668
0.045 -0.659 0.672
0.05 -0.661 0.677
0.054 -0.661 0.681
0.058 -0.653 0.684
0.062 -0.654 0.688
0.065 -0.643 0.691
0.069 -0.641 0.695
0.074 -0.65 0.7
0.078 -0.645 0.703
0.081 -0.641 0.707
0.086 -0.643 0.711
0.091 -0.65 0.716
0.095 -0.647 0.719
0.098 -0.64 0.723
0.102 -0.639 0.726
0.106 -0.638 0.73
0.108 -0.625 0.732
0.112 -0.625 0.736
0.116 -0.624 0.74
0.119 -0.618 0.743
0.122 -0.612 0.746
0.128 -0.62 0.751
0.131 -0.615 0.754
0.136 -0.617 0.759
0.139 -0.614 0.762
0.144 -0.615 0.766
0.145 -0.603 0.768
0.149 -0.602 0.772
0.153 -0.6 0.775
0.157 -0.599 0.779
0.161 -0.597 0.783
0.166 -0.6 0.787
0.172 -0.606 0.793
0.177 -0.61 0.798
0.188 -0.633 0.809
0.193 -0.633 0.813
0.194 -0.622 0.815
0.199 -0.621 0.819
0.202 -0.616 0.822
0.205 -0.612 0.825
0.213 -0.623 0.833
0.225 -0.645 0.844
0.288 -0.812 0.904
0.301 -0.831 0.917
0.322 -0.871 0.937
0.313 -0.828 0.928
0.333 -0.863 0.947
0.366 -0.932 0.979
0.496 -1.244 1.103
0.53 -1.301 1.135
0.556 -1.34 1.16
0.578 -1.367 1.182
0.602 -1.394 1.204
0.633 -1.438 1.234
0.687 -1.533 1.286
0.776 -1.699 1.37
1.26 -2.717 1.832
1.281 -2.711 1.853
1.298 -2.695 1.869
1.319 -2.689 1.889
1.336 -2.673 1.905
1.357 -2.665 1.925
1.374 -2.648 1.942
1.396 -2.642 1.963
1.416 -2.632 1.982
1.438 -2.625 2.003
1.454 -2.606 2.018
1.476 -2.598 2.039
1.497 -2.589 2.059
1.518 -2.579 2.079
1.534 -2.56 2.094
1.554 -2.549 2.114
1.576 -2.539 2.135
1.597 -2.528 2.155
1.618 -2.516 2.175
1.638 -2.504 2.194
1.659 -2.491 2.214
1.679 -2.479 2.233
1.701 -2.467 2.254
1.721 -2.454 2.273
1.742 -2.44 2.293
1.764 -2.429 2.314
1.784 -2.414 2.333
1.81 -2.406 2.358
1.828 -2.389 2.376
1.849 -2.374 2.395
1.875 -2.366 2.42
1.896 -2.351 2.44
1.922 -2.342 2.465
1.942 -2.325 2.484
1.967 -2.314 2.508
1.987 -2.297 2.527
2.011 -2.284 2.55
2.037 -2.272 2.575
2.062 -2.26 2.599
2.082 -2.241 2.618
2.106 -2.227 2.641
2.132 -2.214 2.666
2.157 -2.2 2.69
2.189 -2.191 2.72
2.212 -2.175 2.743
2.237 -2.159 2.766
2.263 -2.143 2.791
2.289 -2.128 2.816
2.314 -2.111 2.84
2.34 -2.094 2.864
2.371 -2.082 2.894
2.397 -2.065 2.919
2.429 -2.052 2.95
2.454 -2.032 2.973
2.486 -2.019 3.004
2.512 -1.999 3.029
2.536 -1.978 3.052
2.568 -1.963 3.082
2.599 -1.946 3.112
2.631 -1.929 3.142
2.668 -1.915 3.178
2.694 -1.893 3.203
2.724 -1.873 3.232
2.756 -1.853 3.262
2.795 -1.838 3.299
2.821 -1.814 3.324
2.86 -1.798 3.362
2.898 -1.779 3.397
2.928 -1.756 3.426
2.966 -1.737 3.463
3.004 -1.716 3.499
3.042 -1.695 3.535
3.079 -1.673 3.571
3.116 -1.65 3.606
3.158 -1.629 3.646
3.197 -1.605 3.683
3.239 -1.583 3.724
3.276 -1.556 3.759
3.321 -1.533 3.802
3.366 -1.509 3.845
3.399 -1.479 3.877
3.413 -1.44 3.89
3.399 -1.389 3.876
3.414 -1.351 3.89
3.395 -1.299 3.872
3.403 -1.258 3.88
3.39 -1.21 3.867
3.397 -1.169 3.875
3.39 -1.123 3.867
3.397 -1.082 3.874
3.382 -1.034 3.86
3.388 -0.994 3.866
3.38 -0.949 3.858
3.394 -0.91 3.871
3.378 -0.864 3.856
3.391 -0.825 3.869
3.382 -0.781 3.86
3.387 -0.74 3.865
3.384 -0.698 3.862
3.388 -0.657 3.866
3.379 -0.614 3.858
3.39 -0.574 3.867
3.379 -0.531 3.858
3.383 -0.491 3.861
3.373 -0.448 3.851
3.379 -0.408 3.857
3.369 -0.366 3.848
3.379 -0.326 3.857
3.365 -0.284 3.844
3.374 -0.244 3.853
3.361 -0.202 3.84
3.376 -0.163 3.854
3.361 -0.121 3.84
3.37 -0.081 3.848
3.348 -0.04 3.828
3.362 -0 3.841
3.354 0.04 3.833
3.36 0.081 3.839
3.347 0.121 3.826
3.358 0.162 3.837
3.351 0.202 3.83
3.352 0.242 3.831
3.343 0.282 3.823
3.348 0.323 3.828
3.34 0.363 3.82
3.344 0.404 3.823
3.334 0.443 3.814
3.345 0.485 3.825
3.338 0.525 3.818
3.338 0.565 3.818
3.328 0.605 3.809
3.338 0.647 3.818
3.328 0.686 3.808
3.329 0.728 3.81
3.318 0.766 3.799
3.328 0.81 3.808
3.315 0.848 3.796
3.323 0.891 3.804
3.31 0.929 3.791
3.326 0.975 3.806
3.312 1.013 3.793
3.327 1.06 3.807
3.314 1.098 3.795
3.326 1.144 3.806
3.315 1.183 3.796
3.317 1.226 3.798
3.309 1.266 3.79
3.316 1.312 3.797
3.3 1.349 3.782
3.311 1.397 3.792
3.303 1.437 3.784
3.307 1.483 3.789
3.298 1.522 3.78
3.308 1.572 3.789
3.298 1.611 3.78
3.306 1.66 3.787
3.295 1.7 3.777
3.306 1.751 3.788
3.301 1.794 3.783
3.304 1.842 3.785
3.293 1.882 3.775
3.305 1.935 3.786
3.292 1.975 3.774
3.297 2.026 3.779
3.292 2.07 3.774
3.315 2.133 3.796
3.311 2.179 3.792
3.344 2.251 3.824
3.337 2.295 3.817
3.381 2.377 3.859
3.394 2.438 3.871
3.444 2.527 3.919
3.436 2.574 3.912
3.418 2.615 3.895
3.402 2.656 3.879
3.386 2.698 3.864
3.369 2.738 3.848
3.35 2.778 3.83
3.34 2.824 3.82
3.322 2.864 3.803
3.309 2.908 3.79
3.29 2.948 3.773
3.278 2.993 3.76
3.259 3.033 3.742
3.245 3.077 3.73
3.214 3.105 3.7
3.07 3.021 3.562
2.95 2.956 3.447
2.822 2.88 3.325
2.712 2.818 3.22
2.606 2.757 3.119
2.51 2.703 3.027
2.411 2.643 2.932
2.331 2.602 2.856
2.242 2.547 2.771
2.165 2.503 2.697
2.088 2.457 2.624
2.02 2.419 2.559
1.952 2.379 2.494
1.889 2.342 2.433
1.827 2.305 2.374
1.773 2.277 2.323
1.715 2.24 2.267
1.663 2.211 2.218
1.612 2.181 2.169
1.563 2.15 2.122
1.518 2.125 2.079
1.473 2.098 2.036
1.432 2.075 1.997
1.397 2.059 1.963
1.348 2.023 1.917
1.319 2.014 1.889
1.284 1.995 1.856
1.243 1.965 1.816
1.22 1.963 1.795
1.188 1.944 1.764
1.148 1.913 1.726
1.119 1.898 1.698
1.096 1.892 1.676
1.053 1.85 1.635
1.023 1.83 1.607
0.998 1.818 1.583
0.973 1.805 1.559
0.948 1.79 1.535
0.925 1.777 1.512
0.9 1.763 1.489
0.877 1.749 1.467
0.855 1.736 1.445
0.832 1.722 1.424
0.809 1.706 1.402
0.782 1.68 1.376
0.699 1.529 1.297
0.658 1.467 1.258
0.659 1.499 1.259
0 0 0
0 0 0
0.625 1.509 1.226
0 0 0
0.587 1.476 1.19
0.562 1.44 1.166
0.549 1.438 1.154
0.526 1.407 1.132
0.518 1.415 1.124
0.496 1.384 1.103
0.484 1.381 1.092
0.468 1.365 1.076
0.459 1.369 1.067
0.446 1.362 1.056
0.224 0.686 0.843
0.195 0.608 0.815
0.19 0.607 0.81
0.187 0.612 0.807
0.183 0.613 0.803
0.177 0.61 0.798
0.17 0.601 0.792
0.166 0.6 0.788
0.16 0.596 0.782
0.155 0.59 0.777
0.149 0.583 0.771
0.145 0.585 0.768
0.139 0.577 0.762
0.138 0.588 0.761
0.132 0.578 0.755
0.128 0.581 0.752
0.125 0.582 0.748
0.119 0.574 0.743
0.116 0.576 0.74
0.11 0.569 0.735
0.107 0.57 0.731
0.103 0.57 0.728
0.098 0.563 0.723
0.095 0.564 0.719
0.091 0.564 0.716
0.086 0.559 0.712
0.083 0.559 0.708
0.079 0.559 0.705
0.076 0.56 0.701
0.071 0.553 0.697
0.068 0.554 0.694
0.064 0.556 0.691
0.06 0.55 0.687
0.057 0.552 0.683
0.053 0.542 0.679
0.049 0.545 0.676
0.045 0.535 0.672
0.042 0.535 0.669
0.039 0.539 0.666
0.035 0.538 0.663
0.031 0.527 0.659
0.028 0.531 0.656
0.025 0.542 0.653
0.021 0.528 0.649
0.018 0.52 0.646
0.014 0.502 0.643
0.011 0.477 0.639
0.008 0.427 0.637
0.008 -0.427 0.637
0.011 -0.574 0.64
0.016 -0.629 0.644
0.02 -0.662 0.649
0.024 -0.662 0.653
0.029 -0.668 0.657
0.033 -0.668 0.661
0.037 -0.667 0.665
0.041 -0.666 0.669
0.045 -0.66 0.673
0.048 -0.651 0.676
0.053 -0.662 0.681
0.057 -0.653 0.684
0.061 -0.654 0.689
0.065 -0.653 0.692
0.069 -0.65 0.696
0.073 -0.648 0.7
0.077 -0.645 0.704
0.081 -0.641 0.707
0.085 -0.643 0.712
0.09 -0.65 0.716
0.093 -0.638 0.719
0.097 -0.637 0.723
0.101 -0.64 0.727
0.103 -0.626 0.729
0.108 -0.634 0.734
0.111 -0.625 0.737
0.115 -0.623 0.741
0.118 -0.616 0.744
0.121 -0.61 0.746
0.125 -0.609 0.75
0.13 -0.616 0.756
0.134 -0.614 0.759
0.138 -0.614 0.763
0.14 -0.604 0.765
0.146 -0.612 0.771
0.148 -0.601 0.773
0.152 -0.599 0.776
0.156 -0.599 0.78
0.159 -0.597 0.784
0.166 -0.604 0.79
0.173 -0.615 0.797
0.181 -0.629 0.805
0.188 -0.638 0.812
0.191 -0.63 0.814
0.193 -0.623 0.816
0.199 -0.628 0.822
0.2 -0.616 0.823
0.203 -0.612 0.826
0.219 -0.647 0.842
0.229 -0.663 0.852
0.327 -0.933 0.947
0.321 -0.894 0.94
0.379 -1.038 0.997
0.34 -0.908 0.959
0.344 -0.899 0.963
0.379 -0.974 0.997
0.495 -1.251 1.11
0.53 -1.314 1.144
0.551 -1.337 1.163
0.572 -1.361 1.184
0.591 -1.379 1.202
0.624 -1.43 1.235
0.681 -1.53 1.29
0.766 -1.69 1.372
1.254 -2.726 1.845
1.271 -2.711 1.862
1.294 -2.706 1.883
1.31 -2.69 1.9
1.33 -2.68 1.919
1.347 -2.665 1.935
1.369 -2.659 1.957
1.385 -2.641 1.972
1.406 -2.632 1.992
1.427 -2.624 2.013
1.443 -2.606 2.029
1.464 -2.596 2.049
1.485 -2.587 2.069
1.506 -2.577 2.089
1.522 -2.559 2.105
1.543 -2.549 2.125
1.564 -2.537 2.145
1.584 -2.526 2.165
1.606 -2.516 2.186
1.627 -2.505 2.207
1.647 -2.491 2.226
1.668 -2.48 2.246
1.688 -2.467 2.266
1.709 -2.454 2.286
1.729 -2.44 2.306
1.749 -2.426 2.325
1.776 -2.421 2.352
1.797 -2.406 2.371
1.815 -2.389 2.389
1.841 -2.382 2.414
1.861 -2.366 2.434
1.886 -2.356 2.458
1.908 -2.342 2.479
1.928 -2.325 2.499
1.953 -2.314 2.523
1.978 -2.303 2.547
1.998 -2.285 2.567
2.022 -2.272 2.59
2.047 -2.26 2.614
2.072 -2.247 2.638
2.097 -2.234 2.663
2.122 -2.219 2.687
2.146 -2.204 2.71
2.172 -2.19 2.735
2.197 -2.175 2.759
2.221 -2.159 2.783
2.246 -2.143 2.807
2.272 -2.128 2.832
2.303 -2.116 2.862
2.328 -2.099 2.887
2.354 -2.082 2.912
2.379 -2.064 2.936
2.41 -2.051 2.966
2.436 -2.032 2.991
2.468 -2.019 3.023
2.494 -1.999 3.047
2.524 -1.983 3.076
2.556 -1.967 3.107
2.586 -1.95 3.136
2.618 -1.933 3.168
2.647 -1.914 3.196
2.679 -1.896 3.227
2.711 -1.877 3.257
2.742 -1.858 3.288
2.775 -1.838 3.319
2.806 -1.818 3.35
2.846 -1.801 3.388
2.877 -1.779 3.419
2.914 -1.76 3.454
2.952 -1.741 3.491
2.989 -1.72 3.527
3.02 -1.695 3.557
3.057 -1.673 3.593
3.1 -1.654 3.635
3.136 -1.629 3.67
3.18 -1.608 3.712
3.216 -1.583 3.748
3.259 -1.559 3.789
3.304 -1.536 3.833
3.34 -1.508 3.868
3.355 -1.47 3.882
3.357 -1.426 3.884
3.346 -1.377 3.874
3.36 -1.339 3.887
3.346 -1.29 3.874
3.356 -1.25 3.884
3.336 -1.199 3.864
3.344 -1.159 3.871
3.338 -1.114 3.865
3.344 -1.073 3.872
3.331 -1.026 3.859
3.344 -0.988 3.872
3.329 -0.941 3.857
3.342 -0.903 3.869
3.334 -0.859 3.862
3.343 -0.819 3.871
3.331 -0.775 3.859
3.341 -0.735 3.869
3.325 -0.691 3.853
3.336 -0.652 3.864
3.326 -0.609 3.854
3.33 -0.568 3.858
3.32 -0.526 3.848
3.329 -0.486 3.857
3.314 -0.443 3.843
3.328 -0.405 3.856
3.31 -0.362 3.839
3.319 -0.323 3.848
3.313 -0.282 3.842
3.322 -0.242 3.85
3.31 -0.201 3.838
3.321 -0.161 3.849
3.312 -0.121 3.84
3.318 -0.08 3.846
3.294 -0.04 3.823
3.299 -0 3.828
3.285 0.04 3.814
3.301 0.08 3.83
3.294 0.12 3.823
3.303 0.16 3.832
3.295 0.2 3.824
3.306 0.241 3.834
3.29 0.28 3.819
3.301 0.321 3.83
3.292 0.36 3.821
3.3 0.401 3.829
3.284 0.439 3.813
3.299 0.482 3.828
3.284 0.52 3.813
3.288 0.561 3.818
3.278 0.6 3.808
3.287 0.642 3.817
3.27 0.679 3.799
3.279 0.722 3.809
3.268 0.76 3.798
3.276 0.803 3.806
3.264 0.841 3.794
3.273 0.884 3.802
3.26 0.922 3.79
3.267 0.965 3.797
3.261 1.005 3.791
3.269 1.049 3.799
3.262 1.088 3.792
3.273 1.134 3.802
3.26 1.172 3.79
3.268 1.217 3.798
3.253 1.254 3.783
3.265 1.301 3.795
3.25 1.338 3.78
3.261 1.386 3.791
3.246 1.422 3.777
3.256 1.47 3.787
3.247 1.51 3.778
3.257 1.558 3.787
3.241 1.595 3.772
3.252 1.645 3.782
3.242 1.684 3.772
3.248 1.733 3.779
3.242 1.775 3.773
3.257 1.829 3.788
3.241 1.866 3.772
3.252 1.918 3.782
3.24 1.957 3.77
3.25 2.01 3.78
3.237 2.05 3.768
3.247 2.104 3.777
3.241 2.148 3.771
3.255 2.206 3.786
3.252 2.253 3.782
3.285 2.326 3.815
3.277 2.371 3.807
3.31 2.445 3.838
3.307 2.495 3.835
3.394 2.615 3.92
3.384 2.661 3.91
3.368 2.703 3.895
3.35 2.742 3.877
3.331 2.782 3.859
3.321 2.828 3.849
3.303 2.868 3.832
3.29 2.913 3.819
3.272 2.952 3.801
3.254 2.993 3.785
3.241 3.038 3.772
3.229 3.084 3.76
3.187 3.101 3.719
3.042 3.014 3.578
2.923 2.951 3.464
2.802 2.88 3.346
2.686 2.812 3.234
2.582 2.752 3.133
2.486 2.697 3.039
2.387 2.636 2.944
2.309 2.595 2.868
2.221 2.541 2.782
2.143 2.496 2.707
2.073 2.457 2.639
2 2.412 2.568
1.938 2.379 2.508
1.875 2.342 2.447
1.813 2.304 2.387
1.755 2.269 2.33
1.698 2.234 2.275
1.651 2.211 2.23
