# .PCD v0.7 - Point Cloud Data file format
VERSION 0.7
FIELDS x y z
SIZE 4 4 4
TYPE F F F
COUNT 1 1 1
WIDTH 2497
HEIGHT 1
VIEWPOINT 0 0 0 1 0 0 0
POINTS 2497
DATA ascii
3.361 -0.206 4.263
3.381 -0.166 4.284
3.363 -0.124 4.265
3.383 -0.083 4.286
3.364 -0.041 4.267
3.383 -0 4.286
3.369 0.041 4.272
3.384 0.083 4.287
3.365 0.124 4.268
3.378 0.166 4.281
3.363 0.206 4.266
3.382 0.249 4.284
3.367 0.29 4.269
3.377 0.332 4.279
3.363 0.372 4.265
3.379 0.416 4.282
3.365 0.456 4.267
3.381 0.5 4.284
3.363 0.539 4.266
3.386 0.585 4.289
3.369 0.624 4.271
3.381 0.668 4.284
3.368 0.708 4.271
3.383 0.754 4.286
3.367 0.792 4.269
3.38 0.838 4.283
3.363 0.876 4.265
3.376 0.923 4.278
3.359 0.961 4.261
3.377 1.009 4.28
3.362 1.048 4.264
3.359 1.09 4.261
3.295 1.112 4.196
3.23 1.132 4.13
3.166 1.15 4.065
3.104 1.168 4.001
3.048 1.187 3.945
2.995 1.205 3.89
2.945 1.224 3.839
2.883 1.236 3.776
2.841 1.256 3.733
2.793 1.272 3.684
2.744 1.287 3.635
2.695 1.3 3.584
2.656 1.317 3.545
2.611 1.33 3.499
2.572 1.346 3.459
2.526 1.356 3.412
2.488 1.371 3.374
2.45 1.384 3.334
2.411 1.395 3.294
2.374 1.408 3.257
2.336 1.418 3.218
2.304 1.432 3.186
2.269 1.443 3.149
2.236 1.455 3.116
2.198 1.462 3.077
2.166 1.472 3.045
2.135 1.483 3.013
2.104 1.493 2.981
2.073 1.503 2.95
2.041 1.511 2.918
2.011 1.519 2.886
1.985 1.531 2.86
1.959 1.541 2.833
1.928 1.547 2.801
1.902 1.556 2.775
1.875 1.565 2.748
1.849 1.573 2.721
1.822 1.58 2.694
1.802 1.592 2.673
1.774 1.597 2.645
1.748 1.603 2.618
1.721 1.608 2.591
1.701 1.619 2.571
1.682 1.63 2.551
1.655 1.633 2.523
1.634 1.642 2.502
1.614 1.651 2.482
1.593 1.659 2.46
1.567 1.661 2.434
1.547 1.668 2.413
1.527 1.675 2.393
1.502 1.677 2.367
1.482 1.683 2.347
1.466 1.694 2.331
1.445 1.7 2.31
1.425 1.704 2.289
1.408 1.713 2.271
1.387 1.717 2.25
1.366 1.72 2.229
1.352 1.731 2.214
1.331 1.734 2.194
1.316 1.743 2.178
1.296 1.746 2.157
1.275 1.747 2.136
1.26 1.756 2.121
1.245 1.765 2.106
1.225 1.766 2.085
1.21 1.774 2.07
1.195 1.781 2.054
1.176 1.783 2.035
1.161 1.79 2.02
1.143 1.792 2.001
1.127 1.798 1.985
1.112 1.804 1.97
1.096 1.809 1.954
1.078 1.809 1.935
1.063 1.815 1.92
1.045 1.815 1.901
0.916 1.607 1.77
0.788 1.394 1.639
0.774 1.394 1.625
0.737 1.345 1.587
0.689 1.275 1.538
0.676 1.273 1.525
0.666 1.275 1.515
0.669 1.306 1.518
0.663 1.318 1.512
0.682 1.386 1.532
0.68 1.408 1.53
0.674 1.422 1.523
0.67 1.439 1.519
0.669 1.467 1.518
0.666 1.488 1.515
0.669 1.526 1.518
0.666 1.55 1.515
0.67 1.591 1.519
0.208 0.41 1.048
0.271 0.587 1.112
0.215 0.448 1.055
0.205 0.428 1.044
0.201 0.428 1.041
0.198 0.426 1.037
0.195 0.429 1.035
0.189 0.419 1.028
0.187 0.422 1.026
0.185 0.426 1.024
0.181 0.422 1.02
0.177 0.422 1.017
0.175 0.422 1.014
0.171 0.422 1.011
0.171 0.433 1.011
0.167 0.427 1.006
0.164 0.429 1.003
0.162 0.429 1.001
0.156 0.418 0.994
0.153 0.42 0.992
0.15 0.418 0.989
0.149 0.425 0.988
0.146 0.425 0.985
0.142 0.421 0.981
0.139 0.421 0.978
0.137 0.423 0.976
0.135 0.425 0.973
0.132 0.424 0.97
0.129 0.427 0.968
0.127 0.427 0.965
0.124 0.428 0.962
0.122 0.431 0.96
0.119 0.432 0.957
0.115 0.425 0.953
0.112 0.422 0.95
0.111 0.433 0.949
0.108 0.434 0.946
0.105 0.425 0.942
0.102 0.426 0.94
0.1 0.428 0.937
0.098 0.438 0.936
0.095 0.438 0.933
0.093 0.439 0.93
0.09 0.439 0.927
0.087 0.437 0.924
0.084 0.437 0.922
0.082 0.44 0.919
0.079 0.441 0.916
0.076 0.441 0.914
0.074 0.436 0.911
0.071 0.444 0.908
0.068 0.442 0.905
0.066 0.442 0.903
0.063 0.443 0.9
0.06 0.446 0.897
0.058 0.442 0.894
0.055 0.45 0.892
0.052 0.439 0.889
0.052 -0.402 0.889
0.054 -0.411 0.892
0.056 -0.405 0.894
0.059 -0.405 0.897
0.062 -0.413 0.9
0.064 -0.413 0.902
0.067 -0.413 0.905
0.069 -0.415 0.908
0.072 -0.413 0.91
0.075 -0.427 0.913
0.077 -0.427 0.916
0.08 -0.427 0.919
0.082 -0.423 0.921
0.085 -0.425 0.924
0.088 -0.429 0.927
0.09 -0.425 0.93
0.093 -0.429 0.933
0.097 -0.436 0.936
0.099 -0.43 0.938
0.101 -0.428 0.941
0.104 -0.43 0.944
0.107 -0.434 0.947
0.11 -0.432 0.95
0.113 -0.438 0.953
0.117 -0.445 0.957
0.12 -0.442 0.96
0.123 -0.443 0.963
0.125 -0.441 0.965
0.128 -0.442 0.969
0.133 -0.453 0.974
0.135 -0.45 0.976
0.138 -0.449 0.979
0.142 -0.455 0.983
0.145 -0.454 0.986
0.148 -0.452 0.989
0.152 -0.458 0.993
0.155 -0.46 0.997
0.16 -0.466 1.001
0.163 -0.465 1.004
0.166 -0.465 1.008
0.171 -0.473 1.013
0.174 -0.473 1.016
0.178 -0.474 1.02
0.183 -0.481 1.026
0.187 -0.482 1.029
0.19 -0.481 1.033
0.193 -0.481 1.036
0.199 -0.488 1.042
0.202 -0.487 1.045
0.205 -0.484 1.048
0.211 -0.493 1.055
0.214 -0.491 1.058
0.219 -0.495 1.063
0.223 -0.495 1.067
0.229 -0.501 1.073
0.235 -0.506 1.079
0.24 -0.51 1.084
0.243 -0.509 1.088
0.249 -0.513 1.094
0.255 -0.517 1.1
0.258 -0.514 1.102
0.264 -0.52 1.109
0.27 -0.524 1.116
0.273 -0.52 1.118
0.282 -0.532 1.128
0.286 -0.529 1.132
0.292 -0.533 1.138
0.299 -0.538 1.145
0.308 -0.546 1.154
0.31 -0.541 1.157
0.316 -0.544 1.163
0.322 -0.545 1.169
0.328 -0.549 1.176
0.338 -0.558 1.186
0.344 -0.558 1.192
0.351 -0.562 1.2
0.357 -0.563 1.206
0.365 -0.567 1.213
0.372 -0.569 1.221
0.383 -0.579 1.233
0.395 -0.588 1.244
0.402 -0.59 1.252
0.408 -0.59 1.258
0.42 -0.599 1.27
0.427 -0.6 1.278
0.438 -0.607 1.289
0.445 -0.608 1.297
0.461 -0.622 1.314
0.469 -0.622 1.321
0.482 -0.63 1.334
0.494 -0.637 1.347
0.506 -0.643 1.36
0.519 -0.65 1.373
0.533 -0.657 1.387
0.55 -0.669 1.405
0.564 -0.676 1.42
0.578 -0.682 1.434
0.595 -0.692 1.452
0.614 -0.703 1.471
0.625 -0.705 1.483
0.633 -0.703 1.491
0.724 -0.798 1.586
1.192 -1.328 2.069
1.119 -1.221 1.993
1.067 -1.142 1.94
0.837 -0.867 1.702
1.009 -1.039 1.881
0.929 -0.934 1.797
0.971 -0.961 1.84
0.868 -0.838 1.734
0.896 -0.851 1.763
0.962 -0.901 1.832
0.953 -0.875 1.822
0.917 -0.824 1.785
0.962 -0.851 1.832
0.901 -0.779 1.768
0.9 -0.763 1.767
0.985 -0.823 1.855
1.13 -0.932 2.005
1.236 -1.004 2.115
1.268 -1.011 2.149
1.273 -0.995 2.154
1.372 -1.053 2.255
1.871 -1.421 2.772
1.869 -1.391 2.77
1.723 -1.252 2.619
1.573 -1.116 2.464
1.579 -1.096 2.47
1.755 -1.195 2.652
1.772 -1.181 2.67
1.846 -1.204 2.747
1.857 -1.184 2.758
1.931 -1.204 2.834
2.341 -1.432 3.258
2.459 -1.47 3.38
2.581 -1.508 3.507
2.721 -1.552 3.652
3.785 -2.117 4.753
3.804 -2.073 4.772
3.779 -2.006 4.747
3.805 -1.966 4.773
3.778 -1.899 4.746
3.802 -1.858 4.77
3.391 -1.608 4.345
3.704 -1.708 4.669
3.349 -1.496 4.302
3.412 -1.479 4.367
3.316 -1.391 4.267
3.357 -1.364 4.31
3.301 -1.297 4.252
3.318 -1.26 4.27
3.308 -1.212 4.26
3.328 -1.176 4.28
3.308 -1.125 4.259
3.326 -1.088 4.278
3.311 -1.04 4.262
3.323 -1.001 4.275
3.31 -0.954 4.261
3.321 -0.915 4.273
3.307 -0.868 4.258
3.326 -0.831 4.278
3.306 -0.784 4.257
3.323 -0.746 4.275
3.301 -0.699 4.252
3.325 -0.662 4.277
3.303 -0.616 4.254
3.318 -0.577 4.27
3.309 -0.534 4.26
3.321 -0.495 4.273
3.304 -0.451 4.255
3.32 -0.411 4.271
3.304 -0.368 4.255
3.319 -0.329 4.27
3.301 -0.286 4.252
3.322 -0.247 4.274
3.303 -0.204 4.254
3.323 -0.164 4.275
3.304 -0.123 4.255
3.324 -0.082 4.276
3.305 -0.041 4.256
3.325 -0 4.277
3.309 0.041 4.26
3.326 0.082 4.278
3.307 0.123 4.258
3.327 0.165 4.279
3.304 0.204 4.255
3.323 0.247 4.275
3.309 0.287 4.261
3.319 0.329 4.271
3.31 0.369 4.262
3.321 0.412 4.273
3.306 0.451 4.257
3.322 0.495 4.274
3.306 0.534 4.257
3.323 0.578 4.275
3.306 0.617 4.257
3.326 0.662 4.278
3.311 0.701 4.263
3.326 0.746 4.278
3.309 0.784 4.26
3.324 0.83 4.276
3.306 0.868 4.257
3.32 0.914 4.272
3.302 0.952 4.253
3.321 1 4.273
3.305 1.038 4.256
3.318 1.085 4.269
3.274 1.113 4.224
3.206 1.132 4.154
3.149 1.153 4.095
3.087 1.171 4.031
3.032 1.189 3.974
2.979 1.208 3.918
2.928 1.226 3.866
2.874 1.242 3.81
2.826 1.259 3.761
2.772 1.272 3.704
2.729 1.289 3.66
2.68 1.303 3.61
2.636 1.317 3.564
2.592 1.33 3.518
2.552 1.345 3.477
2.514 1.36 3.438
2.476 1.374 3.398
2.431 1.383 3.352
2.399 1.399 3.319
2.356 1.408 3.274
2.325 1.422 3.242
2.284 1.43 3.199
2.251 1.442 3.165
2.219 1.454 3.132
2.187 1.465 3.099
2.155 1.476 3.066
2.118 1.483 3.028
2.089 1.494 2.997
2.057 1.503 2.965
2.032 1.515 2.939
2.001 1.523 2.907
1.97 1.531 2.875
1.945 1.541 2.848
1.913 1.547 2.816
1.892 1.56 2.794
1.861 1.565 2.762
1.835 1.573 2.735
1.808 1.58 2.707
1.787 1.591 2.686
1.761 1.598 2.659
1.735 1.603 2.631
1.715 1.614 2.61
1.688 1.618 2.582
1.668 1.629 2.562
1.642 1.633 2.536
1.622 1.642 2.514
1.601 1.65 2.493
1.581 1.659 2.472
1.56 1.666 2.451
1.535 1.668 2.424
1.515 1.675 2.404
1.495 1.682 2.383
1.475 1.688 2.362
1.455 1.694 2.341
1.434 1.7 2.32
1.414 1.704 2.299
1.397 1.713 2.282
1.371 1.71 2.255
1.356 1.721 2.24
1.336 1.724 2.219
1.322 1.735 2.204
1.306 1.743 2.187
1.286 1.745 2.166
1.27 1.754 2.15
1.251 1.756 2.13
1.236 1.765 2.115
1.216 1.766 2.094
1.201 1.774 2.079
1.186 1.781 2.063
1.167 1.784 2.044
1.152 1.79 2.028
1.134 1.792 2.009
1.118 1.797 1.993
1.103 1.804 1.978
1.088 1.81 1.962
1.07 1.809 1.943
1.055 1.815 1.927
1.04 1.821 1.912
1.025 1.826 1.897
0.803 1.436 1.667
0.77 1.398 1.633
0.759 1.401 1.621
0.706 1.321 1.567
0.671 1.272 1.53
0.662 1.277 1.521
0.659 1.296 1.518
0.65 1.302 1.509
0.658 1.344 1.517
0.664 1.383 1.523
0.671 1.426 1.53
0.66 1.43 1.519
0.659 1.454 1.517
0.654 1.471 1.512
0.661 1.518 1.52
0.658 1.543 1.517
0.661 1.582 1.52
0.212 0.424 1.055
0.256 0.553 1.101
0.209 0.436 1.053
0.203 0.427 1.046
0.196 0.418 1.039
0.196 0.427 1.039
0.191 0.422 1.034
0.187 0.42 1.03
0.185 0.422 1.028
0.181 0.417 1.023
0.179 0.422 1.021
0.176 0.422 1.018
0.173 0.421 1.015
0.172 0.428 1.014
0.167 0.423 1.009
0.166 0.428 1.007
0.163 0.431 1.005
0.16 0.429 1.002
0.156 0.426 0.998
0.151 0.417 0.993
0.149 0.417 0.99
0.145 0.414 0.986
0.143 0.416 0.984
0.141 0.421 0.982
0.138 0.42 0.979
0.136 0.424 0.977
0.132 0.417 0.972
0.13 0.424 0.971
0.128 0.425 0.968
0.125 0.427 0.966
0.123 0.428 0.963
0.121 0.432 0.961
0.117 0.423 0.957
0.114 0.423 0.954
0.113 0.432 0.953
0.109 0.423 0.948
0.107 0.433 0.947
0.105 0.434 0.944
0.101 0.427 0.941
0.1 0.438 0.939
0.096 0.429 0.935
0.094 0.438 0.934
0.092 0.439 0.931
0.089 0.439 0.928
0.086 0.436 0.925
0.083 0.434 0.922
0.081 0.441 0.92
0.078 0.433 0.917
0.076 0.442 0.914
0.073 0.437 0.911
0.07 0.443 0.909
0.068 0.443 0.906
0.065 0.443 0.903
0.062 0.443 0.9
0.06 0.445 0.898
0.057 0.441 0.895
0.054 0.451 0.892
0.052 0.44 0.889
0.051 -0.402 0.89
0.053 -0.411 0.892
0.056 -0.414 0.895
0.058 -0.414 0.898
0.061 -0.413 0.9
0.063 -0.413 0.903
0.066 -0.413 0.905
0.068 -0.415 0.908
0.071 -0.423 0.911
0.074 -0.425 0.914
0.076 -0.417 0.916
0.079 -0.417 0.919
0.081 -0.422 0.922
0.084 -0.425 0.925
0.087 -0.428 0.928
0.09 -0.426 0.93
0.092 -0.429 0.933
0.095 -0.428 0.936
0.099 -0.44 0.94
0.1 -0.43 0.942
0.104 -0.438 0.946
0.106 -0.435 0.948
0.11 -0.441 0.952
0.112 -0.437 0.954
0.115 -0.438 0.957
0.119 -0.444 0.961
0.121 -0.441 0.963
0.125 -0.449 0.968
0.129 -0.452 0.971
0.13 -0.444 0.973
0.134 -0.45 0.977
0.137 -0.449 0.98
0.141 -0.457 0.985
0.144 -0.454 0.987
0.146 -0.453 0.99
0.149 -0.453 0.993
0.154 -0.46 0.998
0.156 -0.457 1
0.161 -0.466 1.006
0.167 -0.474 1.011
0.17 -0.474 1.015
0.173 -0.474 1.018
0.176 -0.474 1.022
0.18 -0.475 1.025
0.185 -0.48 1.03
0.189 -0.482 1.034
0.194 -0.491 1.041
0.195 -0.48 1.041
0.2 -0.486 1.046
0.206 -0.493 1.052
0.209 -0.491 1.056
0.215 -0.498 1.062
0.218 -0.496 1.065
0.223 -0.502 1.071
0.23 -0.509 1.077
0.233 -0.506 1.081
0.235 -0.502 1.083
0.241 -0.507 1.089
0.247 -0.513 1.095
0.25 -0.511 1.099
0.256 -0.514 1.105
0.262 -0.52 1.111
0.269 -0.525 1.118
0.275 -0.529 1.125
0.277 -0.524 1.127
0.283 -0.53 1.134
0.293 -0.54 1.144
0.296 -0.537 1.147
0.301 -0.538 1.153
0.308 -0.542 1.16
0.313 -0.543 1.165
0.319 -0.545 1.171
0.326 -0.549 1.178
0.332 -0.551 1.185
0.342 -0.56 1.195
0.344 -0.555 1.198
0.355 -0.564 1.209
0.362 -0.567 1.216
0.369 -0.57 1.224
0.376 -0.573 1.232
0.387 -0.581 1.243
0.398 -0.589 1.254
0.404 -0.589 1.261
0.416 -0.598 1.273
0.424 -0.601 1.282
0.434 -0.606 1.292
0.441 -0.607 1.3
0.453 -0.614 1.312
0.464 -0.62 1.323
0.478 -0.63 1.338
0.49 -0.636 1.351
0.502 -0.643 1.364
0.515 -0.65 1.377
0.528 -0.657 1.391
0.546 -0.67 1.41
0.56 -0.676 1.424
0.573 -0.683 1.439
0.591 -0.693 1.457
0.608 -0.702 1.475
0.619 -0.704 1.487
0.629 -0.703 1.497
0.67 -0.74 1.54
1.156 -1.298 2.051
1.034 -1.134 1.922
1.066 -1.151 1.956
0.813 -0.849 1.691
1.057 -1.1 1.947
0.98 -0.997 1.866
0.91 -0.905 1.792
0.928 -0.907 1.811
0.926 -0.889 1.809
1.051 -0.997 1.941
0.943 -0.872 1.826
0.93 -0.844 1.814
0.926 -0.825 1.809
0.898 -0.783 1.78
0.89 -0.76 1.771
0.97 -0.817 1.856
1.183 -0.986 2.079
1.137 -0.928 2.031
1.258 -1.011 2.158
1.263 -0.995 2.163
1.321 -1.021 2.224
1.847 -1.415 2.777
1.858 -1.394 2.788
1.813 -1.331 2.741
1.569 -1.122 2.484
1.566 -1.096 2.482
1.685 -1.156 2.606
1.748 -1.174 2.672
1.821 -1.197 2.749
1.811 -1.163 2.738
1.939 -1.219 2.873
2.311 -1.425 3.264
2.434 -1.467 3.393
2.552 -1.503 3.518
2.695 -1.55 3.668
3.419 -1.924 4.428
3.731 -2.049 4.756
3.313 -1.769 4.317
3.383 -1.759 4.39
3.271 -1.654 4.273
3.308 -1.627 4.311
3.245 -1.55 4.246
3.277 -1.52 4.279
3.256 -1.466 4.257
3.259 -1.423 4.26
3.254 -1.376 4.255
3.265 -1.337 4.267
3.247 -1.286 4.248
3.261 -1.248 4.263
3.248 -1.199 4.249
3.266 -1.163 4.267
3.252 -1.115 4.253
3.263 -1.076 4.265
3.245 -1.027 4.246
3.265 -0.991 4.266
3.245 -0.943 4.246
3.264 -0.906 4.265
3.242 -0.858 4.243
3.261 -0.821 4.262
3.245 -0.775 4.246
3.264 -0.738 4.266
3.242 -0.692 4.242
3.26 -0.654 4.261
3.246 -0.61 4.246
3.263 -0.572 4.264
3.244 -0.528 4.244
3.263 -0.49 4.265
3.247 -0.446 4.247
3.262 -0.407 4.263
3.246 -0.365 4.246
3.26 -0.325 4.261
3.241 -0.283 4.241
3.263 -0.244 4.264
3.244 -0.202 4.244
3.265 -0.163 4.267
3.246 -0.121 4.247
3.267 -0.081 4.268
3.247 -0.04 4.248
3.266 -0 4.267
3.251 0.041 4.252
3.263 0.081 4.264
3.255 0.122 4.256
3.269 0.163 4.27
3.246 0.202 4.247
3.264 0.244 4.265
3.251 0.284 4.252
3.268 0.326 4.269
3.252 0.365 4.252
3.263 0.408 4.264
3.248 0.446 4.248
3.264 0.49 4.265
3.247 0.528 4.248
3.266 0.573 4.267
3.255 0.612 4.256
3.27 0.656 4.272
3.249 0.693 4.249
3.268 0.739 4.27
3.25 0.776 4.25
3.266 0.822 4.267
3.249 0.86 4.25
3.258 0.904 4.259
3.242 0.942 4.243
3.264 0.99 4.265
3.24 1.025 4.24
3.254 1.073 4.255
3.24 1.11 4.24
3.194 1.137 4.192
3.131 1.155 4.125
3.068 1.173 4.06
3.014 1.192 4.003
2.961 1.21 3.947
2.906 1.227 3.889
2.85 1.241 3.831
2.803 1.259 3.781
2.755 1.274 3.731
2.714 1.292 3.687
2.658 1.302 3.629
2.622 1.321 3.591
2.577 1.334 3.544
2.539 1.349 3.504
2.494 1.36 3.456
2.456 1.374 3.417
2.417 1.387 3.376
2.38 1.399 3.336
2.337 1.407 3.291
2.306 1.422 3.258
2.269 1.433 3.22
2.239 1.446 3.188
2.201 1.454 3.149
2.169 1.465 3.115
2.138 1.476 3.082
2.107 1.487 3.05
2.076 1.497 3.017
2.046 1.507 2.986
2.016 1.516 2.955
1.985 1.523 2.922
1.96 1.535 2.895
1.934 1.546 2.869
1.903 1.551 2.836
1.878 1.561 2.809
1.852 1.57 2.782
1.826 1.578 2.755
1.8 1.585 2.727
1.774 1.592 2.7
1.747 1.598 2.672
1.727 1.609 2.65
1.701 1.614 2.623
1.679 1.623 2.6
1.654 1.628 2.574
1.63 1.634 2.548
1.608 1.641 2.526
1.588 1.65 2.505
1.568 1.659 2.484
1.548 1.666 2.462
1.523 1.668 2.436
1.503 1.676 2.416
1.483 1.682 2.394
1.463 1.688 2.373
1.443 1.694 2.352
1.422 1.699 2.331
1.403 1.704 2.31
1.386 1.713 2.292
1.37 1.723 2.276
1.35 1.727 2.255
1.331 1.731 2.234
1.311 1.734 2.213
1.295 1.743 2.197
1.276 1.746 2.177
1.26 1.754 2.16
1.241 1.756 2.14
1.226 1.765 2.124
1.211 1.773 2.108
1.191 1.774 2.088
1.177 1.782 2.072
1.158 1.784 2.053
1.143 1.79 2.037
1.125 1.792 2.018
1.109 1.798 2.002
1.094 1.803 1.986
1.08 1.81 1.971
1.061 1.809 1.951
1.046 1.815 1.935
1.036 1.828 1.924
1.017 1.826 1.905
0.938 1.708 1.822
0.794 1.457 1.67
0.75 1.396 1.624
0.741 1.404 1.615
0.674 1.291 1.544
0.655 1.276 1.525
0.646 1.281 1.515
0.64 1.29 1.508
0.643 1.322 1.511
0.641 1.344 1.51
0.663 1.42 1.533
0.654 1.426 1.523
0.652 1.452 1.522
0.648 1.471 1.517
0.645 1.493 1.514
0.642 1.515 1.511
0.644 1.552 1.513
0.206 0.415 1.053
0.243 0.524 1.092
0.205 0.429 1.052
0.2 0.424 1.046
0.198 0.427 1.044
0.195 0.428 1.041
0.189 0.421 1.035
0.186 0.421 1.032
0.184 0.423 1.029
0.18 0.419 1.025
0.177 0.422 1.023
0.174 0.422 1.019
0.171 0.421 1.016
0.168 0.421 1.013
0.166 0.425 1.011
0.164 0.428 1.009
0.162 0.431 1.006
0.159 0.429 1.003
0.155 0.426 0.999
0.15 0.418 0.994
0.147 0.417 0.991
0.143 0.41 0.986
0.143 0.424 0.987
0.14 0.421 0.983
0.136 0.419 0.98
0.133 0.414 0.976
0.132 0.426 0.975
0.13 0.426 0.972
0.127 0.425 0.969
0.124 0.426 0.967
0.122 0.429 0.964
0.12 0.433 0.962
0.117 0.433 0.959
0.114 0.432 0.956
0.11 0.423 0.952
0.109 0.431 0.95
0.106 0.433 0.948
0.103 0.426 0.944
0.101 0.436 0.943
0.097 0.426 0.939
0.096 0.439 0.937
0.093 0.439 0.934
0.091 0.439 0.932
0.088 0.441 0.929
0.085 0.437 0.926
0.082 0.433 0.923
0.08 0.443 0.921
0.077 0.434 0.917
0.074 0.436 0.915
0.072 0.443 0.912
0.069 0.433 0.909
0.067 0.444 0.907
0.064 0.444 0.904
0.062 0.445 0.901
0.059 0.445 0.898
0.056 0.442 0.895
0.054 0.443 0.892
0.051 0.44 0.89
0.05 -0.402 0.89
0.053 -0.411 0.893
0.055 -0.406 0.895
0.058 -0.414 0.898
0.06 -0.412 0.901
0.063 -0.413 0.903
0.065 -0.423 0.906
0.068 -0.415 0.909
0.07 -0.423 0.912
0.073 -0.415 0.914
0.076 -0.426 0.917
0.078 -0.427 0.92
0.081 -0.422 0.922
0.083 -0.424 0.925
0.086 -0.428 0.928
0.089 -0.427 0.931
0.091 -0.428 0.934
0.094 -0.428 0.937
0.097 -0.431 0.94
0.099 -0.429 0.942
0.103 -0.437 0.946
0.104 -0.427 0.948
0.108 -0.432 0.951
0.111 -0.439 0.955
0.113 -0.435 0.958
0.117 -0.443 0.962
0.12 -0.441 0.964
0.123 -0.442 0.968
0.126 -0.443 0.971
0.13 -0.453 0.976
0.133 -0.45 0.978
0.137 -0.457 0.982
0.138 -0.446 0.983
0.142 -0.454 0.988
0.147 -0.461 0.993
0.148 -0.452 0.994
0.152 -0.459 0.999
0.155 -0.457 1.002
0.158 -0.457 1.005
0.163 -0.466 1.01
0.168 -0.475 1.016
0.171 -0.473 1.019
0.175 -0.474 1.023
0.178 -0.475 1.026
0.183 -0.482 1.032
0.185 -0.475 1.033
0.192 -0.49 1.042
0.195 -0.486 1.044
0.198 -0.485 1.048
0.201 -0.485 1.051
0.207 -0.493 1.058
0.213 -0.499 1.064
0.216 -0.498 1.067
0.219 -0.494 1.07
0.224 -0.5 1.076
0.231 -0.506 1.082
0.236 -0.509 1.088
0.239 -0.507 1.091
0.245 -0.513 1.097
0.248 -0.51 1.1
0.253 -0.514 1.107
0.259 -0.518 1.113
0.263 -0.517 1.117
0.268 -0.52 1.122
0.274 -0.524 1.129
0.281 -0.529 1.136
0.287 -0.533 1.143
0.293 -0.537 1.149
0.298 -0.538 1.155
0.304 -0.54 1.161
0.31 -0.543 1.167
0.317 -0.546 1.174
0.322 -0.547 1.18
0.325 -0.543 1.183
0.335 -0.553 1.194
0.345 -0.562 1.205
0.351 -0.563 1.211
0.358 -0.566 1.218
0.365 -0.569 1.226
0.371 -0.569 1.232
0.384 -0.581 1.246
0.391 -0.582 1.253
0.398 -0.584 1.26
0.409 -0.593 1.273
0.421 -0.601 1.285
0.425 -0.599 1.29
0.437 -0.607 1.303
0.445 -0.609 1.311
0.46 -0.621 1.327
0.469 -0.623 1.336
0.486 -0.637 1.355
0.494 -0.637 1.363
0.511 -0.65 1.381
0.525 -0.658 1.396
0.537 -0.663 1.409
0.55 -0.669 1.422
0.569 -0.683 1.443
0.582 -0.688 1.457
0.607 -0.708 1.484
0.617 -0.708 1.495
0.625 -0.704 1.502
0.651 -0.724 1.531
0.845 -0.94 1.737
0.842 -0.92 1.734
0.89 -0.959 1.785
0.807 -0.849 1.697
1.045 -1.096 1.951
0.838 -0.852 1.73
0.92 -0.923 1.817
1.066 -1.059 1.972
0.957 -0.928 1.857
0.975 -0.929 1.876
0.937 -0.874 1.835
0.948 -0.868 1.847
0.926 -0.831 1.823
0.897 -0.789 1.793
0.882 -0.759 1.776
0.961 -0.816 1.861
1.083 -0.907 1.992
1.076 -0.883 1.983
1.247 -1.01 2.166
1.26 -1 2.179
1.265 -0.985 2.186
1.637 -1.26 2.582
1.836 -1.388 2.794
1.783 -1.318 2.737
1.558 -1.123 2.498
1.558 -1.099 2.498
1.63 -1.127 2.575
1.732 -1.172 2.683
1.799 -1.192 2.754
1.778 -1.151 2.732
1.946 -1.234 2.911
2.287 -1.422 3.274
2.402 -1.459 3.397
2.523 -1.497 3.526
2.659 -1.54 3.671
3.173 -1.798 4.219
3.234 -1.786 4.284
3.189 -1.715 4.236
3.202 -1.677 4.25
3.199 -1.63 4.247
3.208 -1.589 4.257
3.196 -1.538 4.243
3.207 -1.499 4.256
3.193 -1.448 4.241
3.206 -1.41 4.255
3.191 -1.36 4.238
3.212 -1.325 4.261
3.196 -1.275 4.243
3.209 -1.237 4.258
3.193 -1.188 4.241
3.209 -1.151 4.257
3.195 -1.103 4.242
3.207 -1.065 4.256
3.188 -1.017 4.235
3.207 -0.981 4.256
3.188 -0.933 4.235
3.205 -0.896 4.254
3.192 -0.851 4.239
3.204 -0.813 4.252
3.189 -0.768 4.236
3.2 -0.729 4.248
3.186 -0.685 4.233
3.202 -0.647 4.25
3.194 -0.605 4.242
3.204 -0.566 4.253
3.188 -0.523 4.235
3.205 -0.485 4.253
3.19 -0.442 4.237
3.204 -0.403 4.253
3.189 -0.361 4.236
3.203 -0.322 4.251
3.192 -0.281 4.239
3.206 -0.242 4.254
3.192 -0.201 4.24
3.208 -0.161 4.256
3.195 -0.12 4.242
3.207 -0.081 4.255
3.193 -0.04 4.241
3.209 -0 4.257
3.199 0.04 4.247
3.203 0.08 4.251
3.198 0.12 4.246
3.21 0.161 4.259
3.196 0.201 4.244
3.214 0.242 4.263
3.193 0.281 4.241
3.21 0.323 4.259
3.196 0.362 4.244
3.205 0.403 4.253
3.198 0.443 4.246
3.207 0.485 4.255
3.192 0.523 4.239
3.207 0.567 4.255
3.199 0.606 4.247
3.217 0.651 4.267
3.196 0.687 4.244
3.212 0.732 4.261
3.188 0.767 4.235
3.207 0.814 4.255
3.191 0.851 4.238
3.198 0.894 4.246
3.191 0.934 4.238
3.205 0.98 4.253
3.193 1.019 4.241
3.199 1.063 4.247
3.186 1.1 4.233
3.171 1.138 4.218
3.106 1.155 4.148
3.05 1.175 4.088
2.996 1.194 4.03
2.937 1.21 3.968
2.887 1.228 3.915
2.833 1.244 3.857
2.787 1.261 3.807
2.734 1.274 3.751
2.693 1.292 3.707
2.643 1.305 3.655
2.6 1.32 3.608
2.556 1.333 3.562
2.525 1.353 3.528
2.481 1.364 3.482
2.443 1.378 3.441
2.398 1.387 3.393
2.366 1.402 3.359
2.325 1.411 3.315
2.288 1.422 3.275
2.256 1.435 3.241
2.222 1.446 3.205
2.19 1.458 3.171
2.158 1.47 3.137
2.121 1.476 3.098
2.091 1.487 3.066
2.06 1.497 3.033
2.031 1.507 3.002
2 1.515 2.969
1.975 1.528 2.942
1.944 1.534 2.909
1.919 1.546 2.883
1.889 1.552 2.85
1.863 1.561 2.822
1.838 1.57 2.796
1.811 1.577 2.767
1.786 1.585 2.74
1.76 1.592 2.713
1.739 1.603 2.691
1.713 1.608 2.662
1.687 1.614 2.635
1.667 1.624 2.614
1.642 1.63 2.587
1.621 1.638 2.565
1.602 1.648 2.544
1.576 1.651 2.517
1.556 1.659 2.495
1.536 1.666 2.474
1.516 1.674 2.453
1.491 1.675 2.426
1.471 1.682 2.405
1.452 1.689 2.384
1.432 1.694 2.363
1.417 1.706 2.347
1.392 1.704 2.32
1.374 1.712 2.302
1.359 1.723 2.286
1.339 1.727 2.264
1.325 1.737 2.249
1.304 1.739 2.227
1.285 1.743 2.206
1.27 1.752 2.19
1.25 1.754 2.17
1.235 1.762 2.153
1.216 1.765 2.133
1.201 1.773 2.117
1.182 1.774 2.096
1.167 1.781 2.08
1.149 1.784 2.061
1.134 1.79 2.045
1.119 1.798 2.03
1.101 1.798 2.01
1.086 1.804 1.994
1.071 1.81 1.978
1.056 1.816 1.963
1.042 1.822 1.947
1.027 1.828 1.932
1.013 1.833 1.916
0.994 1.83 1.896
0.952 1.781 1.851
0.751 1.409 1.637
0.737 1.408 1.622
0.705 1.366 1.588
0.669 1.317 1.55
0.64 1.278 1.519
0.634 1.289 1.512
0.63 1.305 1.508
0.627 1.323 1.505
0.651 1.404 1.53
0.642 1.412 1.521
0.641 1.437 1.52
0.642 1.467 1.52
0.633 1.476 1.511
0.63 1.498 1.508
0.632 1.535 1.511
0.294 0.657 1.15
0.235 0.509 1.087
0.203 0.429 1.053
0.199 0.426 1.048
0.196 0.427 1.045
0.192 0.426 1.042
0.19 0.428 1.039
0.184 0.42 1.033
0.182 0.423 1.031
0.177 0.417 1.026
0.175 0.421 1.024
0.173 0.422 1.021
0.17 0.421 1.017
0.167 0.422 1.014
0.164 0.423 1.012
0.162 0.427 1.009
0.16 0.431 1.008
0.157 0.429 1.004
0.153 0.424 1
0.148 0.415 0.994
0.146 0.419 0.992
0.143 0.419 0.989
0.14 0.417 0.986
0.138 0.42 0.984
0.135 0.419 0.981
0.133 0.423 0.978
0.131 0.425 0.976
0.128 0.426 0.973
0.126 0.426 0.97
0.123 0.428 0.968
0.121 0.43 0.965
0.117 0.421 0.961
0.116 0.432 0.96
0.112 0.424 0.956
0.111 0.435 0.955
0.106 0.422 0.95
0.105 0.434 0.949
0.102 0.426 0.945
0.1 0.437 0.943
0.097 0.436 0.94
0.094 0.429 0.937
0.091 0.428 0.934
0.09 0.44 0.932
0.087 0.439 0.929
0.084 0.437 0.926
0.081 0.435 0.923
0.079 0.435 0.921
0.077 0.442 0.918
0.074 0.438 0.915
0.071 0.442 0.913
0.068 0.435 0.909
0.066 0.443 0.907
0.063 0.444 0.904
0.061 0.444 0.901
0.058 0.446 0.899
0.055 0.441 0.896
0.053 0.442 0.893
0.05 0.45 0.89
0.05 -0.402 0.89
0.052 -0.413 0.893
0.055 -0.405 0.895
0.057 -0.413 0.898
0.06 -0.411 0.901
0.062 -0.413 0.903
0.065 -0.414 0.906
0.067 -0.413 0.909
0.07 -0.414 0.911
0.073 -0.425 0.915
0.075 -0.426 0.918
0.078 -0.425 0.92
0.08 -0.424 0.923
0.083 -0.429 0.926
0.086 -0.428 0.929
0.088 -0.428 0.931
0.091 -0.428 0.934
0.093 -0.427 0.937
0.096 -0.43 0.94
0.099 -0.429 0.943
0.102 -0.437 0.947
0.105 -0.435 0.949
0.107 -0.432 0.952
0.111 -0.438 0.955
0.113 -0.436 0.958
0.117 -0.442 0.962
0.119 -0.442 0.965
0.122 -0.441 0.968
0.125 -0.443 0.971
0.129 -0.451 0.976
0.132 -0.45 0.978
0.135 -0.449 0.981
0.139 -0.456 0.986
0.141 -0.454 0.989
0.144 -0.452 0.991
0.149 -0.46 0.996
0.149 -0.45 0.997
0.155 -0.46 1.003
0.159 -0.465 1.007
0.162 -0.465 1.011
0.165 -0.464 1.014
0.17 -0.473 1.02
0.174 -0.473 1.023
0.177 -0.475 1.027
0.182 -0.481 1.032
0.186 -0.481 1.036
0.188 -0.479 1.039
0.194 -0.488 1.045
0.197 -0.484 1.048
0.203 -0.493 1.055
0.206 -0.49 1.058
0.209 -0.489 1.061
0.214 -0.495 1.067
0.221 -0.503 1.074
0.223 -0.5 1.077
0.229 -0.506 1.083
0.235 -0.51 1.089
0.24 -0.514 1.094
0.243 -0.513 1.098
0.249 -0.517 1.104
0.252 -0.513 1.107
0.258 -0.519 1.114
0.265 -0.525 1.121
0.267 -0.52 1.123
0.273 -0.524 1.13
0.279 -0.529 1.137
0.286 -0.533 1.143
0.292 -0.537 1.15
0.297 -0.538 1.156
0.303 -0.541 1.163
0.31 -0.545 1.169
0.315 -0.545 1.174
0.321 -0.549 1.182
0.328 -0.551 1.188
0.337 -0.558 1.198
0.34 -0.555 1.202
0.35 -0.563 1.212
0.356 -0.565 1.219
0.36 -0.563 1.224
0.374 -0.577 1.238
0.382 -0.581 1.247
0.389 -0.582 1.254
0.396 -0.584 1.262
0.408 -0.593 1.274
0.414 -0.594 1.281
0.425 -0.6 1.293
0.436 -0.608 1.305
0.447 -0.614 1.317
0.459 -0.622 1.329
0.467 -0.623 1.338
0.479 -0.63 1.351
0.491 -0.636 1.364
0.509 -0.65 1.383
0.522 -0.657 1.397
0.535 -0.664 1.411
0.547 -0.669 1.424
0.562 -0.677 1.441
0.578 -0.685 1.457
0.6 -0.701 1.481
0.616 -0.709 1.498
0.623 -0.705 1.505
0.639 -0.713 1.523
0.786 -0.874 1.68
0.787 -0.86 1.682
0.788 -0.846 1.683
0.789 -0.832 1.684
0.848 -0.883 1.748
0.781 -0.793 1.675
0.905 -0.911 1.808
0.894 -0.884 1.797
0.947 -0.922 1.853
0.927 -0.885 1.832
0.938 -0.879 1.844
1.026 -0.948 1.939
0.935 -0.843 1.84
0.916 -0.81 1.82
0.878 -0.759 1.779
0.985 -0.841 1.895
1.041 -0.874 1.955
1.078 -0.889 1.994
1.246 -1.013 2.175
1.255 -1 2.184
1.257 -0.982 2.186
1.511 -1.164 2.459
1.796 -1.362 2.765
1.141 -0.833 2.062
1.556 -1.126 2.507
1.555 -1.101 2.506
1.594 -1.105 2.548
1.721 -1.169 2.684
1.78 -1.184 2.748
1.759 -1.143 2.725
2.002 -1.276 2.987
2.266 -1.414 3.27
2.387 -1.455 3.399
2.503 -1.491 3.524
2.639 -1.535 3.67
2.928 -1.664 3.981
3.17 -1.757 4.24
3.154 -1.703 4.223
3.166 -1.664 4.236
3.15 -1.611 4.218
3.166 -1.574 4.236
3.15 -1.522 4.218
3.165 -1.485 4.235
3.15 -1.434 4.218
3.163 -1.397 4.233
3.147 -1.346 4.216
3.163 -1.31 4.232
3.146 -1.26 4.214
3.166 -1.225 4.236
3.149 -1.176 4.218
3.169 -1.141 4.239
3.151 -1.092 4.22
3.164 -1.055 4.233
3.151 -1.009 4.22
3.163 -0.971 4.233
3.143 -0.923 4.212
3.162 -0.887 4.231
3.149 -0.843 4.217
3.16 -0.805 4.23
3.147 -0.76 4.215
3.157 -0.722 4.226
3.149 -0.68 4.218
3.159 -0.641 4.229
3.145 -0.598 4.213
3.166 -0.561 4.236
3.142 -0.517 4.21
3.161 -0.48 4.231
3.151 -0.438 4.22
3.161 -0.399 4.23
3.144 -0.357 4.212
3.165 -0.32 4.234
3.147 -0.278 4.215
3.166 -0.24 4.236
3.146 -0.198 4.214
3.161 -0.159 4.23
3.153 -0.119 4.222
3.17 -0.08 4.24
3.162 -0.04 4.231
3.178 -0 4.249
3.158 0.04 4.228
3.157 0.08 4.227
3.158 0.119 4.227
3.167 0.16 4.237
3.154 0.199 4.223
3.172 0.24 4.242
3.151 0.278 4.219
3.167 0.32 4.237
3.152 0.358 4.22
3.168 0.4 4.238
3.154 0.439 4.223
3.173 0.482 4.243
3.157 0.519 4.226
3.164 0.561 4.234
3.149 0.599 4.218
3.163 0.642 4.232
3.157 0.681 4.227
3.164 0.724 4.234
3.149 0.761 4.218
3.163 0.805 4.233
3.151 0.843 4.22
3.165 0.888 4.235
3.148 0.925 4.217
3.162 0.971 4.231
3.143 1.006 4.211
3.162 1.054 4.231
3.146 1.091 4.215
3.155 1.136 4.224
3.102 1.158 4.168
3.039 1.175 4.1
2.984 1.194 4.041
2.933 1.213 3.985
2.883 1.231 3.932
2.828 1.246 3.873
2.782 1.264 3.823
2.73 1.277 3.767
2.688 1.295 3.722
2.64 1.308 3.671
2.591 1.32 3.618
2.553 1.337 3.577
2.515 1.353 3.537
2.472 1.364 3.49
2.433 1.377 3.449
2.395 1.39 3.408
2.358 1.403 3.369
2.317 1.412 3.324
2.285 1.426 3.29
2.247 1.435 3.249
2.213 1.446 3.213
2.182 1.458 3.179
2.144 1.465 3.138
2.119 1.48 3.111
2.088 1.491 3.078
2.053 1.497 3.041
2.022 1.506 3.008
1.992 1.515 2.976
1.968 1.528 2.949
1.937 1.534 2.916
1.912 1.546 2.889
1.881 1.551 2.856
1.855 1.56 2.828
1.831 1.57 2.802
1.805 1.578 2.774
1.778 1.584 2.746
1.758 1.597 2.724
1.733 1.603 2.697
1.706 1.608 2.668
1.681 1.614 2.641
1.661 1.624 2.62
1.635 1.629 2.593
1.615 1.638 2.571
1.595 1.648 2.55
1.575 1.656 2.528
1.549 1.658 2.5
1.53 1.667 2.48
1.51 1.674 2.458
1.486 1.676 2.432
1.466 1.682 2.41
1.451 1.695 2.395
1.426 1.694 2.368
1.411 1.705 2.351
1.391 1.71 2.33
1.369 1.713 2.307
1.354 1.723 2.291
1.335 1.727 2.27
1.315 1.731 2.248
1.3 1.74 2.232
1.28 1.744 2.211
1.265 1.752 2.195
1.25 1.761 2.179
1.231 1.763 2.158
1.211 1.765 2.137
1.197 1.774 2.122
1.178 1.774 2.101
1.163 1.782 2.085
1.148 1.789 2.069
1.129 1.79 2.049
1.115 1.798 2.034
1.101 1.805 2.018
1.082 1.804 1.998
1.067 1.81 1.982
1.052 1.816 1.966
1.038 1.822 1.951
1.02 1.821 1.931
1.005 1.826 1.916
0.99 1.83 1.9
0.976 1.836 1.884
0.779 1.472 1.673
0.743 1.426 1.635
0.736 1.437 1.626
0.705 1.399 1.594
0.64 1.283 1.524
0.63 1.285 1.513
0.623 1.295 1.506
0.62 1.312 1.502
0.624 1.349 1.507
0.635 1.4 1.518
0.631 1.419 1.514
0.624 1.429 1.506
0.632 1.478 1.515
0.622 1.485 1.505
0.623 1.518 1.506
0.278 0.616 1.135
0.225 0.483 1.078
0.2 0.422 1.051
0.201 0.434 1.052
0.195 0.426 1.046
0.189 0.419 1.04
0.189 0.427 1.039
0.183 0.418 1.033
0.182 0.424 1.032
0.177 0.417 1.026
0.174 0.42 1.024
0.172 0.421 1.021
0.169 0.421 1.018
0.166 0.422 1.015
0.164 0.424 1.013
0.161 0.427 1.01
0.159 0.43 1.008
0.156 0.428 1.004
0.152 0.423 1
0.147 0.414 0.995
0.146 0.42 0.993
0.141 0.414 0.989
0.14 0.419 0.987
0.137 0.42 0.984
0.135 0.42 0.981
0.133 0.424 0.979
0.13 0.425 0.976
0.128 0.426 0.974
0.125 0.425 0.971
0.122 0.427 0.968
0.12 0.429 0.966
0.118 0.431 0.963
0.114 0.422 0.959
0.111 0.424 0.956
0.109 0.424 0.953
0.107 0.434 0.952
0.105 0.435 0.949
0.102 0.434 0.946
0.099 0.427 0.943
0.097 0.437 0.941
0.094 0.438 0.938
0.092 0.438 0.935
0.088 0.43 0.932
0.087 0.44 0.93
0.084 0.437 0.927
0.081 0.436 0.924
0.078 0.435 0.921
0.076 0.433 0.918
0.073 0.439 0.915
0.071 0.442 0.913
0.068 0.442 0.91
0.066 0.444 0.907
0.063 0.444 0.904
0.06 0.445 0.902
0.058 0.445 0.899
0.055 0.451 0.896
0.053 0.451 0.893
0.05 0.45 0.89
0.049 -0.4 0.891
0.052 -0.403 0.893
0.054 -0.405 0.896
0.056 -0.412 0.899
0.059 -0.411 0.901
0.061 -0.412 0.904
0.064 -0.413 0.907
0.066 -0.412 0.909
0.069 -0.425 0.912
0.072 -0.426 0.915
0.074 -0.424 0.918
0.077 -0.424 0.921
0.079 -0.424 0.923
0.082 -0.42 0.926
0.084 -0.422 0.929
0.087 -0.426 0.932
0.09 -0.428 0.935
0.093 -0.434 0.938
0.095 -0.429 0.941
0.098 -0.429 0.943
0.1 -0.427 0.946
0.104 -0.435 0.95
0.107 -0.441 0.954
0.109 -0.437 0.956
0.112 -0.436 0.959
0.114 -0.434 0.962
0.118 -0.441 0.966
0.121 -0.44 0.969
0.125 -0.45 0.973
0.126 -0.441 0.975
0.131 -0.45 0.979
0.133 -0.448 0.982
0.137 -0.455 0.987
0.14 -0.454 0.99
0.145 -0.462 0.995
0.147 -0.459 0.997
0.15 -0.459 1.001
0.155 -0.468 1.006
0.158 -0.467 1.009
0.16 -0.463 1.011
0.165 -0.473 1.017
0.169 -0.473 1.021
0.172 -0.474 1.025
0.175 -0.474 1.028
0.178 -0.473 1.031
0.184 -0.48 1.037
0.187 -0.481 1.041
0.193 -0.488 1.047
0.195 -0.485 1.05
0.199 -0.485 1.053
0.204 -0.49 1.059
0.206 -0.486 1.062
0.213 -0.496 1.069
0.215 -0.493 1.072
0.224 -0.507 1.081
0.227 -0.505 1.084
0.233 -0.51 1.091
0.234 -0.504 1.092
0.241 -0.513 1.1
0.247 -0.516 1.106
0.253 -0.521 1.112
0.255 -0.518 1.115
0.262 -0.523 1.122
0.264 -0.519 1.125
0.271 -0.524 1.132
0.276 -0.527 1.138
0.283 -0.533 1.146
0.289 -0.535 1.152
0.295 -0.538 1.158
0.3 -0.541 1.164
0.307 -0.544 1.171
0.315 -0.551 1.18
0.319 -0.549 1.184
0.324 -0.549 1.19
0.334 -0.558 1.201
0.336 -0.554 1.204
0.342 -0.555 1.21
0.35 -0.559 1.218
0.361 -0.57 1.231
0.368 -0.573 1.238
0.375 -0.575 1.246
0.385 -0.582 1.257
0.392 -0.583 1.264
0.403 -0.591 1.276
0.411 -0.594 1.285
0.422 -0.602 1.297
0.427 -0.6 1.303
0.438 -0.606 1.315
0.45 -0.614 1.328
0.463 -0.623 1.341
0.475 -0.63 1.355
0.487 -0.637 1.368
0.499 -0.643 1.381
0.512 -0.649 1.395
0.53 -0.664 1.415
0.542 -0.668 1.428
0.557 -0.676 1.444
0.573 -0.686 1.462
0.592 -0.697 1.482
0.609 -0.707 1.501
0.613 -0.7 1.505
0.637 -0.716 1.531
0.748 -0.838 1.653
0.797 -0.88 1.705
0.778 -0.843 1.686
0.779 -0.829 1.686
0.777 -0.811 1.684
0.771 -0.791 1.678
0.841 -0.851 1.753
0.84 -0.834 1.753
0.896 -0.878 1.814
0.907 -0.872 1.826
0.949 -0.898 1.871
1.085 -1.014 2.019
0.956 -0.871 1.879
0.945 -0.845 1.868
0.872 -0.761 1.788
1.014 -0.874 1.942
1.03 -0.872 1.96
1.056 -0.878 1.988
1.234 -1.011 2.182
1.249 -1.004 2.198
1.254 -0.988 2.203
1.449 -1.124 2.416
1.764 -1.349 2.76
1.094 -0.804 2.029
1.193 -0.862 2.137
1.55 -1.107 2.526
1.567 -1.095 2.545
1.702 -1.166 2.692
1.746 -1.17 2.74
1.733 -1.135 2.726
2.111 -1.358 3.138
2.235 -1.406 3.273
2.36 -1.451 3.409
2.477 -1.487 3.537
2.608 -1.529 3.679
2.824 -1.617 3.915
3.11 -1.738 4.227
3.097 -1.686 4.213
3.115 -1.651 4.232
3.099 -1.598 4.215
3.108 -1.558 4.225
3.092 -1.506 4.208
3.108 -1.47 4.225
3.092 -1.419 4.208
3.107 -1.383 4.224
3.09 -1.332 4.205
3.107 -1.297 4.223
3.095 -1.25 4.211
3.11 -1.213 4.227
3.093 -1.164 4.208
3.109 -1.129 4.226
3.093 -1.081 4.208
3.107 -1.044 4.223
3.093 -0.998 4.209
3.107 -0.961 4.223
3.093 -0.916 4.209
3.105 -0.879 4.222
3.086 -0.832 4.2
3.104 -0.797 4.22
3.089 -0.752 4.204
3.107 -0.716 4.224
3.091 -0.672 4.206
3.103 -0.635 4.219
3.085 -0.591 4.199
3.104 -0.555 4.22
3.084 -0.511 4.198
3.104 -0.475 4.22
3.083 -0.432 4.198
3.103 -0.395 4.22
3.093 -0.354 4.208
3.101 -0.316 4.218
3.1 -0.276 4.217
3.114 -0.238 4.231
3.098 -0.197 4.214
3.116 -0.158 4.234
3.097 -0.118 4.213
3.116 -0.079 4.233
3.102 -0.039 4.218
3.12 -0 4.237
3.106 0.039 4.223
3.108 0.079 4.225
3.088 0.118 4.203
3.11 0.158 4.227
3.098 0.197 4.214
3.113 0.238 4.231
3.097 0.276 4.213
3.112 0.317 4.229
3.085 0.353 4.2
3.11 0.396 4.227
3.091 0.433 4.207
3.103 0.475 4.219
3.094 0.513 4.209
3.109 0.556 4.226
3.095 0.593 4.21
3.115 0.637 4.233
3.093 0.673 4.208
3.106 0.716 4.222
3.1 0.755 4.216
3.113 0.799 4.23
3.096 0.835 4.211
3.108 0.88 4.225
3.091 0.915 4.206
3.106 0.961 4.222
3.092 0.998 4.207
3.106 1.044 4.223
3.087 1.079 4.202
3.107 1.128 4.224
3.074 1.157 4.188
3.021 1.178 4.13
2.965 1.196 4.069
2.914 1.215 4.014
2.866 1.234 3.961
2.812 1.249 3.902
2.764 1.266 3.849
2.714 1.281 3.795
2.664 1.294 3.741
2.623 1.311 3.696
2.574 1.323 3.643
2.533 1.337 3.598
2.5 1.355 3.562
2.457 1.367 3.515
2.419 1.381 3.473
2.376 1.391 3.427
2.343 1.406 3.391
2.302 1.415 3.347
2.265 1.425 3.306
2.235 1.439 3.273
2.2 1.45 3.235
2.164 1.458 3.195
2.131 1.469 3.16
2.101 1.48 3.127
2.07 1.49 3.093
2.041 1.501 3.061
2.011 1.51 3.029
1.981 1.519 2.996
1.951 1.527 2.963
1.926 1.539 2.937
1.894 1.544 2.902
1.871 1.556 2.876
1.844 1.564 2.847
1.82 1.574 2.821
1.794 1.582 2.792
1.769 1.59 2.765
1.743 1.596 2.736
1.718 1.603 2.71
1.691 1.608 2.681
1.671 1.618 2.659
1.651 1.629 2.637
1.627 1.635 2.611
1.607 1.644 2.589
1.582 1.647 2.561
1.562 1.655 2.539
1.537 1.659 2.512
1.521 1.67 2.495
1.498 1.675 2.47
1.478 1.681 2.448
1.458 1.688 2.426
1.438 1.694 2.405
1.419 1.701 2.384
1.399 1.705 2.362
1.38 1.711 2.341
1.362 1.718 2.322
1.343 1.723 2.301
1.323 1.727 2.279
1.304 1.731 2.258
1.288 1.739 2.241
1.274 1.75 2.226
1.254 1.752 2.204
1.235 1.754 2.183
1.22 1.762 2.166
1.201 1.765 2.146
1.186 1.771 2.129
1.167 1.774 2.109
1.152 1.781 2.093
1.138 1.789 2.078
1.124 1.797 2.062
1.106 1.798 2.042
1.091 1.804 2.026
1.073 1.804 2.006
1.058 1.809 1.99
1.044 1.817 1.975
1.028 1.821 1.958
1.015 1.828 1.943
1 1.833 1.927
0.985 1.838 1.911
0.967 1.835 1.891
0.942 1.819 1.864
0.761 1.475 1.666
0.725 1.429 1.628
0.717 1.438 1.619
0.653 1.325 1.549
0.625 1.286 1.518
0.615 1.288 1.507
0.611 1.304 1.503
0.612 1.333 1.504
0.611 1.356 1.503
0.623 1.413 1.516
0.616 1.424 1.509
0.618 1.458 1.511
0.607 1.458 1.498
0.612 1.503 1.504
0.257 0.567 1.117
0.216 0.464 1.072
0.2 0.429 1.055
0.196 0.425 1.05
0.195 0.431 1.049
0.19 0.427 1.044
0.185 0.421 1.038
0.181 0.42 1.035
0.177 0.415 1.03
0.175 0.418 1.028
0.173 0.42 1.025
0.17 0.42 1.022
0.167 0.421 1.019
0.164 0.422 1.016
0.162 0.423 1.013
0.16 0.427 1.011
0.157 0.428 1.009
0.154 0.427 1.005
0.15 0.42 1
0.145 0.413 0.995
0.143 0.413 0.993
0.14 0.414 0.99
0.138 0.417 0.987
0.136 0.421 0.985
0.133 0.421 0.982
0.131 0.423 0.98
0.127 0.414 0.975
0.126 0.426 0.975
0.123 0.424 0.971
0.121 0.427 0.969
0.118 0.427 0.966
0.116 0.43 0.964
0.114 0.431 0.961
0.111 0.432 0.958
0.108 0.431 0.955
0.105 0.425 0.951
0.103 0.433 0.95
0.101 0.434 0.947
0.098 0.436 0.944
0.095 0.427 0.94
0.093 0.437 0.939
0.091 0.438 0.936
0.088 0.438 0.933
0.086 0.438 0.93
0.083 0.435 0.927
0.08 0.437 0.924
0.077 0.435 0.921
0.075 0.441 0.919
0.073 0.445 0.916
0.07 0.437 0.913
0.067 0.442 0.911
0.065 0.444 0.908
0.062 0.443 0.905
0.06 0.445 0.902
0.057 0.443 0.899
0.054 0.442 0.896
0.052 0.443 0.893
0.049 0.449 0.891
0.049 -0.401 0.891
0.051 -0.403 0.894
0.053 -0.403 0.896
0.056 -0.41 0.899
0.058 -0.41 0.902
0.061 -0.413 0.904
0.063 -0.411 0.907
0.065 -0.412 0.91
0.068 -0.414 0.912
0.07 -0.416 0.915
0.073 -0.412 0.918
0.076 -0.422 0.921
0.078 -0.423 0.924
0.081 -0.428 0.927
0.084 -0.428 0.93
0.086 -0.425 0.932
0.089 -0.427 0.935
0.091 -0.426 0.938
0.095 -0.435 0.942
0.097 -0.43 0.944
0.099 -0.428 0.947
0.103 -0.435 0.951
0.106 -0.441 0.954
0.108 -0.436 0.957
0.11 -0.434 0.959
0.114 -0.44 0.963
0.117 -0.44 0.966
0.119 -0.44 0.969
0.122 -0.441 0.972
0.125 -0.441 0.976
0.129 -0.449 0.98
0.132 -0.449 0.983
0.136 -0.454 0.987
0.139 -0.454 0.991
0.141 -0.452 0.994
0.144 -0.452 0.997
0.148 -0.457 1.001
0.151 -0.458 1.005
0.156 -0.466 1.01
0.159 -0.464 1.013
0.162 -0.464 1.016
0.166 -0.47 1.021
0.17 -0.471 1.025
0.174 -0.474 1.029
0.177 -0.474 1.033
0.182 -0.479 1.038
0.185 -0.481 1.042
0.191 -0.487 1.048
0.193 -0.483 1.051
0.196 -0.482 1.054
0.202 -0.49 1.061
0.204 -0.487 1.063
0.211 -0.495 1.07
0.216 -0.5 1.076
0.219 -0.498 1.079
0.225 -0.506 1.086
0.227 -0.501 1.088
0.233 -0.507 1.095
0.238 -0.51 1.101
0.245 -0.517 1.108
0.247 -0.514 1.111
0.253 -0.518 1.117
0.259 -0.522 1.124
0.262 -0.52 1.127
0.268 -0.523 1.133
0.274 -0.528 1.14
0.276 -0.523 1.143
0.285 -0.534 1.153
0.291 -0.536 1.159
0.298 -0.541 1.167
0.3 -0.536 1.169
0.305 -0.536 1.174
0.315 -0.548 1.186
0.321 -0.55 1.193
0.327 -0.552 1.199
0.333 -0.553 1.206
0.339 -0.555 1.212
0.347 -0.559 1.221
0.357 -0.568 1.232
0.365 -0.573 1.241
0.371 -0.573 1.248
0.382 -0.582 1.26
0.393 -0.59 1.272
0.4 -0.592 1.279
0.411 -0.6 1.292
0.418 -0.601 1.299
0.428 -0.607 1.311
0.434 -0.606 1.317
0.446 -0.614 1.33
0.458 -0.622 1.344
0.472 -0.631 1.359
0.483 -0.637 1.372
0.496 -0.644 1.386
0.507 -0.648 1.398
0.525 -0.663 1.418
0.537 -0.667 1.431
0.551 -0.674 1.447
0.568 -0.686 1.466
0.591 -0.703 1.491
0.604 -0.708 1.506
0.608 -0.7 1.51
0.628 -0.712 1.532
0.733 -0.827 1.648
0.89 -0.998 1.822
0.798 -0.873 1.72
0.769 -0.825 1.688
0.764 -0.804 1.682
0.763 -0.788 1.681
0.827 -0.843 1.752
0.836 -0.838 1.762
0.882 -0.87 1.813
0.908 -0.881 1.842
0.919 -0.876 1.854
0.995 -0.934 1.938
1.07 -0.99 2.021
0.963 -0.869 1.903
0.863 -0.759 1.792
1.013 -0.881 1.958
1.022 -0.872 1.968
1.061 -0.889 2.011
1.216 -1.005 2.182
1.239 -1.004 2.207
1.246 -0.989 2.215
1.369 -1.069 2.351
1.733 -1.335 2.754
1.047 -0.775 1.996
1.103 -0.801 2.058
1.543 -1.111 2.544
1.543 -1.087 2.544
1.678 -1.159 2.693
1.72 -1.162 2.74
1.718 -1.135 2.738
2.114 -1.371 3.175
2.217 -1.406 3.29
2.33 -1.444 3.415
2.445 -1.48 3.542
2.574 -1.522 3.685
2.755 -1.59 3.884
3.052 -1.719 4.213
3.042 -1.669 4.202
3.059 -1.634 4.221
3.039 -1.579 4.198
3.06 -1.546 4.222
3.038 -1.491 4.197
3.054 -1.456 4.215
3.037 -1.405 4.197
3.051 -1.369 4.212
3.035 -1.319 4.194
3.056 -1.286 4.218
3.04 -1.237 4.2
3.059 -1.203 4.221
3.042 -1.154 4.202
3.055 -1.118 4.217
3.038 -1.07 4.197
3.05 -1.033 4.211
3.039 -0.989 4.199
3.051 -0.952 4.212
3.033 -0.906 4.193
3.05 -0.87 4.211
3.03 -0.824 4.188
3.047 -0.788 4.208
3.027 -0.743 4.185
3.042 -0.707 4.202
3.029 -0.664 4.187
3.045 -0.628 4.205
3.037 -0.587 4.196
3.045 -0.549 4.206
3.044 -0.509 4.204
3.049 -0.47 4.21
3.045 -0.43 4.206
3.062 -0.393 4.224
3.048 -0.352 4.208
3.061 -0.314 4.223
3.048 -0.274 4.209
3.064 -0.236 4.227
3.049 -0.195 4.21
3.062 -0.157 4.225
3.047 -0.117 4.207
3.061 -0.078 4.223
3.04 -0.039 4.2
3.061 -0 4.223
3.041 0.039 4.201
3.058 0.078 4.22
3.036 0.117 4.195
3.06 0.157 4.222
3.037 0.195 4.196
3.054 0.235 4.216
3.041 0.273 4.201
3.051 0.313 4.212
3.043 0.351 4.203
3.052 0.392 4.213
3.037 0.429 4.197
3.052 0.471 4.214
3.038 0.508 4.198
3.053 0.55 4.214
3.039 0.587 4.198
3.053 0.63 4.214
3.038 0.666 4.197
3.052 0.709 4.214
3.036 0.746 4.196
3.057 0.791 4.218
3.04 0.827 4.199
3.052 0.871 4.214
3.036 0.906 4.195
3.054 0.953 4.216
3.037 0.988 4.197
3.05 1.033 4.211
3.038 1.07 4.197
3.05 1.116 4.211
3.035 1.152 4.195
3.003 1.18 4.159
2.948 1.199 4.098
2.89 1.215 4.034
2.841 1.233 3.98
2.787 1.248 3.92
2.74 1.265 3.868
2.69 1.28 3.812
2.648 1.297 3.767
2.602 1.311 3.715
2.559 1.326 3.668
2.516 1.339 3.621
2.479 1.355 3.579
2.436 1.366 3.532
2.398 1.38 3.49
2.36 1.392 3.447
2.319 1.402 3.402
2.284 1.415 3.363
2.253 1.429 3.329
2.222 1.443 3.295
2.187 1.453 3.257
2.151 1.462 3.216
2.12 1.473 3.182
2.089 1.484 3.148
2.053 1.49 3.108
2.023 1.5 3.075
1.994 1.51 3.043
1.964 1.519 3.01
1.94 1.531 2.983
1.91 1.538 2.95
1.884 1.549 2.921
1.855 1.555 2.889
1.829 1.564 2.861
1.805 1.573 2.833
1.779 1.582 2.805
1.754 1.589 2.778
1.728 1.596 2.749
1.709 1.608 2.727
1.678 1.608 2.693
1.658 1.618 2.671
1.638 1.629 2.649
1.613 1.634 2.622
1.594 1.644 2.601
1.568 1.646 2.572
1.549 1.655 2.55
1.529 1.663 2.528
1.509 1.671 2.506
1.485 1.673 2.48
1.466 1.681 2.458
1.446 1.687 2.436
1.426 1.693 2.415
1.407 1.7 2.393
1.388 1.705 2.372
1.368 1.71 2.35
1.351 1.718 2.332
1.331 1.722 2.31
1.312 1.726 2.288
1.297 1.736 2.272
1.278 1.739 2.251
1.263 1.749 2.235
1.244 1.752 2.213
1.225 1.754 2.192
1.209 1.761 2.175
1.195 1.77 2.159
1.176 1.771 2.138
1.161 1.779 2.122
1.143 1.781 2.101
1.129 1.789 2.086
1.115 1.797 2.07
1.096 1.796 2.049
1.082 1.804 2.034
1.063 1.803 2.013
1.053 1.816 2.002
1.034 1.815 1.981
1.02 1.821 1.966
1.006 1.827 1.95
0.994 1.838 1.937
0.978 1.838 1.919
0.963 1.842 1.902
0.945 1.841 1.883
0.92 1.822 1.855
0.721 1.431 1.634
0.705 1.425 1.617
0.685 1.408 1.595
0.637 1.325 1.542
0.612 1.293 1.514
0.602 1.295 1.503
0.598 1.31 1.498
0.595 1.329 1.495
0.609 1.392 1.511
0.61 1.423 1.513
0.601 1.427 1.502
0.598 1.448 1.499
0.195 0.395 1.053
0.245 0.54 1.108
0.21 0.453 1.07
0.196 0.422 1.054
0.193 0.423 1.051
0.191 0.426 1.048
0.188 0.427 1.045
0.182 0.416 1.038
0.18 0.42 1.036
0.175 0.414 1.031
0.173 0.417 1.029
0.171 0.419 1.026
0.168 0.42 1.023
0.167 0.427 1.022
0.163 0.422 1.017
0.16 0.423 1.015
0.158 0.425 1.012
0.156 0.428 1.01
0.152 0.426 1.006
0.147 0.417 1
0.146 0.422 0.999
0.141 0.413 0.994
0.14 0.421 0.992
0.137 0.418 0.989
0.135 0.42 0.986
0.133 0.428 0.985
0.13 0.422 0.981
0.129 0.432 0.98
0.125 0.424 0.975
0.122 0.424 0.972
0.12 0.427 0.97
0.117 0.427 0.967
0.115 0.429 0.964
0.113 0.431 0.962
0.11 0.431 0.959
0.107 0.43 0.956
0.104 0.424 0.952
0.102 0.434 0.951
0.1 0.435 0.948
0.097 0.435 0.945
0.094 0.426 0.941
0.091 0.426 0.938
0.09 0.438 0.937
0.086 0.429 0.933
0.085 0.438 0.931
0.082 0.436 0.928
0.079 0.438 0.925
0.077 0.436 0.922
0.074 0.439 0.919
0.072 0.446 0.917
0.069 0.437 0.914
0.067 0.442 0.911
0.064 0.442 0.908
0.061 0.441 0.905
0.059 0.444 0.902
0.056 0.445 0.9
0.054 0.44 0.897
0.051 0.438 0.894
0.049 0.448 0.891
0.048 -0.401 0.891
0.05 -0.411 0.894
0.053 -0.412 0.897
0.055 -0.412 0.899
0.057 -0.41 0.902
0.06 -0.403 0.904
0.062 -0.41 0.907
0.065 -0.412 0.91
0.067 -0.414 0.913
0.07 -0.417 0.916
0.072 -0.423 0.919
0.075 -0.424 0.922
0.078 -0.425 0.925
0.08 -0.428 0.928
0.083 -0.427 0.93
0.085 -0.426 0.933
0.088 -0.427 0.936
0.09 -0.426 0.939
0.093 -0.427 0.942
0.096 -0.43 0.945
0.098 -0.427 0.948
0.1 -0.425 0.95
0.104 -0.431 0.954
0.107 -0.437 0.958
0.109 -0.435 0.96
0.113 -0.44 0.964
0.115 -0.44 0.967
0.118 -0.441 0.97
0.123 -0.451 0.975
0.125 -0.45 0.978
0.128 -0.449 0.981
0.131 -0.448 0.984
0.135 -0.456 0.989
0.137 -0.453 0.991
0.14 -0.452 0.995
0.143 -0.452 0.998
0.147 -0.457 1.002
0.15 -0.458 1.006
0.155 -0.468 1.012
0.157 -0.465 1.014
0.162 -0.473 1.02
0.165 -0.472 1.023
0.169 -0.473 1.027
0.171 -0.472 1.03
0.176 -0.478 1.036
0.179 -0.478 1.039
0.186 -0.488 1.046
0.188 -0.485 1.049
0.194 -0.492 1.055
0.194 -0.483 1.056
0.199 -0.488 1.061
0.203 -0.488 1.065
0.208 -0.493 1.071
0.213 -0.499 1.077
0.217 -0.498 1.081
0.222 -0.504 1.087
0.226 -0.502 1.091
0.231 -0.507 1.097
0.237 -0.513 1.103
0.239 -0.507 1.106
0.245 -0.514 1.113
0.251 -0.518 1.119
0.257 -0.523 1.126
0.26 -0.519 1.129
0.265 -0.522 1.135
0.271 -0.526 1.142
0.277 -0.53 1.148
0.283 -0.535 1.155
0.287 -0.532 1.159
0.294 -0.539 1.168
0.297 -0.536 1.171
0.306 -0.544 1.181
0.312 -0.546 1.188
0.318 -0.55 1.195
0.325 -0.553 1.202
0.331 -0.554 1.209
0.338 -0.558 1.217
0.347 -0.565 1.227
0.351 -0.562 1.231
0.362 -0.573 1.244
0.367 -0.572 1.25
0.379 -0.582 1.263
0.386 -0.585 1.271
0.392 -0.584 1.277
0.404 -0.595 1.291
0.41 -0.594 1.298
0.42 -0.6 1.309
0.431 -0.606 1.321
0.447 -0.621 1.339
0.455 -0.623 1.349
0.468 -0.631 1.363
0.478 -0.636 1.374
0.491 -0.644 1.389
0.508 -0.656 1.407
0.516 -0.656 1.417
0.533 -0.668 1.436
0.546 -0.674 1.451
0.56 -0.681 1.466
0.576 -0.69 1.484
0.592 -0.698 1.502
0.605 -0.703 1.517
0.625 -0.715 1.539
0.702 -0.797 1.626
0.929 -1.053 1.88
0.812 -0.898 1.749
0.754 -0.815 1.684
0.759 -0.805 1.689
0.781 -0.816 1.715
0.822 -0.845 1.76
0.831 -0.84 1.771
0.847 -0.841 1.789
0.911 -0.892 1.86
0.913 -0.877 1.863
0.981 -0.929 1.939
1.02 -0.949 1.983
0.984 -0.896 1.942
0.858 -0.761 1.801
0.991 -0.869 1.95
1.015 -0.874 1.977
1.093 -0.926 2.065
1.195 -0.996 2.179
1.229 -1.005 2.217
1.233 -0.988 2.222
1.308 -1.028 2.305
1.684 -1.307 2.727
1.031 -0.769 1.995
1.067 -0.781 2.036
1.53 -1.111 2.555
1.533 -1.089 2.558
1.645 -1.145 2.684
1.691 -1.152 2.736
1.729 -1.152 2.778
2.097 -1.372 3.191
2.194 -1.403 3.3
2.304 -1.44 3.424
2.412 -1.472 3.545
2.54 -1.514 3.689
2.705 -1.573 3.874
3.002 -1.705 4.207
2.989 -1.653 4.192
3.003 -1.617 4.209
2.989 -1.566 4.192
2.998 -1.527 4.202
2.989 -1.48 4.193
3.005 -1.444 4.21
