# .PCD v0.7 - Point Cloud Data file format
VERSION 0.7
FIELDS x y z
SIZE 4 4 4
TYPE F F F
COUNT 1 1 1
WIDTH 2499
HEIGHT 1
VIEWPOINT 0 0 0 1 0 0 0
POINTS 2499
DATA ascii
1.31 0.729 1.59
1.312 0.745 1.591
1.307 0.758 1.588
1.3 0.77 1.584
1.301 0.787 1.585
1.303 0.804 1.586
1.303 0.821 1.586
1.304 0.838 1.587
1.298 0.85 1.583
1.295 0.865 1.581
1.295 0.882 1.581
1.295 0.9 1.582
1.296 0.918 1.582
1.295 0.935 1.582
0.894 0.64 1.348
0.841 0.61 1.318
0.81 0.596 1.299
0.799 0.598 1.293
0.804 0.614 1.296
0.796 0.618 1.291
0.803 0.636 1.296
0.794 0.639 1.29
0.794 0.651 1.29
0.801 0.669 1.295
0.797 0.677 1.292
0.792 0.685 1.289
0.788 0.693 1.287
0.783 0.701 1.284
0.788 0.718 1.287
0.78 0.723 1.282
0.763 0.717 1.272
0.736 0.701 1.256
0.721 0.698 1.248
0.7 0.687 1.236
0.688 0.686 1.229
0.667 0.674 1.216
0.652 0.669 1.208
0.641 0.667 1.201
0.624 0.659 1.192
0.607 0.65 1.182
0.598 0.649 1.176
0.583 0.642 1.167
0.566 0.632 1.158
0.553 0.626 1.15
0.54 0.62 1.143
0.536 0.626 1.14
0.542 0.645 1.144
0.539 0.653 1.142
0.52 0.637 1.131
0.516 0.643 1.129
0.515 0.653 1.128
0.507 0.652 1.123
0.496 0.648 1.117
0.489 0.65 1.113
0.479 0.646 1.108
0.471 0.644 1.103
0.465 0.646 1.099
0.456 0.643 1.094
0.447 0.64 1.089
0.438 0.635 1.083
0.429 0.632 1.078
0.425 0.637 1.076
0.416 0.633 1.071
0.412 0.638 1.068
0.401 0.629 1.062
0.392 0.625 1.057
0.388 0.629 1.054
0.379 0.624 1.049
0.37 0.617 1.044
0.366 0.621 1.041
0.36 0.622 1.038
0.351 0.616 1.033
0.347 0.62 1.031
0.342 0.623 1.028
0.334 0.617 1.023
0.326 0.612 1.019
0.322 0.614 1.016
0.314 0.61 1.011
0.31 0.613 1.009
0.305 0.614 1.006
0.297 0.608 1.001
0.289 0.601 0.997
0.284 0.602 0.994
0.281 0.607 0.992
0.272 0.597 0.987
0.268 0.6 0.985
0.263 0.602 0.982
0.259 0.604 0.979
0.252 0.598 0.975
0.247 0.598 0.972
0.243 0.601 0.97
0.238 0.602 0.967
0.231 0.593 0.963
0.226 0.595 0.96
0.22 0.589 0.957
0.216 0.594 0.955
0.21 0.586 0.951
0.205 0.588 0.948
0.2 0.587 0.945
0.194 0.581 0.942
0.189 0.579 0.939
0.186 0.583 0.937
0.181 0.584 0.934
0.175 0.576 0.931
0.171 0.578 0.928
0.167 0.579 0.926
0.162 0.579 0.923
0.157 0.572 0.92
0.152 0.572 0.917
0.148 0.574 0.915
0.144 0.573 0.912
0.138 0.567 0.909
0.134 0.565 0.907
0.13 0.566 0.904
0.125 0.567 0.902
0.121 0.565 0.899
0.117 0.565 0.897
0.113 0.567 0.894
0.108 0.563 0.892
0.104 0.56 0.889
0.099 0.558 0.887
0.095 0.566 0.884
0.091 0.566 0.882
0.087 0.565 0.879
0.082 0.557 0.877
0.078 0.559 0.874
0.074 0.561 0.872
0.073 -1.095 0.873
0.081 -1.096 0.878
0.089 -1.087 0.882
0.098 -1.09 0.887
0.106 -1.093 0.892
0.114 -1.099 0.897
0.122 -1.086 0.902
0.13 -1.09 0.907
0.138 -1.085 0.912
0.146 -1.075 0.916
0.154 -1.074 0.921
0.162 -1.071 0.925
0.17 -1.07 0.93
0.178 -1.074 0.935
0.186 -1.067 0.94
0.194 -1.066 0.945
0.202 -1.068 0.95
0.211 -1.074 0.955
0.219 -1.071 0.959
0.228 -1.075 0.965
0.236 -1.074 0.97
0.243 -1.065 0.974
0.251 -1.065 0.979
0.258 -1.055 0.983
1.025 -5.212 1.44
1.04 -5.075 1.449
1.079 -5.073 1.472
1.127 -5.109 1.501
1.614 -7.193 1.791
1.611 -6.923 1.789
1.701 -7.072 1.843
1.765 -7.102 1.881
1.827 -7.121 1.918
1.894 -7.156 1.958
2.001 -7.342 2.022
2.079 -7.405 2.068
2.155 -7.459 2.113
2.219 -7.464 2.151
1.892 -6.148 1.956
1.93 -6.104 1.979
1.962 -6.041 1.998
2.007 -6.021 2.025
2.069 -6.053 2.062
2.585 -7.425 2.37
2.647 -7.416 2.407
2.709 -7.408 2.444
2.773 -7.405 2.482
2.836 -7.396 2.519
2.897 -7.382 2.555
2.962 -7.381 2.595
2.96 -7.206 2.593
2.972 -7.074 2.6
3.034 -7.066 2.637
3.098 -7.062 2.675
1.935 -4.253 1.982
1.95 -4.198 1.992
1.937 -4.081 1.984
1.935 -3.992 1.982
1.975 -3.994 2.006
2.024 -4.014 2.035
2.06 -4.007 2.057
2.103 -4.012 2.082
2.145 -4.013 2.107
2.19 -4.021 2.134
2.239 -4.035 2.163
2.27 -4.015 2.182
2.505 -4.36 2.322
4.181 -7.226 3.321
4.258 -7.223 3.367
4.33 -7.211 3.41
4.403 -7.199 3.453
4.48 -7.192 3.499
4.556 -7.183 3.544
4.633 -7.174 3.59
4.711 -7.165 3.637
3.038 -4.498 2.639
3.031 -4.407 2.636
3.039 -4.341 2.64
3.058 -4.291 2.652
1.747 -2.363 1.87
1.741 -2.314 1.867
1.738 -2.269 1.865
1.734 -2.225 1.863
1.73 -2.18 1.86
1.725 -2.136 1.857
1.725 -2.098 1.857
1.717 -2.052 1.852
1.715 -2.014 1.851
1.714 -1.978 1.851
1.714 -1.944 1.85
1.7 -1.894 1.842
1.699 -1.86 1.841
1.695 -1.823 1.839
1.696 -1.793 1.84
1.704 -1.77 1.845
1.705 -1.741 1.845
1.7 -1.706 1.842
1.7 -1.676 1.842
1.696 -1.642 1.84
1.69 -1.607 1.836
1.689 -1.579 1.836
1.689 -1.551 1.836
1.682 -1.517 1.832
1.683 -1.49 1.832
1.676 -1.458 1.828
1.675 -1.431 1.827
1.674 -1.404 1.827
1.672 -1.377 1.825
1.669 -1.35 1.824
1.662 -1.319 1.82
1.666 -1.299 1.822
1.662 -1.272 1.82
1.665 -1.25 1.822
1.662 -1.224 1.82
1.652 -1.193 1.813
1.787 -1.271 1.894
1.828 -1.277 1.919
1.863 -1.277 1.939
1.901 -1.279 1.962
1.946 -1.285 1.989
1.982 -1.283 2.01
2.023 -1.284 2.035
2.048 -1.274 2.049
2.086 -1.273 2.073
5.432 -3.317 4.066
5.424 -3.243 4.062
5.411 -3.166 4.054
5.409 -3.097 4.053
5.407 -3.028 4.051
5.4 -2.958 4.048
5.387 -2.884 4.039
5.385 -2.818 4.039
5.365 -2.743 4.027
5.376 -2.684 4.033
5.347 -2.606 4.016
5.343 -2.541 4.013
5.341 -2.478 4.012
5.335 -2.413 4.009
5.33 -2.349 4.006
5.326 -2.287 4.003
5.32 -2.223 4
5.323 -2.164 4.002
5.305 -2.097 3.99
5.307 -2.039 3.992
5.294 -1.975 3.984
5.29 -1.915 3.982
5.284 -1.855 3.978
5.286 -1.798 3.979
5.278 -1.737 3.974
5.267 -1.677 3.968
5.259 -1.618 3.963
5.263 -1.562 3.965
5.252 -1.503 3.959
5.248 -1.446 3.957
5.237 -1.388 3.95
5.231 -1.331 3.947
5.226 -1.275 3.944
5.221 -1.219 3.94
5.245 -1.17 3.955
5.253 -1.118 3.96
1.538 -0.301 1.746
1.519 -0.282 1.735
1.506 -0.264 1.727
1.507 -0.25 1.727
1.505 -0.234 1.726
1.516 -0.221 1.732
1.507 -0.205 1.727
1.543 -0.195 1.749
1.626 -0.19 1.798
1.659 -0.178 1.818
1.667 -0.162 1.822
1.675 -0.147 1.827
1.684 -0.131 1.833
1.676 -0.114 1.828
1.68 -0.098 1.83
1.675 -0.081 1.827
1.686 -0.066 1.834
1.695 -0.049 1.839
5.127 -0.103 3.884
5.145 -0.052 3.895
5.133 -0 3.888
5.141 0.051 3.893
5.113 0.102 3.876
5.113 0.154 3.876
5.101 0.204 3.869
5.162 0.259 3.906
5.114 0.308 3.877
5.086 0.357 3.86
5.071 0.407 3.851
5.068 0.458 3.85
5.057 0.508 3.843
5.056 0.558 3.842
5.051 0.609 3.839
5.052 0.66 3.84
5.039 0.71 3.832
5.048 0.762 3.837
5.036 0.812 3.83
5.037 0.864 3.831
5.031 0.914 3.827
5.033 0.966 3.828
5.011 1.014 3.815
5.024 1.068 3.823
5.005 1.116 3.812
2.158 0.494 2.115
2.142 0.512 2.106
2.164 0.54 2.119
2.146 0.557 2.108
2.129 0.575 2.098
2.105 0.59 2.084
2.097 0.609 2.079
2.078 0.625 2.067
2.058 0.641 2.056
1.415 0.448 1.672
1.31 0.427 1.61
1.315 0.442 1.613
1.312 0.455 1.611
1.308 0.467 1.609
1.312 0.483 1.611
1.31 0.496 1.61
1.306 0.508 1.607
1.308 0.523 1.609
1.305 0.536 1.607
1.308 0.552 1.609
1.304 0.564 1.606
1.307 0.58 1.608
1.31 0.597 1.61
1.306 0.609 1.607
1.308 0.625 1.609
1.304 0.638 1.606
1.306 0.654 1.607
1.301 0.666 1.604
1.304 0.684 1.606
1.298 0.695 1.602
1.3 0.712 1.604
1.302 0.729 1.605
1.295 0.741 1.601
1.298 0.758 1.603
1.298 0.774 1.603
1.3 0.792 1.604
1.294 0.804 1.6
1.293 0.82 1.6
1.294 0.837 1.6
1.292 0.853 1.599
1.293 0.87 1.599
1.286 0.882 1.596
1.294 0.905 1.6
1.287 0.918 1.596
1.287 0.935 1.596
0.992 0.722 1.421
0.836 0.61 1.327
0.809 0.6 1.311
0.796 0.6 1.304
0.801 0.616 1.307
0.796 0.623 1.304
0.79 0.629 1.3
0.789 0.64 1.3
0.781 0.644 1.295
0.801 0.674 1.307
0.793 0.678 1.302
0.788 0.686 1.299
0.788 0.699 1.299
0.778 0.701 1.293
0.774 0.709 1.29
0.767 0.714 1.286
0.758 0.718 1.281
0.731 0.701 1.264
0.715 0.696 1.255
0.697 0.689 1.244
0.684 0.687 1.237
0.668 0.681 1.227
0.651 0.672 1.217
0.634 0.664 1.207
0.617 0.656 1.197
0.603 0.65 1.188
0.594 0.65 1.183
0.571 0.633 1.169
0.567 0.639 1.167
0.549 0.626 1.156
0.537 0.622 1.149
0.533 0.627 1.147
0.548 0.659 1.156
0.53 0.646 1.145
0.517 0.638 1.137
0.516 0.648 1.137
0.507 0.646 1.131
0.507 0.658 1.131
0.497 0.655 1.125
0.486 0.65 1.119
0.477 0.646 1.113
0.467 0.643 1.108
0.462 0.647 1.105
0.453 0.644 1.099
0.444 0.64 1.094
0.439 0.644 1.091
0.431 0.641 1.086
0.422 0.637 1.08
0.417 0.641 1.078
0.408 0.636 1.072
0.398 0.63 1.066
0.394 0.633 1.064
0.385 0.63 1.059
0.376 0.624 1.053
0.372 0.627 1.051
0.363 0.622 1.046
0.357 0.622 1.042
0.349 0.616 1.037
0.341 0.612 1.032
0.336 0.614 1.029
0.331 0.617 1.027
0.324 0.612 1.022
0.319 0.614 1.019
0.311 0.609 1.015
0.304 0.603 1.01
0.299 0.605 1.007
0.295 0.608 1.005
0.287 0.601 1
0.282 0.603 0.997
0.278 0.605 0.995
0.274 0.608 0.992
0.266 0.6 0.988
0.261 0.602 0.985
0.253 0.593 0.98
0.25 0.598 0.978
0.245 0.599 0.975
0.238 0.593 0.971
0.234 0.593 0.968
0.229 0.595 0.966
0.225 0.597 0.963
0.218 0.59 0.959
0.215 0.594 0.957
0.208 0.586 0.953
0.204 0.588 0.95
0.199 0.588 0.948
0.193 0.581 0.944
0.188 0.579 0.941
0.184 0.582 0.939
0.178 0.575 0.935
0.173 0.574 0.932
0.169 0.577 0.93
0.165 0.58 0.928
0.161 0.579 0.925
0.155 0.572 0.922
0.151 0.571 0.919
0.147 0.574 0.917
0.142 0.574 0.914
0.138 0.574 0.911
0.133 0.566 0.908
0.128 0.565 0.906
0.124 0.567 0.903
0.12 0.565 0.901
0.116 0.566 0.898
0.112 0.568 0.896
0.107 0.572 0.893
0.103 0.56 0.89
0.098 0.559 0.888
0.094 0.557 0.885
0.09 0.557 0.883
0.086 0.566 0.88
0.081 0.557 0.878
0.077 0.558 0.875
0.073 0.56 0.873
0.073 -1.094 0.873
0.081 -1.086 0.878
0.089 -1.088 0.883
0.097 -1.09 0.888
0.106 -1.092 0.893
0.114 -1.091 0.897
0.122 -1.094 0.902
0.13 -1.091 0.907
0.137 -1.076 0.912
0.145 -1.076 0.917
0.153 -1.074 0.921
0.161 -1.072 0.926
0.169 -1.07 0.931
0.178 -1.074 0.936
0.186 -1.077 0.941
0.194 -1.076 0.946
0.203 -1.078 0.951
0.21 -1.074 0.956
0.218 -1.071 0.96
0.227 -1.076 0.966
0.235 -1.074 0.97
0.242 -1.065 0.975
0.25 -1.065 0.98
0.258 -1.064 0.984
1.023 -5.215 1.444
1.04 -5.089 1.454
1.077 -5.075 1.476
1.122 -5.099 1.503
1.609 -7.189 1.796
1.609 -6.93 1.796
1.696 -7.067 1.848
1.762 -7.104 1.887
1.826 -7.134 1.926
1.891 -7.16 1.965
1.986 -7.299 2.022
2.093 -7.473 2.086
2.151 -7.462 2.122
2.214 -7.464 2.159
2.272 -7.452 2.194
1.926 -6.105 1.986
1.957 -6.04 2.005
2.001 -6.017 2.031
2.056 -6.027 2.064
2.58 -7.426 2.379
2.641 -7.417 2.416
2.703 -7.407 2.453
2.764 -7.397 2.49
2.826 -7.386 2.527
2.891 -7.385 2.566
2.956 -7.38 2.605
2.963 -7.23 2.609
2.965 -7.073 2.61
3.028 -7.068 2.648
3.088 -7.055 2.684
3.154 -7.054 2.724
1.955 -4.217 2.003
1.944 -4.106 1.997
1.936 -4.002 1.992
1.97 -3.993 2.013
2.015 -4.005 2.04
2.06 -4.015 2.067
2.102 -4.018 2.092
2.143 -4.02 2.117
2.19 -4.03 2.145
2.227 -4.021 2.167
2.276 -4.035 2.197
2.493 -4.347 2.327
4.173 -7.226 3.336
4.249 -7.223 3.382
4.322 -7.212 3.425
4.398 -7.206 3.471
4.475 -7.2 3.518
4.547 -7.184 3.561
4.624 -7.174 3.607
4.703 -7.169 3.655
4.781 -7.158 3.701
3.025 -4.408 2.647
3.047 -4.361 2.66
3.041 -4.277 2.656
1.746 -2.367 1.878
1.743 -2.323 1.877
1.74 -2.277 1.874
1.736 -2.232 1.872
1.733 -2.188 1.87
1.721 -2.135 1.863
1.722 -2.099 1.863
1.72 -2.06 1.862
1.718 -2.022 1.861
1.711 -1.979 1.857
1.71 -1.944 1.857
1.702 -1.901 1.852
1.7 -1.866 1.851
1.698 -1.83 1.849
1.698 -1.799 1.849
1.705 -1.775 1.853
1.702 -1.742 1.852
1.696 -1.705 1.848
1.696 -1.676 1.848
1.693 -1.643 1.846
1.692 -1.613 1.846
1.687 -1.58 1.843
1.687 -1.552 1.843
1.686 -1.524 1.842
1.679 -1.49 1.838
1.678 -1.463 1.837
1.678 -1.437 1.837
1.675 -1.409 1.836
1.667 -1.376 1.831
1.665 -1.35 1.83
1.664 -1.324 1.829
1.662 -1.298 1.828
1.664 -1.276 1.829
1.661 -1.25 1.827
1.658 -1.224 1.825
1.657 -1.2 1.824
1.785 -1.272 1.901
1.828 -1.28 1.928
1.866 -1.282 1.95
1.904 -1.283 1.973
1.94 -1.283 1.995
1.981 -1.285 2.02
2.033 -1.294 2.05
2.048 -1.277 2.06
2.082 -1.273 2.08
5.43 -3.323 4.091
5.42 -3.247 4.085
5.409 -3.172 4.078
5.408 -3.103 4.078
5.403 -3.033 4.075
5.4 -2.964 4.073
5.389 -2.892 4.067
5.381 -2.822 4.062
5.372 -2.752 4.057
5.37 -2.687 4.055
5.353 -2.615 4.045
5.347 -2.549 4.042
5.338 -2.481 4.036
5.334 -2.418 4.034
5.329 -2.354 4.031
5.321 -2.289 4.026
5.319 -2.228 4.025
5.32 -2.168 4.025
5.303 -2.101 4.015
5.306 -2.042 4.017
5.298 -1.98 4.012
5.297 -1.922 4.011
5.286 -1.859 4.005
5.28 -1.8 4.001
5.271 -1.739 3.996
5.271 -1.682 3.996
5.259 -1.621 3.989
5.253 -1.563 3.985
5.249 -1.505 3.982
5.246 -1.449 3.981
5.232 -1.39 3.972
5.236 -1.335 3.975
5.223 -1.277 3.967
5.225 -1.223 3.968
5.239 -1.172 3.977
5.224 -1.114 3.968
1.528 -0.299 1.747
1.537 -0.286 1.753
1.509 -0.265 1.736
1.51 -0.251 1.736
1.509 -0.235 1.736
1.519 -0.222 1.742
1.512 -0.206 1.737
1.579 -0.2 1.778
1.64 -0.192 1.814
1.657 -0.178 1.825
1.663 -0.162 1.828
1.672 -0.147 1.833
1.677 -0.131 1.837
1.672 -0.114 1.834
1.667 -0.097 1.831
1.667 -0.081 1.831
1.676 -0.065 1.836
1.699 -0.05 1.85
1.772 -0.035 1.893
5.11 -0.051 3.899
5.117 -0 3.904
5.098 0.051 3.892
5.111 0.103 3.9
5.133 0.155 3.913
5.096 0.205 3.891
5.111 0.257 3.9
5.11 0.308 3.899
5.077 0.357 3.879
5.07 0.408 3.875
5.066 0.458 3.873
5.057 0.509 3.867
5.058 0.56 3.868
5.048 0.61 3.862
5.057 0.662 3.867
5.038 0.711 3.856
5.041 0.763 3.858
5.033 0.813 3.853
5.029 0.864 3.85
5.017 0.914 3.843
5.023 0.966 3.847
5.005 1.015 3.836
5.014 1.068 3.841
5.005 1.119 3.836
2.166 0.497 2.13
2.148 0.515 2.12
2.132 0.533 2.11
2.146 0.558 2.118
2.124 0.575 2.105
2.112 0.593 2.098
2.094 0.61 2.087
2.079 0.627 2.078
2.061 0.643 2.067
1.397 0.443 1.668
1.309 0.427 1.616
1.313 0.442 1.618
1.309 0.455 1.616
1.306 0.467 1.613
1.31 0.483 1.616
1.306 0.496 1.614
1.309 0.511 1.616
1.306 0.524 1.614
1.31 0.54 1.616
1.306 0.552 1.614
1.308 0.568 1.615
1.304 0.58 1.613
1.307 0.597 1.615
1.303 0.609 1.612
1.305 0.625 1.613
1.3 0.637 1.61
1.303 0.654 1.612
1.307 0.671 1.614
1.301 0.683 1.611
1.296 0.696 1.607
1.305 0.717 1.613
1.299 0.729 1.61
1.302 0.746 1.611
1.294 0.758 1.607
1.295 0.774 1.607
1.297 0.792 1.608
1.297 0.808 1.608
1.291 0.821 1.605
1.292 0.837 1.605
1.29 0.853 1.604
1.29 0.87 1.604
1.29 0.887 1.604
1.291 0.905 1.605
1.284 0.918 1.601
1.283 0.934 1.6
1.28 0.95 1.598
0.858 0.629 1.344
0.827 0.616 1.326
0.801 0.606 1.31
0.798 0.614 1.308
0.794 0.623 1.306
0.79 0.63 1.304
0.792 0.643 1.305
0.787 0.651 1.302
0.796 0.671 1.307
0.794 0.682 1.306
0.792 0.691 1.305
0.786 0.698 1.301
0.784 0.709 1.3
0.774 0.711 1.294
0.772 0.722 1.293
0.766 0.728 1.289
0.728 0.7 1.266
0.717 0.7 1.26
0.693 0.687 1.246
0.682 0.686 1.239
0.659 0.671 1.225
0.646 0.669 1.217
0.633 0.665 1.209
0.614 0.653 1.198
0.601 0.649 1.19
0.591 0.649 1.184
0.569 0.632 1.171
0.562 0.633 1.167
0.548 0.627 1.159
0.542 0.629 1.155
0.532 0.627 1.149
0.556 0.672 1.163
0.525 0.64 1.145
0.518 0.642 1.141
0.513 0.645 1.137
0.511 0.655 1.136
0.504 0.656 1.132
0.496 0.655 1.127
0.484 0.649 1.12
0.475 0.646 1.114
0.466 0.643 1.109
0.461 0.647 1.106
0.452 0.643 1.1
0.443 0.641 1.096
0.439 0.645 1.093
0.429 0.64 1.087
0.421 0.638 1.082
0.412 0.633 1.077
0.402 0.627 1.071
0.397 0.63 1.068
0.388 0.625 1.062
0.384 0.629 1.06
0.375 0.624 1.055
0.371 0.627 1.052
0.362 0.622 1.047
0.356 0.622 1.043
0.348 0.616 1.038
0.344 0.62 1.036
0.336 0.615 1.031
0.331 0.617 1.028
0.323 0.612 1.023
0.318 0.614 1.02
0.311 0.609 1.016
0.306 0.611 1.013
0.302 0.614 1.01
0.294 0.608 1.006
0.286 0.601 1.001
0.282 0.603 0.998
0.277 0.604 0.995
0.27 0.599 0.991
0.265 0.6 0.989
0.261 0.602 0.986
0.253 0.595 0.981
0.249 0.598 0.979
0.245 0.6 0.976
0.238 0.593 0.972
0.233 0.593 0.969
0.228 0.594 0.966
0.222 0.587 0.962
0.218 0.591 0.96
0.214 0.594 0.958
0.208 0.587 0.954
0.203 0.587 0.951
0.197 0.58 0.947
0.192 0.581 0.945
0.188 0.581 0.942
0.182 0.574 0.938
0.179 0.584 0.937
0.173 0.575 0.933
0.169 0.577 0.931
0.165 0.58 0.928
0.16 0.579 0.926
0.155 0.571 0.922
0.15 0.572 0.92
0.146 0.574 0.917
0.141 0.565 0.914
0.138 0.574 0.912
0.133 0.575 0.909
0.129 0.573 0.907
0.124 0.568 0.904
0.12 0.566 0.901
0.115 0.565 0.898
0.111 0.566 0.896
0.106 0.56 0.893
0.102 0.56 0.891
0.098 0.559 0.888
0.094 0.557 0.885
0.09 0.567 0.883
0.086 0.566 0.881
0.081 0.557 0.878
0.077 0.557 0.875
0.073 0.561 0.873
0.072 -1.094 0.873
0.08 -1.086 0.878
0.088 -1.088 0.883
0.097 -1.09 0.888
0.105 -1.091 0.893
0.113 -1.09 0.898
0.121 -1.085 0.903
0.129 -1.089 0.908
0.136 -1.074 0.913
0.144 -1.072 0.917
0.152 -1.071 0.922
0.16 -1.066 0.927
0.169 -1.074 0.932
0.176 -1.069 0.937
0.185 -1.073 0.942
0.193 -1.073 0.947
0.2 -1.067 0.952
0.209 -1.072 0.957
0.218 -1.079 0.963
0.226 -1.074 0.967
0.234 -1.071 0.972
0.242 -1.071 0.977
0.248 -1.061 0.981
0.256 -1.058 0.986
1.018 -5.212 1.451
1.034 -5.084 1.461
1.071 -5.069 1.484
1.489 -6.915 1.739
1.604 -7.2 1.809
1.606 -6.95 1.811
1.686 -7.057 1.859
1.752 -7.097 1.9
1.82 -7.141 1.941
1.883 -7.165 1.98
1.953 -7.21 2.023
2.083 -7.472 2.102
2.143 -7.47 2.139
2.203 -7.464 2.176
2.264 -7.458 2.213
1.917 -6.105 2.001
1.947 -6.035 2.019
1.995 -6.027 2.049
2.056 -6.057 2.086
2.568 -7.426 2.399
2.629 -7.416 2.436
2.69 -7.406 2.473
2.752 -7.397 2.511
2.816 -7.395 2.55
2.878 -7.384 2.588
2.941 -7.378 2.627
2.952 -7.238 2.633
2.953 -7.077 2.634
3.011 -7.06 2.669
3.077 -7.062 2.709
3.14 -7.055 2.748
3.201 -7.043 2.785
1.937 -4.109 2.013
1.929 -4.008 2.008
1.959 -3.988 2.026
2.008 -4.01 2.056
2.052 -4.019 2.083
2.093 -4.02 2.108
2.136 -4.025 2.135
2.166 -4.005 2.153
2.21 -4.009 2.18
2.477 -4.423 2.343
2.473 -4.332 2.34
4.158 -7.234 3.37
4.23 -7.223 3.414
4.301 -7.211 3.458
4.378 -7.207 3.505
4.45 -7.192 3.548
4.526 -7.183 3.595
4.601 -7.172 3.641
4.682 -7.169 3.69
4.761 -7.161 3.739
4.839 -7.15 3.786
3.027 -4.353 2.679
3.018 -4.263 2.674
1.737 -2.367 1.891
1.734 -2.321 1.889
1.73 -2.275 1.887
1.728 -2.232 1.885
1.728 -2.194 1.885
1.718 -2.142 1.879
1.718 -2.104 1.879
1.71 -2.059 1.875
1.709 -2.021 1.873
1.709 -1.986 1.874
1.701 -1.943 1.869
1.7 -1.907 1.868
1.697 -1.871 1.866
1.69 -1.83 1.862
1.69 -1.799 1.862
1.7 -1.779 1.868
1.695 -1.743 1.865
1.692 -1.71 1.864
1.689 -1.676 1.861
1.69 -1.648 1.862
1.683 -1.613 1.858
1.684 -1.585 1.858
1.683 -1.556 1.858
1.677 -1.523 1.854
1.676 -1.495 1.854
1.669 -1.462 1.849
1.669 -1.436 1.849
1.666 -1.408 1.848
1.665 -1.381 1.847
1.663 -1.354 1.845
1.66 -1.327 1.844
1.66 -1.303 1.844
1.657 -1.277 1.842
1.654 -1.25 1.84
1.65 -1.224 1.837
1.652 -1.203 1.839
1.787 -1.28 1.921
1.82 -1.28 1.941
1.858 -1.283 1.965
1.895 -1.283 1.987
1.942 -1.291 2.016
1.977 -1.288 2.037
2.026 -1.296 2.067
2.045 -1.281 2.079
2.084 -1.28 2.102
5.416 -3.329 4.139
5.408 -3.255 4.134
5.398 -3.18 4.128
5.394 -3.11 4.126
5.385 -3.037 4.12
5.386 -2.97 4.12
5.371 -2.896 4.112
5.371 -2.83 4.111
5.355 -2.756 4.102
5.353 -2.691 4.1
5.331 -2.616 4.087
5.323 -2.549 4.082
5.318 -2.484 4.079
5.315 -2.42 4.077
5.312 -2.357 4.076
5.303 -2.292 4.07
5.3 -2.23 4.068
5.298 -2.169 4.067
5.294 -2.107 4.064
5.294 -2.048 4.064
5.278 -1.982 4.055
5.27 -1.921 4.05
5.266 -1.861 4.047
5.262 -1.802 4.045
5.255 -1.742 4.041
5.255 -1.684 4.04
5.248 -1.625 4.036
5.239 -1.566 4.031
5.234 -1.508 4.027
5.227 -1.45 4.024
5.215 -1.392 4.016
5.218 -1.337 4.018
5.214 -1.281 4.015
5.208 -1.225 4.012
5.219 -1.173 4.019
5.205 -1.115 4.01
5.195 -1.059 4.004
1.531 -0.286 1.765
1.509 -0.267 1.752
1.512 -0.252 1.753
1.506 -0.236 1.75
1.509 -0.222 1.751
1.515 -0.208 1.755
1.618 -0.206 1.818
1.642 -0.193 1.833
1.65 -0.178 1.837
1.658 -0.163 1.843
1.66 -0.146 1.843
1.673 -0.131 1.851
1.66 -0.114 1.844
1.657 -0.097 1.842
1.664 -0.081 1.846
1.663 -0.065 1.845
1.681 -0.049 1.857
1.694 -0.033 1.865
1.758 -0.017 1.904
5.093 -0 3.942
5.098 0.051 3.945
5.091 0.103 3.94
5.114 0.155 3.954
5.119 0.207 3.957
5.176 0.261 3.992
5.085 0.308 3.936
5.062 0.358 3.922
5.053 0.408 3.917
5.052 0.459 3.916
5.046 0.51 3.913
5.044 0.561 3.912
5.033 0.611 3.905
5.036 0.663 3.907
5.021 0.712 3.897
5.026 0.764 3.9
5.024 0.816 3.899
5.019 0.866 3.897
5.007 0.916 3.889
5.008 0.968 3.89
4.996 1.017 3.882
4.996 1.069 3.882
4.987 1.12 3.877
2.157 0.497 2.147
2.136 0.514 2.135
2.127 0.534 2.129
2.112 0.552 2.12
2.093 0.569 2.109
2.094 0.591 2.109
2.08 0.608 2.1
2.074 0.629 2.097
2.061 0.646 2.089
1.356 0.431 1.658
1.309 0.429 1.629
1.306 0.442 1.627
1.311 0.458 1.63
1.307 0.47 1.628
1.304 0.483 1.626
1.299 0.495 1.623
1.304 0.511 1.626
1.3 0.524 1.624
1.303 0.539 1.626
1.3 0.552 1.624
1.304 0.568 1.626
1.298 0.58 1.622
1.301 0.597 1.625
1.304 0.613 1.626
1.299 0.625 1.623
1.295 0.638 1.62
1.297 0.654 1.622
1.3 0.671 1.623
1.294 0.683 1.62
1.296 0.7 1.621
1.298 0.716 1.622
1.292 0.728 1.619
1.295 0.746 1.62
1.295 0.762 1.621
1.297 0.779 1.622
1.291 0.792 1.618
1.291 0.808 1.618
1.285 0.821 1.614
1.29 0.84 1.617
1.284 0.853 1.614
1.284 0.87 1.614
1.284 0.888 1.614
1.285 0.905 1.614
1.285 0.923 1.614
1.284 0.94 1.614
1.276 0.952 1.609
0.926 0.688 1.395
0.826 0.618 1.334
0.794 0.603 1.315
0.792 0.613 1.313
0.785 0.618 1.309
0.779 0.624 1.305
0.787 0.643 1.31
0.777 0.645 1.304
0.779 0.659 1.306
0.79 0.682 1.312
0.781 0.684 1.306
0.783 0.699 1.308
0.776 0.705 1.304
0.774 0.714 1.302
0.763 0.716 1.295
0.765 0.731 1.297
0.757 0.735 1.292
0.711 0.698 1.264
0.694 0.691 1.253
0.673 0.679 1.24
0.655 0.671 1.23
0.645 0.671 1.223
0.63 0.665 1.214
0.615 0.659 1.205
0.604 0.656 1.198
0.587 0.647 1.188
0.566 0.631 1.175
0.56 0.635 1.171
0.546 0.627 1.163
0.535 0.623 1.156
0.528 0.625 1.152
0.562 0.684 1.173
0.518 0.634 1.146
0.516 0.642 1.145
0.514 0.65 1.143
0.508 0.654 1.14
0.501 0.655 1.135
0.493 0.654 1.13
0.483 0.65 1.124
0.477 0.653 1.121
0.463 0.642 1.112
0.458 0.646 1.109
0.45 0.644 1.104
0.441 0.64 1.099
0.432 0.637 1.093
0.427 0.64 1.09
0.418 0.636 1.085
0.41 0.633 1.08
0.405 0.637 1.077
0.395 0.63 1.071
0.386 0.625 1.065
0.382 0.629 1.063
0.374 0.624 1.058
0.369 0.627 1.055
0.361 0.622 1.05
0.354 0.622 1.046
0.347 0.617 1.041
0.342 0.62 1.038
0.333 0.614 1.033
0.329 0.617 1.031
0.321 0.611 1.025
0.317 0.614 1.023
0.309 0.609 1.018
0.305 0.612 1.016
0.3 0.614 1.013
0.292 0.608 1.008
0.285 0.601 1.003
0.28 0.602 1
0.275 0.604 0.998
0.268 0.598 0.993
0.264 0.6 0.991
0.259 0.602 0.988
0.252 0.594 0.983
0.248 0.597 0.981
0.243 0.599 0.978
0.237 0.593 0.974
0.232 0.593 0.971
0.227 0.594 0.968
0.221 0.587 0.964
0.216 0.589 0.962
0.21 0.584 0.958
0.207 0.587 0.956
0.201 0.585 0.952
0.196 0.58 0.949
0.191 0.578 0.946
0.187 0.581 0.943
0.183 0.583 0.941
0.178 0.584 0.938
0.174 0.583 0.935
0.168 0.577 0.932
0.164 0.577 0.929
0.158 0.57 0.926
0.154 0.571 0.923
0.149 0.571 0.921
0.145 0.573 0.918
0.141 0.574 0.916
0.136 0.564 0.912
0.133 0.575 0.91
0.128 0.574 0.908
0.124 0.576 0.905
0.119 0.566 0.902
0.115 0.566 0.899
0.11 0.566 0.897
0.106 0.568 0.894
0.102 0.569 0.892
0.098 0.568 0.889
0.093 0.558 0.886
0.089 0.557 0.884
0.085 0.567 0.881
0.081 0.556 0.879
0.076 0.56 0.876
0.072 0.552 0.873
0.071 -1.084 0.874
0.08 -1.087 0.879
0.088 -1.086 0.884
0.096 -1.089 0.889
0.104 -1.092 0.895
0.112 -1.09 0.9
0.12 -1.085 0.904
0.128 -1.088 0.91
0.135 -1.074 0.914
0.143 -1.071 0.919
0.151 -1.068 0.924
0.159 -1.073 0.929
0.167 -1.071 0.934
0.175 -1.068 0.939
0.183 -1.071 0.944
0.191 -1.072 0.949
0.2 -1.075 0.955
0.207 -1.071 0.959
0.216 -1.077 0.965
0.224 -1.073 0.97
0.231 -1.07 0.974
0.24 -1.071 0.98
0.246 -1.06 0.984
0.254 -1.057 0.988
1.011 -5.217 1.463
1.031 -5.105 1.475
1.065 -5.078 1.497
1.469 -6.87 1.75
1.599 -7.231 1.831
1.612 -7.027 1.839
1.676 -7.067 1.879
1.741 -7.102 1.92
1.803 -7.124 1.959
1.869 -7.16 2
1.932 -7.18 2.04
2.071 -7.483 2.127
2.128 -7.47 2.163
2.188 -7.464 2.2
2.248 -7.458 2.238
1.907 -6.115 2.024
1.939 -6.054 2.044
1.984 -6.037 2.072
2.053 -6.091 2.115
2.55 -7.425 2.427
2.61 -7.415 2.465
2.671 -7.406 2.503
2.732 -7.397 2.541
2.796 -7.394 2.581
2.858 -7.384 2.62
2.921 -7.377 2.659
2.95 -7.285 2.678
2.935 -7.084 2.668
2.997 -7.077 2.707
3.055 -7.062 2.743
3.117 -7.054 2.782
3.177 -7.039 2.82
1.998 -4.276 2.081
1.924 -4.025 2.034
1.946 -3.99 2.048
2 -4.023 2.082
2.041 -4.024 2.108
2.073 -4.01 2.128
2.12 -4.023 2.157
2.295 -4.282 2.267
2.378 -4.356 2.319
2.408 -4.327 2.338
4.058 -7.243 3.371
2.401 -4.153 2.333
4.201 -7.224 3.461
4.272 -7.212 3.505
4.347 -7.205 3.552
4.423 -7.198 3.6
4.495 -7.184 3.645
4.571 -7.174 3.692
4.65 -7.17 3.742
4.726 -7.158 3.79
4.806 -7.15 3.84
2.971 -4.301 2.69
4.962 -7.126 3.938
5.045 -7.119 3.99
1.711 -2.306 1.901
5.208 -7.097 4.092
1.72 -2.238 1.907
1.711 -2.186 1.901
1.713 -2.151 1.903
1.731 -2.137 1.914
1.708 -2.071 1.9
1.717 -2.046 1.905
1.698 -1.988 1.893
1.708 -1.965 1.899
1.689 -1.908 1.887
1.695 -1.883 1.891
1.686 -1.839 1.885
1.685 -1.806 1.885
1.693 -1.785 1.89
1.715 -1.777 1.904
1.683 -1.712 1.884
1.68 -1.679 1.882
1.679 -1.649 1.881
1.674 -1.615 1.878
1.671 -1.584 1.876
1.672 -1.556 1.877
1.665 -1.523 1.873
1.671 -1.501 1.876
1.668 -1.472 1.874
1.673 -1.45 1.877
1.661 -1.414 1.87
1.664 -1.391 1.872
1.65 -1.354 1.863
1.658 -1.335 1.868
1.647 -1.302 1.861
1.649 -1.28 1.863
1.648 -1.255 1.862
1.644 -1.228 1.859
1.641 -1.203 1.857
1.703 -1.226 1.896
1.815 -1.286 1.966
1.851 -1.287 1.989
1.882 -1.284 2.009
1.929 -1.291 2.038
1.972 -1.295 2.065
2.017 -1.299 2.093
2.033 -1.283 2.103
2.066 -1.278 2.124
5.39 -3.337 4.206
5.392 -3.268 4.207
5.375 -3.188 4.196
5.374 -3.12 4.196
5.365 -3.047 4.19
5.364 -2.979 4.189
5.35 -2.904 4.18
5.345 -2.836 4.178
5.337 -2.766 4.172
5.341 -2.704 4.175
5.31 -2.624 4.156
5.309 -2.56 4.155
5.301 -2.493 4.15
5.302 -2.431 4.15
5.289 -2.363 4.142
5.288 -2.302 4.142
5.279 -2.236 4.136
5.28 -2.176 4.137
5.273 -2.113 4.132
5.273 -2.054 4.132
5.26 -1.989 4.124
5.261 -1.931 4.125
5.25 -1.868 4.118
5.248 -1.809 4.117
5.231 -1.746 4.106
5.234 -1.689 4.108
5.227 -1.63 4.104
5.223 -1.572 4.101
5.212 -1.512 4.095
5.208 -1.455 4.092
5.203 -1.398 4.088
5.199 -1.341 4.086
5.192 -1.284 4.082
5.187 -1.228 4.079
5.188 -1.174 4.08
5.178 -1.117 4.073
5.169 -1.061 4.067
5.168 -1.006 4.066
1.51 -0.269 1.775
1.512 -0.254 1.777
1.506 -0.238 1.773
1.513 -0.224 1.777
1.578 -0.218 1.818
1.642 -0.211 1.858
1.643 -0.195 1.858
1.646 -0.179 1.86
1.648 -0.163 1.862
1.653 -0.147 1.865
1.65 -0.13 1.863
1.649 -0.114 1.862
1.644 -0.097 1.859
1.651 -0.081 1.863
1.657 -0.065 1.867
1.672 -0.049 1.877
1.682 -0.033 1.883
1.722 -0.017 1.908
1.709 -0 1.9
5.065 0.051 4.002
5.057 0.103 3.997
5.066 0.154 4.003
5.074 0.206 4.008
5.14 0.261 4.049
5.073 0.309 4.007
5.041 0.359 3.987
5.034 0.409 3.983
5.032 0.461 3.982
5.026 0.511 3.977
5.029 0.563 3.98
5.017 0.613 3.972
5.023 0.666 3.976
5.007 0.715 3.966
5.018 0.768 3.973
4.996 0.817 3.959
4.997 0.869 3.96
4.991 0.919 3.956
4.984 0.97 3.951
4.978 1.021 3.948
4.984 1.074 3.951
4.967 1.123 3.941
4.966 1.175 3.94
2.128 0.516 2.163
2.111 0.534 2.152
2.101 0.553 2.146
2.09 0.572 2.139
2.074 0.589 2.128
2.055 0.605 2.116
2.042 0.623 2.108
2.029 0.641 2.1
1.329 0.426 1.662
1.3 0.429 1.644
1.305 0.445 1.647
1.302 0.458 1.645
1.298 0.47 1.643
1.302 0.486 1.645
1.298 0.498 1.643
1.302 0.514 1.645
1.299 0.527 1.643
1.294 0.539 1.64
1.298 0.555 1.642
1.301 0.571 1.644
1.296 0.584 1.642
1.299 0.6 1.643
1.295 0.613 1.64
1.298 0.629 1.642
1.292 0.641 1.639
1.295 0.658 1.641
1.291 0.671 1.638
1.292 0.687 1.639
1.286 0.699 1.635
1.29 0.717 1.637
1.291 0.733 1.638
1.285 0.746 1.635
1.286 0.762 1.635
1.288 0.779 1.636
1.282 0.792 1.632
1.282 0.808 1.632
1.282 0.825 1.633
1.281 0.84 1.632
1.281 0.858 1.632
1.281 0.875 1.632
1.275 0.888 1.628
1.282 0.91 1.633
1.275 0.923 1.628
1.276 0.941 1.629
1.274 0.957 1.628
1.272 0.974 1.626
0.826 0.623 1.347
0.81 0.621 1.337
0.787 0.614 1.323
0.78 0.619 1.318
0.782 0.632 1.319
0.779 0.641 1.318
0.779 0.652 1.317
0.774 0.659 1.314
0.785 0.682 1.321
0.781 0.69 1.319
0.775 0.697 1.315
0.775 0.709 1.315
0.766 0.712 1.309
0.76 0.719 1.306
0.76 0.732 1.306
0.751 0.735 1.3
0.751 0.748 1.3
0.72 0.726 1.281
0.666 0.678 1.247
0.654 0.675 1.239
0.637 0.668 1.229
0.625 0.665 1.221
0.607 0.655 1.21
0.595 0.651 1.202
0.581 0.645 1.194
0.567 0.638 1.184
0.553 0.631 1.176
0.54 0.625 1.168
0.531 0.624 1.162
0.528 0.63 1.16
0.577 0.711 1.191
0.513 0.632 1.151
0.51 0.64 1.149
0.506 0.645 1.147
0.506 0.656 1.147
0.497 0.654 1.141
0.489 0.654 1.136
0.478 0.649 1.129
0.469 0.646 1.124
0.465 0.651 1.121
0.455 0.647 1.115
0.445 0.642 1.108
0.437 0.64 1.103
0.429 0.637 1.098
0.424 0.64 1.095
0.415 0.636 1.089
0.406 0.633 1.084
0.396 0.626 1.078
0.392 0.629 1.075
0.383 0.624 1.069
0.379 0.629 1.067
0.371 0.624 1.062
0.362 0.618 1.056
0.357 0.621 1.053
0.352 0.622 1.05
0.343 0.616 1.044
0.339 0.619 1.042
0.331 0.613 1.037
0.326 0.617 1.034
0.319 0.613 1.029
0.315 0.615 1.027
0.307 0.609 1.022
0.302 0.611 1.019
0.294 0.604 1.014
0.29 0.607 1.011
0.286 0.61 1.008
0.278 0.603 1.004
0.273 0.605 1.001
0.266 0.598 0.996
0.261 0.599 0.993
0.257 0.6 0.99
0.252 0.602 0.988
0.248 0.604 0.985
0.241 0.598 0.981
0.237 0.601 0.978
0.23 0.592 0.973
0.226 0.596 0.971
0.219 0.588 0.967
0.215 0.591 0.964
0.208 0.583 0.96
0.204 0.585 0.958
0.2 0.587 0.955
0.196 0.588 0.952
0.189 0.58 0.948
0.185 0.58 0.945
0.181 0.583 0.943
0.175 0.574 0.939
0.171 0.575 0.936
0.167 0.577 0.934
0.162 0.575 0.931
0.157 0.57 0.928
0.152 0.57 0.925
0.148 0.571 0.922
0.144 0.572 0.92
0.14 0.573 0.917
0.135 0.571 0.914
0.131 0.575 0.912
0.126 0.566 0.909
0.122 0.568 0.906
0.118 0.567 0.903
0.114 0.567 0.901
0.109 0.566 0.898
0.105 0.567 0.895
0.101 0.562 0.893
0.096 0.558 0.89
0.092 0.559 0.887
0.088 0.558 0.885
0.084 0.555 0.882
0.08 0.558 0.879
0.076 0.56 0.877
0.071 0.552 0.874
0.071 -1.094 0.875
0.079 -1.096 0.88
0.087 -1.087 0.885
0.095 -1.089 0.89
0.103 -1.091 0.895
0.111 -1.089 0.9
0.119 -1.094 0.906
0.127 -1.078 0.91
0.135 -1.083 0.915
0.142 -1.071 0.92
0.15 -1.067 0.925
0.158 -1.072 0.93
0.166 -1.07 0.935
0.173 -1.067 0.94
0.182 -1.07 0.945
0.19 -1.072 0.951
0.198 -1.074 0.956
0.206 -1.07 0.961
0.215 -1.077 0.966
0.222 -1.072 0.971
0.23 -1.071 0.976
0.238 -1.07 0.981
0.246 -1.07 0.986
0.253 -1.06 0.991
1.007 -5.222 1.471
1.031 -5.131 1.486
1.06 -5.076 1.504
1.459 -6.853 1.758
1.595 -7.248 1.845
1.617 -7.089 1.859
1.667 -7.062 1.891
1.73 -7.092 1.931
1.794 -7.125 1.972
1.859 -7.156 2.013
1.923 -7.182 2.054
2.059 -7.473 2.14
2.118 -7.469 2.178
2.178 -7.464 2.216
2.237 -7.458 2.254
1.902 -6.129 2.04
1.928 -6.049 2.057
1.978 -6.045 2.089
2.035 -6.065 2.125
2.538 -7.425 2.445
2.599 -7.417 2.484
2.659 -7.407 2.522
2.719 -7.396 2.561
2.783 -7.394 2.601
2.844 -7.383 2.64
2.91 -7.384 2.682
2.943 -7.301 2.703
2.924 -7.09 2.691
2.979 -7.069 2.726
3.041 -7.061 2.765
3.103 -7.055 2.805
3.162 -7.039 2.843
2.078 -4.476 2.153
1.918 -4.033 2.051
1.938 -3.994 2.064
1.994 -4.029 2.099
2.028 -4.017 2.12
2.099 -4.082 2.166
2.211 -4.222 2.237
2.303 -4.318 2.296
2.336 -4.297 2.317
3.971 -7.257 3.357
2.364 -4.185 2.334
4.109 -7.231 3.445
4.181 -7.223 3.491
4.252 -7.212 3.537
4.327 -7.206 3.584
4.398 -7.192 3.63
4.473 -7.182 3.677
4.553 -7.181 3.728
4.628 -7.169 3.776
4.701 -7.154 3.823
4.784 -7.15 3.875
2.957 -4.301 2.712
4.942 -7.131 3.976
5.023 -7.121 4.027
5.099 -7.104 4.076
5.187 -7.101 4.132
5.265 -7.084 4.182
5.356 -7.081 4.239
5.44 -7.069 4.293
1.777 -2.207 1.961
1.767 -2.156 1.954
1.766 -2.117 1.954
1.771 -2.088 1.957
1.784 -2.066 1.965
1.76 -2.002 1.95
1.819 -2.037 1.988
1.748 -1.919 1.942
1.884 -2.04 2.029
1.903 -2.026 2.041
1.959 -2.051 2.077
1.656 -1.692 1.884
5.598 -5.797 4.393
1.675 -1.653 1.896
5.592 -5.59 4.389
1.667 -1.588 1.891
5.574 -5.378 4.378
1.663 -1.529 1.889
1.758 -1.591 1.949
1.682 -1.492 1.9
1.743 -1.521 1.939
1.673 -1.431 1.895
1.722 -1.448 1.926
1.66 -1.368 1.886
1.688 -1.368 1.904
1.649 -1.31 1.88
1.664 -1.298 1.889
1.649 -1.262 1.879
1.656 -1.244 1.884
1.644 -1.211 1.876
1.751 -1.269 1.945
1.814 -1.291 1.984
1.839 -1.284 2
1.887 -1.294 2.031
1.93 -1.298 2.058
1.967 -1.298 2.082
1.995 -1.29 2.099
2.024 -1.283 2.118
2.068 -1.285 2.146
5.377 -3.345 4.253
5.369 -3.269 4.247
5.361 -3.195 4.242
5.356 -3.124 4.239
5.347 -3.051 4.234
5.342 -2.98 4.23
5.332 -2.908 4.224
5.335 -2.844 4.226
5.323 -2.772 4.218
5.318 -2.704 4.215
5.288 -2.625 4.196
5.294 -2.565 4.2
5.285 -2.497 4.194
5.282 -2.434 4.192
5.272 -2.367 4.186
5.273 -2.306 4.187
5.265 -2.241 4.181
5.271 -2.183 4.185
5.255 -2.116 4.175
5.253 -2.055 4.174
5.238 -1.99 4.164
5.245 -1.934 4.169
5.231 -1.87 4.16
5.23 -1.811 4.159
5.219 -1.75 4.152
5.218 -1.692 4.152
5.207 -1.631 4.144
5.215 -1.577 4.149
5.202 -1.517 4.141
5.199 -1.46 4.139
5.187 -1.4 4.132
5.181 -1.343 4.128
5.177 -1.287 4.125
5.17 -1.23 4.121
5.179 -1.177 4.127
5.167 -1.12 4.119
5.151 -1.062 4.109
5.152 -1.008 4.109
5.14 -0.952 4.102
5.139 -0.898 4.101
1.508 -0.239 1.789
5.131 -0.79 4.096
5.114 -0.734 4.085
1.661 -0.215 1.887
1.644 -0.196 1.876
1.645 -0.18 1.877
1.645 -0.163 1.877
1.642 -0.147 1.875
1.643 -0.13 1.876
1.64 -0.114 1.874
1.637 -0.097 1.872
1.644 -0.081 1.876
1.645 -0.065 1.877
1.65 -0.049 1.88
1.671 -0.033 1.893
1.694 -0.017 1.908
1.713 -0 1.92
1.701 0.017 1.913
5.039 0.103 4.037
5.045 0.154 4.042
5.064 0.207 4.053
5.129 0.262 4.095
5.052 0.309 4.046
5.043 0.36 4.04
5.017 0.41 4.024
5.018 0.461 4.024
5.002 0.511 4.014
5.004 0.563 4.015
5 0.614 4.012
5.001 0.666 4.013
4.995 0.717 4.009
4.997 0.769 4.011
4.988 0.819 4.005
4.982 0.87 4.002
4.985 0.923 4.003
4.971 0.972 3.994
4.975 1.025 3.997
4.967 1.076 3.992
4.965 1.128 3.99
4.952 1.177 3.982
4.957 1.231 3.985
4.953 1.283 3.983
2.096 0.554 2.164
2.081 0.572 2.154
2.066 0.59 2.145
2.053 0.608 2.137
2.043 0.626 2.13
2.021 0.641 2.116
1.313 0.422 1.666
1.301 0.432 1.658
1.291 0.442 1.651
1.295 0.458 1.654
1.291 0.47 1.652
1.296 0.486 1.654
1.292 0.498 1.652
1.296 0.514 1.654
1.292 0.527 1.652
1.296 0.543 1.654
1.291 0.555 1.651
1.295 0.571 1.654
1.282 0.58 1.646
1.293 0.6 1.653
1.288 0.613 1.65
1.292 0.63 1.652
1.286 0.641 1.648
1.289 0.658 1.65
1.291 0.674 1.652
1.294 0.691 1.653
1.289 0.704 1.65
1.291 0.721 1.651
1.285 0.733 1.648
1.286 0.75 1.648
1.287 0.767 1.649
1.282 0.779 1.645
1.282 0.796 1.646
1.282 0.812 1.646
1.276 0.825 1.642
1.281 0.845 1.645
1.274 0.857 1.641
1.275 0.875 1.641
1.276 0.893 1.642
1.276 0.91 1.642
1.269 0.922 1.637
1.27 0.941 1.638
1.268 0.957 1.637
1.267 0.974 1.636
0.861 0.656 1.378
0.817 0.631 1.35
0.783 0.614 1.328
0.779 0.621 1.325
0.778 0.632 1.325
0.778 0.643 1.325
0.774 0.651 1.323
0.777 0.665 1.324
0.778 0.679 1.325
0.774 0.687 1.322
0.775 0.7 1.323
0.765 0.703 1.317
0.764 0.714 1.316
0.763 0.726 1.315
0.753 0.728 1.309
0.749 0.737 1.307
0.748 0.748 1.306
0.739 0.751 1.3
0.669 0.684 1.255
0.644 0.668 1.24
0.633 0.666 1.232
0.616 0.658 1.222
0.604 0.655 1.214
0.592 0.651 1.207
0.578 0.645 1.198
0.558 0.63 1.185
0.55 0.631 1.18
0.538 0.625 1.172
0.53 0.626 1.167
0.525 0.63 1.164
0.552 0.679 1.181
0.51 0.632 1.155
0.508 0.64 1.153
0.505 0.646 1.151
0.502 0.654 1.149
0.493 0.652 1.144
0.487 0.655 1.14
0.476 0.649 1.133
0.467 0.646 1.127
0.458 0.643 1.121
0.453 0.647 1.118
0.443 0.642 1.112
0.439 0.647 1.109
0.426 0.636 1.101
0.418 0.633 1.096
0.413 0.637 1.093
0.404 0.633 1.087
0.4 0.636 1.084
0.39 0.63 1.078
0.381 0.625 1.072
0.377 0.628 1.069
0.369 0.625 1.065
0.36 0.618 1.059
0.354 0.618 1.055
0.35 0.622 1.052
0.341 0.615 1.047
0.337 0.619 1.044
0.329 0.614 1.039
0.325 0.617 1.036
0.318 0.613 1.032
0.313 0.615 1.029
0.305 0.608 1.024
0.3 0.611 1.021
0.296 0.614 1.018
0.288 0.608 1.013
0.284 0.61 1.01
0.276 0.603 1.006
0.272 0.605 1.003
0.264 0.597 0.998
0.26 0.599 0.995
0.256 0.601 0.992
0.251 0.602 0.989
0.244 0.596 0.985
0.24 0.597 0.982
0.236 0.601 0.98
0.228 0.592 0.975
0.225 0.596 0.973
0.218 0.589 0.968
0.213 0.589 0.966
0.207 0.583 0.962
0.203 0.585 0.959
0.197 0.578 0.955
0.193 0.578 0.952
0.19 0.587 0.951
0.184 0.579 0.947
0.18 0.581 0.944
0.174 0.574 0.94
0.171 0.582 0.938
0.166 0.578 0.935
0.161 0.577 0.932
0.156 0.569 0.929
0.153 0.58 0.927
0.147 0.571 0.923
0.143 0.572 0.921
0.139 0.574 0.918
0.134 0.572 0.915
0.13 0.566 0.912
0.125 0.566 0.909
0.121 0.568 0.907
0.117 0.567 0.904
0.113 0.566 0.901
0.108 0.565 0.899
0.104 0.566 0.896
0.1 0.562 0.893
0.096 0.567 0.891
0.092 0.559 0.888
0.087 0.558 0.885
0.083 0.558 0.883
0.079 0.558 0.88
0.075 0.561 0.877
0.071 0.551 0.875
0.07 -1.094 0.875
0.078 -1.095 0.88
0.086 -1.087 0.886
0.094 -1.089 0.891
0.102 -1.092 0.896
0.11 -1.089 0.901
0.118 -1.084 0.906
0.126 -1.088 0.911
0.134 -1.083 0.916
0.142 -1.079 0.921
0.149 -1.067 0.926
0.157 -1.07 0.931
0.165 -1.07 0.936
0.172 -1.067 0.941
0.181 -1.07 0.947
0.189 -1.07 0.952
0.197 -1.074 0.957
0.206 -1.079 0.963
0.213 -1.076 0.968
0.221 -1.073 0.973
0.229 -1.071 0.978
0.237 -1.07 0.983
0.245 -1.069 0.988
0.251 -1.056 0.992
1.005 -5.239 1.48
1.03 -5.154 1.496
1.053 -5.072 1.511
1.453 -6.857 1.769
1.592 -7.268 1.86
1.632 -7.193 1.886
1.66 -7.068 1.904
1.722 -7.095 1.944
1.784 -7.118 1.984
1.85 -7.154 2.026
1.921 -7.209 2.072
2.048 -7.47 2.155
2.11 -7.477 2.195
2.167 -7.464 2.232
2.227 -7.459 2.27
1.946 -6.309 2.089
1.923 -6.063 2.074
1.975 -6.066 2.107
0 0 0
2.526 -7.424 2.464
2.586 -7.415 2.502
2.646 -7.407 2.542
2.706 -7.395 2.58
2.77 -7.394 2.622
2.834 -7.393 2.663
2.896 -7.383 2.703
2.939 -7.327 2.731
2.912 -7.094 2.713
2.965 -7.069 2.748
3.027 -7.062 2.788
3.088 -7.054 2.828
3.151 -7.047 2.868
3.21 -7.032 2.906
1.913 -4.042 2.067
1.928 -3.992 2.077
1.977 -4.013 2.109
2.01 -4.001 2.13
2.17 -4.244 2.233
2.251 -4.323 2.286
2.301 -4.336 2.318
2.323 -4.294 2.333
2.338 -4.239 2.342
2.355 -4.189 2.353
4.091 -7.234 3.476
4.157 -7.216 3.519
4.232 -7.212 3.568
4.307 -7.207 3.616
4.381 -7.198 3.664
4.457 -7.191 3.713
4.532 -7.181 3.761
4.607 -7.17 3.81
4.682 -7.158 3.859
4.761 -7.15 3.91
4.836 -7.136 3.958
4.919 -7.131 4.012
4.999 -7.121 4.064
5.078 -7.108 4.115
5.165 -7.104 4.171
5.242 -7.086 4.221
5.331 -7.081 4.278
5.415 -7.07 4.333
1.773 -2.213 1.977
1.759 -2.157 1.968
1.763 -2.124 1.97
1.769 -2.095 1.974
1.771 -2.061 1.975
1.79 -2.048 1.988
1.821 -2.049 2.008
1.852 -2.049 2.028
1.899 -2.066 2.058
1.932 -2.067 2.079
5.606 -6.042 4.457
5.569 -5.897 4.433
5.573 -5.799 4.435
5.559 -5.682 4.426
5.574 -5.598 4.436
5.588 -5.514 4.445
5.569 -5.398 4.432
5.519 -5.255 4.4
5.519 -5.162 4.4
1.754 -1.567 1.965
1.755 -1.54 1.965
1.755 -1.512 1.965
1.753 -1.483 1.964
1.746 -1.45 1.959
1.744 -1.422 1.958
1.718 -1.374 1.941
1.708 -1.34 1.934
1.703 -1.312 1.932
1.705 -1.289 1.933
1.696 -1.257 1.927
1.752 -1.276 1.963
1.803 -1.289 1.996
1.837 -1.29 2.018
1.876 -1.292 2.043
1.922 -1.299 2.073
1.962 -1.301 2.099
1.973 -1.282 2.106
2.016 -1.284 2.134
2.055 -1.284 2.159
5.363 -3.352 4.299
5.357 -3.277 4.295
5.342 -3.199 4.285
5.345 -3.132 4.287
5.333 -3.057 4.28
5.325 -2.985 4.275
5.317 -2.914 4.27
5.314 -2.846 4.267
5.302 -2.774 4.259
5.3 -2.708 4.259
5.28 -2.634 4.246
5.275 -2.567 4.242
5.271 -2.502 4.239
5.265 -2.437 4.236
5.257 -2.371 4.231
5.264 -2.313 4.235
5.25 -2.245 4.226
5.248 -2.184 4.225
5.246 -2.123 4.224
5.239 -2.06 4.219
5.23 -1.997 4.213
5.225 -1.936 4.21
5.214 -1.873 4.203
5.22 -1.817 4.207
5.203 -1.753 4.196
5.209 -1.697 4.199
5.194 -1.635 4.19
5.194 -1.578 4.19
5.186 -1.519 4.185
5.182 -1.462 4.182
5.17 -1.402 4.174
5.164 -1.345 4.171
5.16 -1.288 4.168
5.153 -1.232 4.164
5.159 -1.178 4.167
5.149 -1.121 4.161
5.142 -1.065 4.156
5.134 -1.009 4.151
5.121 -0.953 4.142
5.118 -0.899 4.141
5.116 -0.845 4.139
5.102 -0.789 4.131
5.098 -0.735 4.128
1.67 -0.217 1.91
1.639 -0.196 1.89
1.644 -0.18 1.893
1.641 -0.164 1.891
1.639 -0.147 1.89
1.632 -0.13 1.885
1.627 -0.113 1.883
1.626 -0.097 1.882
1.63 -0.081 1.884
1.641 -0.065 1.891
1.639 -0.049 1.89
1.663 -0.033 1.906
1.667 -0.017 1.908
1.693 -0 1.925
1.694 0.017 1.926
5.031 0.103 4.084
5.03 0.155 4.084
5.042 0.207 4.092
5.118 0.262 4.14
5.046 0.311 4.094
5.012 0.36 4.072
5.018 0.412 4.076
4.999 0.462 4.064
5.01 0.515 4.071
4.999 0.565 4.064
5.003 0.617 4.066
4.994 0.668 4.06
4.996 0.72 4.061
4.981 0.77 4.052
4.992 0.824 4.059
4.972 0.873 4.046
4.966 0.923 4.042
4.969 0.976 4.044
4.956 1.026 4.036
4.962 1.08 4.04
4.949 1.129 4.031
4.956 1.184 4.036
4.937 1.232 4.024
4.95 1.288 4.032
4.926 1.335 4.016
4.931 1.39 4.019
2.057 0.59 2.16
2.051 0.61 2.157
2.028 0.625 2.142
2.013 0.642 2.132
1.304 0.421 1.673
1.295 0.432 1.667
1.292 0.445 1.666
1.296 0.46 1.668
1.293 0.473 1.666
1.289 0.486 1.664
1.286 0.498 1.662
1.289 0.514 1.664
1.286 0.527 1.662
1.296 0.546 1.668
1.292 0.559 1.666
1.288 0.571 1.663
1.284 0.584 1.66
1.294 0.604 1.667
1.282 0.613 1.659
1.285 0.629 1.661
1.281 0.642 1.658
1.283 0.658 1.66
1.285 0.674 1.661
1.281 0.688 1.658
1.282 0.704 1.659
1.285 0.721 1.661
1.279 0.733 1.657
1.28 0.75 1.658
1.281 0.767 1.658
1.275 0.779 1.655
1.275 0.795 1.654
1.276 0.812 1.655
1.274 0.828 1.654
1.274 0.845 1.654
1.275 0.862 1.655
1.276 0.88 1.655
1.27 0.893 1.651
1.27 0.91 1.651
1.27 0.928 1.652
1.27 0.945 1.651
1.262 0.957 1.646
1.268 0.98 1.65
0.953 0.736 1.446
0.813 0.631 1.356
0.784 0.618 1.337
0.772 0.619 1.329
0.77 0.628 1.328
0.766 0.636 1.326
0.768 0.65 1.327
0.766 0.659 1.325
0.759 0.664 1.321
0.771 0.688 1.328
0.766 0.695 1.326
0.765 0.707 1.325
0.764 0.718 1.324
0.757 0.724 1.32
0.747 0.726 1.313
0.746 0.737 1.312
0.743 0.747 1.31
0.735 0.751 1.305
0.72 0.747 1.296
0.658 0.688 1.256
0.628 0.665 1.236
0.618 0.663 1.229
0.601 0.655 1.219
0.582 0.642 1.206
0.576 0.646 1.202
0.556 0.631 1.189
0.548 0.632 1.184
0.535 0.625 1.176
0.524 0.621 1.169
0.521 0.629 1.167
0.538 0.663 1.178
0.508 0.633 1.159
0.506 0.64 1.157
0.503 0.648 1.155
0.499 0.653 1.153
0.494 0.658 1.149
0.484 0.654 1.143
0.474 0.65 1.136
0.465 0.646 1.13
0.455 0.642 1.124
0.446 0.639 1.118
0.441 0.643 1.115
0.433 0.64 1.11
0.428 0.644 1.107
0.42 0.641 1.101
0.411 0.637 1.096
0.402 0.632 1.09
0.398 0.636 1.087
0.387 0.628 1.08
0.379 0.624 1.075
0.374 0.627 1.072
0.366 0.623 1.067
0.359 0.619 1.062
0.352 0.618 1.058
0.348 0.622 1.055
0.339 0.615 1.049
0.335 0.619 1.047
0.327 0.613 1.041
0.323 0.617 1.039
0.316 0.613 1.034
0.311 0.614 1.031
0.303 0.609 1.026
0.299 0.611 1.023
0.291 0.605 1.018
0.286 0.606 1.015
0.28 0.601 1.011
0.275 0.602 1.007
0.27 0.604 1.005
0.263 0.598 1
0.258 0.599 0.997
0.254 0.601 0.994
0.249 0.602 0.991
0.243 0.596 0.987
0.238 0.597 0.984
0.232 0.591 0.98
0.227 0.592 0.977
0.223 0.594 0.974
0.216 0.587 0.97
0.212 0.589 0.967
0.206 0.583 0.963
0.204 0.593 0.962
0.198 0.588 0.958
0.193 0.587 0.955
0.187 0.579 0.951
0.183 0.579 0.948
0.179 0.581 0.945
0.174 0.582 0.943
0.169 0.575 0.939
0.165 0.58 0.937
0.16 0.577 0.933
0.156 0.578 0.931
0.152 0.58 0.928
0.146 0.571 0.924
0.142 0.572 0.922
0.139 0.582 0.92
0.134 0.572 0.916
0.129 0.566 0.913
0.125 0.566 0.91
0.12 0.568 0.908
0.116 0.567 0.905
0.112 0.567 0.902
0.108 0.564 0.899
0.104 0.566 0.897
0.099 0.561 0.894
0.095 0.557 0.891
0.091 0.559 0.889
0.087 0.558 0.886
0.083 0.559 0.883
0.079 0.559 0.881
0.074 0.559 0.878
0.07 0.56 0.875
0.07 -1.094 0.876
0.078 -1.086 0.881
0.086 -1.097 0.886
0.094 -1.089 0.891
0.102 -1.092 0.896
0.11 -1.089 0.902
0.118 -1.084 0.907
0.125 -1.077 0.912
0.134 -1.083 0.917
0.141 -1.069 0.922
0.148 -1.065 0.926
0.156 -1.07 0.932
0.164 -1.069 0.937
0.172 -1.065 0.942
0.18 -1.069 0.947
0.188 -1.07 0.953
0.197 -1.074 0.958
0.204 -1.07 0.963
0.212 -1.067 0.968
0.22 -1.072 0.974
0.228 -1.07 0.979
0.236 -1.069 0.984
0.244 -1.068 0.989
0.251 -1.06 0.993
1.002 -5.237 1.484
1.029 -5.166 1.501
1.05 -5.069 1.515
1.091 -5.078 1.542
1.595 -7.304 1.871
1.63 -7.202 1.893
1.655 -7.063 1.909
1.718 -7.093 1.95
1.777 -7.107 1.989
1.847 -7.162 2.035
1.95 -7.34 2.102
2.043 -7.47 2.162
2.103 -7.469 2.201
2.162 -7.464 2.24
2.219 -7.452 2.277
1.882 -6.11 2.058
1.921 -6.072 2.083
1.971 -6.072 2.116
2.458 -7.428 2.433
2.52 -7.425 2.473
2.579 -7.414 2.512
2.642 -7.414 2.553
2.7 -7.397 2.591
2.763 -7.394 2.632
2.823 -7.382 2.671
2.888 -7.382 2.713
2.937 -7.34 2.746
2.909 -7.106 2.727
2.958 -7.069 2.759
3.019 -7.062 2.799
3.081 -7.055 2.839
3.143 -7.047 2.88
3.203 -7.035 2.919
1.908 -4.042 2.074
1.924 -3.994 2.085
1.971 -4.011 2.115
2.085 -4.166 2.19
2.236 -4.389 2.288
2.249 -4.33 2.297
2.284 -4.314 2.32
2.291 -4.244 2.324
2.331 -4.238 2.351
2.351 -4.193 2.363
4.08 -7.234 3.491
4.151 -7.223 3.537
4.222 -7.212 3.584
4.296 -7.205 3.632
4.371 -7.198 3.681
4.441 -7.183 3.727
4.521 -7.181 3.779
4.595 -7.169 3.827
4.67 -7.158 3.876
4.752 -7.154 3.929
4.824 -7.136 3.977
4.905 -7.129 4.029
4.985 -7.119 4.082
5.069 -7.113 4.136
5.15 -7.101 4.189
5.233 -7.091 4.243
5.318 -7.081 4.298
5.406 -7.075 4.356
1.767 -2.21 1.982
1.757 -2.16 1.976
1.758 -2.124 1.977
1.77 -2.101 1.984
1.782 -2.08 1.992
1.794 -2.058 2
1.846 -2.084 2.034
1.868 -2.073 2.048
5.63 -6.299 4.502
5.606 -6.164 4.487
5.601 -6.051 4.483
5.582 -5.926 4.471
5.572 -5.811 4.464
5.551 -5.689 4.451
5.566 -5.604 4.46
5.588 -5.528 4.475
5.57 -5.413 4.463
5.52 -5.269 4.431
5.512 -5.168 4.425
5.499 -5.064 4.417
5.505 -4.979 4.421
1.748 -1.509 1.97
1.749 -1.483 1.97
1.748 -1.455 1.97
1.747 -1.428 1.969
1.712 -1.373 1.947
1.71 -1.346 1.945
1.7 -1.313 1.939
1.707 -1.293 1.943
1.708 -1.27 1.944
1.753 -1.28 1.973
1.8 -1.291 2.004
1.846 -1.299 2.034
1.882 -1.3 2.058
1.922 -1.302 2.083
1.937 -1.287 2.093
1.968 -1.282 2.113
2.016 -1.288 2.145
5.369 -3.435 4.332
5.355 -3.355 4.323
5.353 -3.283 4.322
5.346 -3.209 4.317
5.334 -3.134 4.309
5.334 -3.065 4.309
5.321 -2.99 4.301
5.322 -2.924 4.301
5.311 -2.851 4.294
5.295 -2.778 4.284
5.297 -2.713 4.285
5.27 -2.635 4.267
5.272 -2.572 4.268
5.267 -2.507 4.265
5.263 -2.442 4.262
5.254 -2.376 4.257
5.261 -2.317 4.262
5.245 -2.249 4.251
5.248 -2.189 4.253
5.243 -2.127 4.25
5.233 -2.062 4.243
5.235 -2.004 4.245
5.225 -1.94 4.238
5.211 -1.876 4.229
5.207 -1.817 4.227
5.208 -1.759 4.227
5.203 -1.7 4.224
5.193 -1.639 4.217
5.193 -1.582 4.217
5.175 -1.52 4.205
5.177 -1.464 4.207
5.165 -1.404 4.199
5.168 -1.349 4.201
5.154 -1.29 4.191
5.148 -1.233 4.188
5.147 -1.178 4.187
5.136 -1.121 4.18
5.136 -1.067 4.18
5.131 -1.011 4.176
5.116 -0.954 4.167
5.122 -0.901 4.17
5.107 -0.845 4.161
5.104 -0.791 4.159
5.094 -0.736 4.152
1.661 -0.216 1.913
1.648 -0.198 1.905
1.639 -0.18 1.899
1.64 -0.164 1.9
1.641 -0.148 1.9
1.638 -0.131 1.898
1.626 -0.114 1.89
1.626 -0.097 1.89
1.621 -0.081 1.887
1.63 -0.065 1.893
1.641 -0.049 1.9
1.66 -0.033 1.913
1.656 -0.017 1.91
1.671 -0 1.92
1.682 0.017 1.927
5.016 0.103 4.102
5.022 0.155 4.105
5.025 0.207 4.107
5.025 0.258 4.108
5.037 0.311 4.115
5.007 0.36 4.096
4.998 0.411 4.09
4.999 0.463 4.091
4.989 0.514 4.084
4.986 0.565 4.082
4.987 0.617 4.083
4.983 0.668 4.08
4.977 0.719 4.076
4.974 0.771 4.074
4.967 0.822 4.07
4.963 0.873 4.067
4.954 0.924 4.061
4.956 0.976 4.062
4.947 1.027 4.056
4.947 1.079 4.057
4.939 1.13 4.051
4.937 1.182 4.05
4.923 1.231 4.041
4.928 1.286 4.044
