# .PCD v0.7 - Point Cloud Data file format
VERSION 0.7
FIELDS x y z
SIZE 4 4 4
TYPE F F F
COUNT 1 1 1
WIDTH 2500
HEIGHT 1
VIEWPOINT 0 0 0 1 0 0 0
POINTS 2500
DATA ascii
0.457 -0.426 0.833
0.466 -0.43 0.834
0.47 -0.426 0.834
0.48 -0.43 0.834
0.491 -0.435 0.834
0.495 -0.432 0.834
0.507 -0.437 0.834
0.512 -0.434 0.834
0.522 -0.438 0.835
0.528 -0.437 0.835
0.601 -0.501 0.836
0.96 -0.845 0.843
0.968 -0.839 0.843
0.989 -0.845 0.843
0.99 -0.831 0.843
0.997 -0.822 0.843
0.997 -0.808 0.843
1.003 -0.8 0.843
1.004 -0.787 0.843
1.011 -0.779 0.844
1.021 -0.773 0.844
1.075 -0.805 0.845
1.079 -0.793 0.845
1.085 -0.784 0.845
1.086 -0.771 0.845
1.092 -0.762 0.845
1.098 -0.753 0.845
1.097 -0.738 0.845
1.103 -0.729 0.845
1.11 -0.721 0.845
1.115 -0.711 0.846
1.12 -0.702 0.846
1.12 -0.688 0.846
1.133 -0.684 0.846
1.13 -0.669 0.846
1.145 -0.666 0.846
1.159 -0.662 0.846
1.216 -0.684 0.847
1.469 -0.823 0.852
2.026 -1.135 0.862
1.833 -1.001 0.859
2.265 -1.226 0.867
2.349 -1.247 0.868
2.366 -1.231 0.869
2.519 -1.287 0.871
2.383 -1.189 0.869
2.37 -1.157 0.869
2.371 -1.133 0.869
2.264 -1.056 0.867
1.662 -0.745 0.856
2.402 -1.074 0.869
2.434 -1.064 0.87
2.491 -1.065 0.871
2.616 -1.094 0.873
2.628 -1.073 0.873
2.595 -1.034 0.873
2.646 -1.029 0.874
2.652 -1.006 0.874
2.652 -0.98 0.874
2.661 -0.958 0.874
2.672 -0.936 0.874
2.623 -0.894 0.873
2.57 -0.851 0.872
2.566 -0.825 0.872
2.56 -0.8 0.872
2.562 -0.776 0.872
2.57 -0.755 0.872
2.565 -0.73 0.872
2.559 -0.705 0.872
2.571 -0.685 0.872
2.565 -0.661 0.872
2.258 -0.558 0.867
2.542 -0.609 0.872
2.574 -0.594 0.872
2.567 -0.57 0.872
2.57 -0.548 0.872
1.75 -0.351 0.857
2.486 -0.486 0.871
2.574 -0.481 0.872
2.584 -0.461 0.872
2.578 -0.437 0.872
2.582 -0.415 0.872
2.576 -0.392 0.872
2.588 -0.372 0.873
2.586 -0.349 0.873
2.582 -0.327 0.872
2.584 -0.305 0.873
2.587 -0.283 0.873
2.585 -0.261 0.873
2.588 -0.24 0.873
2.585 -0.217 0.873
2.584 -0.196 0.873
2.594 -0.174 0.873
2.595 -0.153 0.873
2.604 -0.131 0.873
2.601 -0.109 0.873
2.599 -0.087 0.873
2.602 -0.066 0.873
2.61 -0.044 0.873
2.612 -0.022 0.873
2.607 -0 0.873
2.597 0.022 0.873
2.621 0.044 0.873
2.602 0.066 0.873
2.601 0.087 0.873
2.608 0.11 0.873
2.609 0.132 0.873
2.621 0.154 0.873
2.62 0.176 0.873
2.611 0.198 0.873
2.616 0.22 0.873
2.617 0.242 0.873
2.63 0.266 0.873
2.622 0.287 0.873
2.619 0.309 0.873
2.625 0.333 0.873
2.625 0.355 0.873
2.627 0.378 0.873
2.627 0.4 0.873
2.625 0.423 0.873
2.636 0.447 0.873
2.633 0.47 0.873
2.619 0.49 0.873
2.625 0.514 0.873
2.624 0.537 0.873
2.631 0.561 0.873
2.638 0.586 0.873
2.636 0.609 0.873
2.646 0.635 0.874
2.638 0.656 0.873
2.638 0.68 0.873
2.641 0.705 0.874
2.65 0.732 0.874
2.646 0.754 0.874
2.658 0.782 0.874
2.656 0.806 0.874
2.661 0.832 0.874
2.661 0.857 0.874
2.659 0.881 0.874
2.66 0.907 0.874
2.662 0.933 0.874
2.662 0.958 0.874
2.672 0.988 0.874
2.663 1.01 0.874
2.667 1.038 0.874
2.669 1.065 0.874
2.67 1.091 0.874
2.677 1.121 0.874
2.682 1.15 0.874
2.674 1.174 0.874
2.673 1.2 0.874
2.688 1.235 0.874
2.691 1.264 0.874
2.689 1.291 0.874
2.687 1.319 0.874
2.688 1.348 0.874
2.691 1.378 0.874
2.696 1.41 0.875
2.697 1.44 0.875
2.698 1.47 0.875
2.695 1.499 0.875
2.71 1.538 0.875
2.717 1.573 0.875
2.706 1.597 0.875
2.709 1.631 0.875
2.708 1.662 0.875
2.721 1.703 0.875
2.728 1.74 0.875
2.72 1.768 0.875
2.726 1.805 0.875
2.73 1.842 0.875
2.738 1.883 0.875
2.735 1.915 0.875
2.741 1.955 0.875
2.735 1.986 0.875
2.733 2.021 0.875
2.744 2.066 0.875
2.742 2.102 0.875
2.748 2.145 0.876
2.756 2.19 0.876
2.763 2.236 0.876
2.752 2.266 0.876
2.757 2.311 0.876
2.764 2.358 0.876
2.765 2.401 0.876
2.772 2.45 0.876
2.782 2.502 0.876
2.78 2.544 0.876
2.771 2.581 0.876
2.768 2.623 0.876
2.792 2.693 0.876
2.786 2.734 0.876
2.794 2.79 0.876
2.81 2.857 0.877
2.82 2.918 0.877
2.818 2.968 0.877
2.83 3.033 0.877
2.83 3.087 0.877
2.835 3.147 0.877
2.833 3.201 0.877
2.844 3.271 0.877
2.852 3.34 0.877
2.867 3.418 0.878
2.864 3.476 0.878
2.87 3.546 0.878
2.877 3.62 0.878
2.88 3.69 0.878
2.889 3.771 0.878
2.88 3.827 0.878
2.898 3.924 0.878
2.003 2.72 0.862
1.959 2.706 0.861
1.92 2.699 0.86
1.886 2.699 0.86
1.856 2.706 0.859
1.833 2.721 0.859
1.811 2.739 0.858
1.79 2.759 0.858
1.756 2.758 0.857
1.751 2.804 0.857
1.572 2.55 0.854
1.027 1.639 0.844
0.852 1.357 0.841
0.845 1.374 0.841
0.847 1.407 0.841
0.837 1.417 0.84
0.789 1.353 0.84
0.783 1.37 0.839
0.787 1.409 0.839
0.808 1.485 0.84
0.803 1.509 0.84
0.791 1.517 0.84
0.776 1.52 0.839
0.763 1.526 0.839
0.802 1.655 0.84
1.016 2.214 0.844
1 2.229 0.843
0.977 2.228 0.843
0.958 2.237 0.843
0.938 2.243 0.842
0.923 2.262 0.842
1.259 3.274 0.848
1.153 3.06 0.846
0.938 2.507 0.842
0.951 2.622 0.842
0.926 2.622 0.842
0.935 2.732 0.842
0.965 2.922 0.843
0.916 2.846 0.842
0.861 2.747 0.841
0.806 2.638 0.84
0.782 2.638 0.839
0.733 2.54 0.838
0.65 2.293 0.837
0.609 2.207 0.836
0.56 2.078 0.835
0.513 1.947 0.834
0.471 1.829 0.834
0.438 1.74 0.833
0.405 1.65 0.832
0.378 1.579 0.832
0.352 1.509 0.831
0.328 1.445 0.831
0.306 1.385 0.831
0.287 1.333 0.83
0.269 1.29 0.83
0.252 1.242 0.83
0.236 1.198 0.829
0.221 1.156 0.829
0.207 1.121 0.829
0.195 1.087 0.829
0.183 1.062 0.828
0.172 1.033 0.828
0.16 0.994 0.828
0.15 0.969 0.828
0.141 0.95 0.828
0.132 0.924 0.827
0.123 0.896 0.827
0.115 0.88 0.827
0.107 0.85 0.827
0.1 0.832 0.827
0.099 -0.393 0.828
0.103 -0.401 0.828
0.106 -0.399 0.828
0.11 -0.394 0.828
0.113 -0.394 0.828
0.117 -0.402 0.828
0.121 -0.405 0.828
0.124 -0.402 0.828
0.127 -0.401 0.828
0.131 -0.401 0.828
0.134 -0.394 0.828
0.139 -0.409 0.829
0.141 -0.401 0.829
0.145 -0.402 0.829
0.15 -0.411 0.829
0.153 -0.407 0.829
0.157 -0.411 0.829
0.161 -0.41 0.829
0.163 -0.402 0.829
0.167 -0.403 0.829
0.17 -0.401 0.829
0.175 -0.409 0.83
0.178 -0.406 0.83
0.181 -0.403 0.83
0.186 -0.409 0.83
0.19 -0.407 0.83
0.193 -0.404 0.83
0.197 -0.405 0.83
0.2 -0.405 0.83
0.204 -0.406 0.83
0.21 -0.411 0.83
0.213 -0.411 0.831
0.217 -0.409 0.831
0.221 -0.409 0.831
0.224 -0.409 0.831
0.228 -0.408 0.831
0.232 -0.407 0.831
0.238 -0.414 0.831
0.241 -0.412 0.831
0.246 -0.414 0.831
0.25 -0.414 0.831
0.254 -0.413 0.832
0.258 -0.415 0.832
0.263 -0.415 0.832
0.267 -0.414 0.832
0.27 -0.412 0.832
0.277 -0.419 0.832
0.281 -0.418 0.832
0.289 -0.426 0.832
0.289 -0.416 0.832
0.296 -0.421 0.833
0.3 -0.422 0.833
0.304 -0.421 0.833
0.308 -0.418 0.833
0.312 -0.418 0.833
0.317 -0.418 0.833
0.32 -0.416 0.833
0.328 -0.422 0.834
0.331 -0.419 0.834
0.34 -0.426 0.834
0.347 -0.429 0.834
0.349 -0.425 0.834
0.354 -0.423 0.834
0.357 -0.42 0.834
0.365 -0.426 0.834
0.375 -0.433 0.835
0.373 -0.422 0.835
0.382 -0.428 0.835
0.389 -0.429 0.835
0.393 -0.428 0.835
0.401 -0.431 0.835
0.4 -0.422 0.835
0.405 -0.421 0.836
0.414 -0.426 0.836
0.418 -0.423 0.836
0.427 -0.427 0.836
0.431 -0.425 0.836
0.44 -0.428 0.836
0.443 -0.425 0.837
0.453 -0.43 0.837
0.457 -0.427 0.837
0.466 -0.43 0.837
0.476 -0.433 0.837
0.48 -0.43 0.837
0.485 -0.428 0.838
0.495 -0.432 0.838
0.506 -0.436 0.838
0.512 -0.434 0.838
0.515 -0.431 0.838
0.527 -0.436 0.839
0.594 -0.495 0.84
0.96 -0.846 0.85
0.974 -0.845 0.85
0.989 -0.845 0.851
0.989 -0.83 0.851
0.996 -0.822 0.851
0.997 -0.809 0.851
1.003 -0.8 0.851
1.011 -0.793 0.851
1.011 -0.779 0.851
1.029 -0.78 0.852
1.07 -0.8 0.853
1.077 -0.792 0.853
1.084 -0.784 0.853
1.09 -0.775 0.853
1.091 -0.762 0.853
1.091 -0.747 0.853
1.097 -0.738 0.853
1.103 -0.729 0.854
1.103 -0.716 0.854
1.115 -0.711 0.854
1.113 -0.697 0.854
1.12 -0.688 0.854
1.124 -0.678 0.854
1.131 -0.67 0.854
1.146 -0.667 0.855
1.162 -0.665 0.855
1.317 -0.747 0.859
1.463 -0.819 0.863
2.011 -1.126 0.877
1.842 -1.006 0.873
2.073 -1.117 0.879
2.349 -1.247 0.886
2.367 -1.232 0.886
2.51 -1.282 0.89
2.383 -1.189 0.887
2.379 -1.162 0.887
2.371 -1.133 0.886
2.302 -1.075 0.885
1.674 -0.751 0.868
2.401 -1.074 0.887
2.425 -1.06 0.888
2.49 -1.065 0.89
2.612 -1.093 0.893
2.634 -1.076 0.893
2.594 -1.034 0.892
2.652 -1.032 0.894
2.643 -1.002 0.894
2.657 -0.982 0.894
2.663 -0.959 0.894
2.669 -0.935 0.894
2.629 -0.896 0.893
2.569 -0.851 0.892
2.57 -0.827 0.892
2.563 -0.801 0.891
2.569 -0.779 0.892
2.566 -0.754 0.892
2.56 -0.729 0.891
2.564 -0.707 0.891
2.57 -0.685 0.892
2.566 -0.661 0.892
2.259 -0.559 0.884
2.543 -0.609 0.891
2.567 -0.593 0.892
2.558 -0.568 0.891
2.575 -0.549 0.892
1.759 -0.353 0.871
2.327 -0.453 0.885
2.581 -0.483 0.892
2.569 -0.458 0.892
2.568 -0.436 0.892
2.573 -0.414 0.892
2.576 -0.392 0.892
2.575 -0.37 0.892
2.575 -0.348 0.892
2.575 -0.326 0.892
2.575 -0.304 0.892
2.586 -0.283 0.892
2.588 -0.262 0.892
2.59 -0.24 0.892
2.593 -0.218 0.892
2.594 -0.196 0.892
2.593 -0.174 0.892
2.595 -0.153 0.892
2.599 -0.131 0.892
2.604 -0.109 0.893
2.598 -0.087 0.892
2.602 -0.066 0.892
2.602 -0.044 0.892
2.606 -0.022 0.893
2.606 -0 0.893
2.599 0.022 0.892
2.612 0.044 0.893
2.601 0.066 0.892
2.601 0.087 0.892
2.616 0.11 0.893
2.612 0.132 0.893
2.611 0.154 0.893
2.612 0.176 0.893
2.614 0.198 0.893
2.618 0.22 0.893
2.617 0.242 0.893
2.621 0.265 0.893
2.623 0.288 0.893
2.625 0.31 0.893
2.622 0.332 0.893
2.615 0.354 0.893
2.631 0.379 0.893
2.626 0.4 0.893
2.632 0.424 0.893
2.625 0.446 0.893
2.631 0.469 0.893
2.625 0.491 0.893
2.622 0.513 0.893
2.623 0.537 0.893
2.633 0.562 0.893
2.635 0.586 0.893
2.639 0.61 0.893
2.645 0.635 0.894
2.632 0.655 0.893
2.637 0.68 0.893
2.644 0.706 0.894
2.649 0.731 0.894
2.647 0.755 0.894
2.658 0.782 0.894
2.657 0.807 0.894
2.661 0.832 0.894
2.661 0.857 0.894
2.662 0.883 0.894
2.66 0.907 0.894
2.668 0.935 0.894
2.661 0.958 0.894
2.662 0.984 0.894
2.678 1.016 0.894
2.667 1.038 0.894
2.671 1.066 0.894
2.677 1.094 0.894
2.68 1.122 0.894
2.676 1.147 0.894
2.676 1.175 0.894
2.679 1.203 0.894
2.683 1.233 0.895
2.679 1.259 0.894
2.685 1.29 0.895
2.68 1.315 0.894
2.688 1.348 0.895
2.686 1.376 0.895
2.688 1.406 0.895
2.7 1.442 0.895
2.7 1.472 0.895
2.699 1.502 0.895
2.705 1.535 0.895
2.701 1.564 0.895
2.708 1.599 0.895
2.716 1.636 0.895
2.715 1.667 0.895
2.72 1.703 0.896
2.725 1.739 0.896
2.722 1.769 0.896
2.725 1.805 0.896
2.727 1.841 0.896
2.735 1.881 0.896
2.734 1.915 0.896
2.728 1.946 0.896
2.734 1.986 0.896
2.735 2.023 0.896
2.743 2.066 0.896
2.745 2.105 0.896
2.752 2.148 0.896
2.755 2.19 0.896
2.753 2.227 0.896
2.759 2.272 0.897
2.763 2.316 0.897
2.765 2.359 0.897
2.772 2.408 0.897
2.772 2.45 0.897
2.785 2.505 0.897
2.778 2.543 0.897
2.773 2.583 0.897
2.77 2.625 0.897
2.785 2.687 0.897
2.788 2.737 0.897
2.795 2.792 0.897
2.804 2.851 0.898
2.808 2.906 0.898
2.819 2.969 0.898
2.831 3.035 0.898
2.83 3.087 0.898
2.834 3.147 0.898
2.835 3.204 0.898
2.844 3.273 0.899
2.848 3.336 0.899
2.86 3.411 0.899
2.87 3.484 0.899
2.867 3.544 0.899
2.876 3.62 0.9
2.885 3.698 0.9
2.886 3.768 0.9
2.89 3.843 0.9
2.896 3.922 0.9
2.001 2.717 0.877
1.958 2.706 0.876
1.919 2.699 0.875
1.885 2.699 0.874
1.86 2.712 0.873
1.832 2.72 0.872
1.807 2.733 0.872
1.785 2.751 0.871
1.756 2.758 0.871
1.751 2.805 0.87
1.571 2.55 0.866
0.807 1.252 0.846
0.849 1.352 0.847
0.849 1.382 0.847
0.846 1.406 0.847
0.837 1.417 0.847
0.792 1.361 0.846
0.783 1.372 0.845
0.786 1.409 0.845
0.807 1.484 0.846
0.803 1.509 0.846
0.79 1.517 0.845
0.776 1.521 0.845
0.763 1.528 0.845
0.801 1.654 0.846
1.016 2.214 0.851
0.996 2.221 0.851
0.977 2.228 0.85
0.958 2.237 0.85
0.938 2.244 0.849
0.922 2.261 0.849
1.261 3.28 0.858
1.161 3.083 0.855
0.938 2.507 0.849
0.951 2.622 0.85
0.929 2.632 0.849
0.934 2.732 0.849
0.967 2.93 0.85
0.915 2.845 0.849
0.863 2.756 0.847
0.806 2.637 0.846
0.784 2.647 0.845
0.732 2.54 0.844
0.65 2.293 0.842
0.609 2.207 0.841
0.56 2.078 0.84
0.513 1.947 0.838
0.471 1.828 0.837
0.438 1.74 0.836
0.405 1.651 0.836
0.378 1.579 0.835
0.353 1.518 0.834
0.328 1.447 0.834
0.307 1.393 0.833
0.287 1.333 0.832
0.269 1.291 0.832
0.252 1.242 0.832
0.237 1.206 0.831
0.221 1.155 0.831
0.207 1.12 0.83
0.194 1.087 0.83
0.182 1.053 0.83
0.171 1.032 0.829
0.161 1.007 0.829
0.15 0.968 0.829
0.141 0.948 0.829
0.132 0.924 0.828
0.123 0.895 0.828
0.114 0.867 0.828
0.107 0.85 0.828
0.099 0.833 0.828
0.099 -0.393 0.828
0.103 -0.401 0.828
0.106 -0.401 0.828
0.11 -0.403 0.828
0.113 -0.394 0.828
0.117 -0.402 0.828
0.12 -0.395 0.829
0.124 -0.401 0.829
0.127 -0.399 0.829
0.131 -0.402 0.829
0.135 -0.404 0.829
0.138 -0.4 0.829
0.141 -0.401 0.829
0.145 -0.402 0.829
0.148 -0.401 0.829
0.152 -0.4 0.829
0.156 -0.403 0.83
0.159 -0.403 0.83
0.163 -0.403 0.83
0.167 -0.404 0.83
0.171 -0.409 0.83
0.173 -0.4 0.83
0.178 -0.406 0.83
0.181 -0.403 0.83
0.184 -0.4 0.83
0.189 -0.407 0.831
0.193 -0.405 0.831
0.198 -0.413 0.831
0.2 -0.406 0.831
0.204 -0.405 0.831
0.207 -0.403 0.831
0.213 -0.411 0.831
0.217 -0.41 0.831
0.22 -0.409 0.832
0.225 -0.41 0.832
0.228 -0.408 0.832
0.231 -0.407 0.832
0.238 -0.413 0.832
0.241 -0.412 0.832
0.246 -0.414 0.832
0.25 -0.414 0.832
0.254 -0.413 0.832
0.258 -0.415 0.833
0.263 -0.415 0.833
0.267 -0.414 0.833
0.273 -0.42 0.833
0.273 -0.411 0.833
0.281 -0.419 0.833
0.285 -0.417 0.833
0.289 -0.416 0.834
0.296 -0.421 0.834
0.297 -0.414 0.834
0.3 -0.413 0.834
0.308 -0.419 0.834
0.312 -0.418 0.834
0.321 -0.426 0.834
0.32 -0.416 0.834
0.328 -0.422 0.835
0.331 -0.418 0.835
0.34 -0.426 0.835
0.342 -0.42 0.835
0.349 -0.425 0.835
0.354 -0.423 0.835
0.357 -0.42 0.836
0.364 -0.424 0.836
0.375 -0.433 0.836
0.374 -0.423 0.836
0.382 -0.427 0.836
0.384 -0.423 0.836
0.392 -0.427 0.837
0.396 -0.424 0.837
0.4 -0.423 0.837
0.411 -0.429 0.837
0.414 -0.425 0.837
0.423 -0.43 0.837
0.427 -0.427 0.838
0.437 -0.433 0.838
0.44 -0.428 0.838
0.443 -0.425 0.838
0.453 -0.43 0.838
0.462 -0.433 0.839
0.467 -0.43 0.839
0.47 -0.426 0.839
0.479 -0.43 0.839
0.49 -0.435 0.839
0.495 -0.432 0.84
0.506 -0.437 0.84
0.512 -0.435 0.84
0.516 -0.432 0.84
0.527 -0.436 0.841
0.594 -0.495 0.843
0.958 -0.845 0.853
0.974 -0.845 0.854
0.982 -0.838 0.854
0.99 -0.831 0.854
0.996 -0.822 0.854
0.997 -0.808 0.854
1.003 -0.8 0.855
1.011 -0.793 0.855
1.011 -0.779 0.855
1.02 -0.773 0.855
1.07 -0.8 0.857
1.077 -0.792 0.857
1.083 -0.783 0.857
1.085 -0.771 0.857
1.091 -0.762 0.857
1.098 -0.753 0.857
1.097 -0.739 0.857
1.103 -0.729 0.857
1.109 -0.721 0.858
1.115 -0.711 0.858
1.121 -0.702 0.858
1.118 -0.688 0.858
1.124 -0.679 0.858
1.13 -0.67 0.858
1.139 -0.662 0.859
1.159 -0.662 0.859
1.208 -0.68 0.861
1.477 -0.828 0.869
1.978 -1.107 0.883
1.833 -1.001 0.879
2.284 -1.236 0.892
2.348 -1.247 0.894
2.366 -1.232 0.895
2.519 -1.287 0.899
2.383 -1.189 0.895
2.379 -1.162 0.895
2.371 -1.133 0.895
2.313 -1.08 0.893
1.677 -0.753 0.874
2.401 -1.074 0.896
2.425 -1.06 0.896
2.49 -1.065 0.898
2.621 -1.097 0.902
2.627 -1.073 0.902
2.594 -1.034 0.901
2.649 -1.031 0.903
2.647 -1.004 0.903
2.651 -0.98 0.903
2.663 -0.959 0.903
2.677 -0.939 0.904
2.619 -0.893 0.902
2.565 -0.849 0.901
2.564 -0.825 0.901
2.559 -0.8 0.9
2.556 -0.775 0.9
2.555 -0.751 0.9
2.566 -0.731 0.901
2.56 -0.706 0.9
2.556 -0.682 0.9
2.557 -0.659 0.9
2.26 -0.559 0.892
2.535 -0.607 0.9
2.566 -0.592 0.901
2.557 -0.568 0.9
2.567 -0.547 0.901
1.754 -0.352 0.877
2.513 -0.491 0.899
2.572 -0.481 0.901
2.569 -0.458 0.901
2.583 -0.438 0.901
2.576 -0.415 0.901
2.575 -0.392 0.901
2.575 -0.37 0.901
2.578 -0.348 0.901
2.578 -0.326 0.901
2.58 -0.305 0.901
2.585 -0.283 0.901
2.588 -0.262 0.901
2.587 -0.24 0.901
2.593 -0.218 0.901
2.583 -0.196 0.901
2.596 -0.175 0.901
2.597 -0.153 0.902
2.603 -0.131 0.902
2.594 -0.109 0.901
2.598 -0.087 0.902
2.601 -0.066 0.902
2.599 -0.044 0.902
2.608 -0.022 0.902
2.602 -0 0.902
2.612 0.022 0.902
2.598 0.044 0.902
2.601 0.066 0.902
2.616 0.088 0.902
2.604 0.109 0.902
2.608 0.132 0.902
2.606 0.153 0.902
2.607 0.175 0.902
2.614 0.198 0.902
2.624 0.221 0.902
2.616 0.242 0.902
2.629 0.266 0.902
2.621 0.287 0.902
2.624 0.31 0.902
2.631 0.333 0.903
2.628 0.356 0.902
2.626 0.378 0.902
2.623 0.4 0.902
2.624 0.423 0.902
2.63 0.446 0.902
2.616 0.467 0.902
2.618 0.49 0.902
2.621 0.513 0.902
2.623 0.537 0.902
2.639 0.563 0.903
2.637 0.586 0.903
2.642 0.611 0.903
2.636 0.633 0.903
2.632 0.655 0.903
2.634 0.679 0.903
2.647 0.707 0.903
2.644 0.73 0.903
2.645 0.754 0.903
2.652 0.781 0.903
2.657 0.807 0.903
2.666 0.834 0.904
2.66 0.857 0.903
2.667 0.885 0.904
2.667 0.91 0.904
2.664 0.934 0.904
2.661 0.958 0.903
2.671 0.988 0.904
2.66 1.009 0.903
2.686 1.046 0.904
2.668 1.065 0.904
2.669 1.091 0.904
2.669 1.118 0.904
2.683 1.151 0.904
2.673 1.174 0.904
2.683 1.205 0.904
2.682 1.233 0.904
2.684 1.261 0.904
2.688 1.291 0.904
2.69 1.321 0.904
2.692 1.35 0.904
2.694 1.38 0.904
2.7 1.413 0.905
2.699 1.442 0.905
2.684 1.463 0.904
2.706 1.506 0.905
2.701 1.533 0.905
2.705 1.566 0.905
2.707 1.599 0.905
2.711 1.633 0.905
2.715 1.667 0.905
2.717 1.701 0.905
2.721 1.736 0.905
2.719 1.768 0.905
2.728 1.807 0.905
2.721 1.837 0.905
2.729 1.877 0.905
2.744 1.922 0.906
2.734 1.95 0.906
2.741 1.991 0.906
2.741 2.028 0.906
2.737 2.062 0.906
2.743 2.104 0.906
2.74 2.14 0.906
2.757 2.192 0.906
2.759 2.233 0.906
2.759 2.272 0.906
2.763 2.317 0.906
2.757 2.352 0.906
2.777 2.412 0.907
2.774 2.452 0.907
2.778 2.5 0.907
2.774 2.539 0.907
2.783 2.593 0.907
2.767 2.623 0.907
2.788 2.69 0.907
2.791 2.74 0.907
2.793 2.79 0.907
2.805 2.853 0.908
2.813 2.912 0.908
2.817 2.968 0.908
2.835 3.039 0.909
2.827 3.085 0.908
2.84 3.155 0.909
2.83 3.199 0.908
2.832 3.258 0.908
2.848 3.336 0.909
2.868 3.42 0.909
2.863 3.476 0.909
2.862 3.537 0.909
2.881 3.627 0.91
2.878 3.69 0.91
2.888 3.771 0.91
2.875 3.823 0.91
2.892 3.917 0.91
2.003 2.72 0.884
1.958 2.706 0.883
1.919 2.699 0.882
1.885 2.699 0.881
1.855 2.706 0.88
1.833 2.722 0.879
1.811 2.74 0.878
1.784 2.751 0.878
1.755 2.758 0.877
1.751 2.805 0.877
1.571 2.55 0.871
0.798 1.236 0.849
0.849 1.354 0.85
0.845 1.374 0.85
0.848 1.409 0.85
0.838 1.42 0.85
0.792 1.361 0.848
0.785 1.376 0.848
0.786 1.409 0.848
0.807 1.485 0.849
0.803 1.509 0.849
0.79 1.516 0.848
0.776 1.52 0.848
0.763 1.528 0.847
0.801 1.654 0.849
1.016 2.214 0.855
0.996 2.222 0.854
0.977 2.228 0.854
0.957 2.237 0.853
0.938 2.244 0.853
0.922 2.262 0.852
1.257 3.272 0.862
1.149 3.051 0.859
0.938 2.507 0.853
0.951 2.623 0.853
0.929 2.631 0.852
0.937 2.741 0.853
0.967 2.93 0.853
0.918 2.856 0.852
0.861 2.747 0.85
0.806 2.638 0.849
0.781 2.638 0.848
0.733 2.541 0.847
0.649 2.292 0.844
0.609 2.207 0.843
0.558 2.07 0.841
0.513 1.947 0.84
0.473 1.837 0.839
0.437 1.74 0.838
0.405 1.65 0.837
0.378 1.58 0.836
0.352 1.511 0.835
0.329 1.454 0.835
0.307 1.392 0.834
0.286 1.333 0.833
0.268 1.282 0.833
0.252 1.242 0.832
0.236 1.197 0.832
0.221 1.155 0.832
0.207 1.12 0.831
0.194 1.087 0.831
0.182 1.052 0.83
0.171 1.033 0.83
0.161 1.007 0.83
0.15 0.976 0.829
0.141 0.949 0.829
0.131 0.924 0.829
0.123 0.895 0.829
0.114 0.867 0.828
0.107 0.85 0.828
0.099 0.824 0.828
0.099 -0.393 0.829
0.102 -0.391 0.829
0.106 -0.401 0.829
0.109 -0.395 0.829
0.113 -0.402 0.829
0.116 -0.392 0.829
0.12 -0.404 0.829
0.124 -0.401 0.83
0.127 -0.4 0.83
0.131 -0.401 0.83
0.134 -0.404 0.83
0.138 -0.402 0.83
0.141 -0.401 0.83
0.145 -0.402 0.83
0.149 -0.409 0.831
0.153 -0.408 0.831
0.155 -0.402 0.831
0.16 -0.411 0.831
0.163 -0.402 0.831
0.167 -0.405 0.831
0.169 -0.4 0.831
0.175 -0.409 0.831
0.176 -0.398 0.831
0.181 -0.404 0.832
0.186 -0.409 0.832
0.187 -0.399 0.832
0.192 -0.403 0.832
0.196 -0.405 0.832
0.2 -0.406 0.832
0.206 -0.413 0.833
0.209 -0.411 0.833
0.213 -0.411 0.833
0.216 -0.409 0.833
0.22 -0.408 0.833
0.224 -0.409 0.833
0.228 -0.408 0.833
0.234 -0.415 0.834
0.238 -0.414 0.834
0.241 -0.411 0.834
0.245 -0.414 0.834
0.25 -0.414 0.834
0.254 -0.414 0.834
0.258 -0.415 0.835
0.259 -0.408 0.835
0.266 -0.414 0.835
0.27 -0.412 0.835
0.273 -0.411 0.835
0.281 -0.418 0.835
0.284 -0.416 0.835
0.288 -0.416 0.836
0.295 -0.421 0.836
0.296 -0.414 0.836
0.304 -0.42 0.836
0.307 -0.418 0.836
0.316 -0.426 0.837
0.316 -0.418 0.837
0.324 -0.424 0.837
0.328 -0.423 0.837
0.332 -0.42 0.837
0.339 -0.425 0.837
0.341 -0.42 0.838
0.349 -0.425 0.838
0.353 -0.423 0.838
0.361 -0.428 0.838
0.365 -0.426 0.838
0.37 -0.425 0.839
0.373 -0.423 0.839
0.382 -0.428 0.839
0.384 -0.423 0.839
0.388 -0.42 0.839
0.394 -0.422 0.84
0.4 -0.422 0.84
0.404 -0.42 0.84
0.414 -0.426 0.84
0.423 -0.43 0.841
0.426 -0.427 0.841
0.431 -0.426 0.841
0.439 -0.428 0.841
0.443 -0.425 0.841
0.453 -0.43 0.842
0.462 -0.433 0.842
0.466 -0.43 0.842
0.469 -0.426 0.842
0.48 -0.431 0.843
0.49 -0.434 0.843
0.495 -0.432 0.843
0.506 -0.437 0.844
0.512 -0.435 0.844
0.513 -0.429 0.844
0.528 -0.437 0.844
0.593 -0.494 0.847
0.966 -0.852 0.861
0.973 -0.845 0.861
0.982 -0.838 0.861
0.989 -0.831 0.861
0.995 -0.822 0.862
0.997 -0.809 0.862
1.003 -0.8 0.862
1.011 -0.793 0.862
1.01 -0.779 0.862
1.016 -0.77 0.862
1.071 -0.802 0.864
1.078 -0.793 0.865
1.084 -0.784 0.865
1.084 -0.77 0.865
1.091 -0.762 0.865
1.097 -0.753 0.865
1.104 -0.744 0.866
1.102 -0.729 0.866
1.101 -0.715 0.865
1.114 -0.711 0.866
1.112 -0.697 0.866
1.118 -0.688 0.866
1.123 -0.678 0.866
1.13 -0.67 0.867
1.143 -0.666 0.867
1.16 -0.663 0.868
1.214 -0.683 0.87
1.476 -0.828 0.879
1.969 -1.102 0.897
1.85 -1.011 0.893
1.956 -1.051 0.897
2.348 -1.247 0.911
2.376 -1.237 0.912
2.516 -1.286 0.918
2.379 -1.188 0.912
2.37 -1.158 0.912
2.371 -1.133 0.912
2.3 -1.074 0.91
1.753 -0.79 0.889
2.4 -1.074 0.913
2.421 -1.059 0.914
2.496 -1.068 0.917
2.637 -1.104 0.922
2.635 -1.077 0.922
2.628 -1.048 0.922
2.651 -1.032 0.922
2.669 -1.013 0.923
2.662 -0.984 0.923
2.674 -0.963 0.923
2.679 -0.94 0.924
2.652 -0.905 0.923
2.574 -0.853 0.92
2.608 -0.84 0.921
2.568 -0.803 0.919
2.621 -0.796 0.921
2.571 -0.756 0.92
2.606 -0.743 0.921
2.584 -0.713 0.92
2.618 -0.699 0.921
2.565 -0.661 0.919
2.243 -0.555 0.907
2.546 -0.611 0.919
2.624 -0.606 0.921
2.575 -0.572 0.92
2.611 -0.557 0.921
1.761 -0.353 0.89
2.591 -0.507 0.92
2.583 -0.483 0.92
2.631 -0.47 0.922
2.582 -0.438 0.92
2.633 -0.424 0.922
2.588 -0.395 0.92
2.625 -0.378 0.922
2.596 -0.351 0.92
2.636 -0.334 0.922
2.593 -0.306 0.92
2.631 -0.289 0.922
2.606 -0.264 0.921
2.636 -0.244 0.922
2.607 -0.22 0.921
2.636 -0.2 0.922
2.605 -0.175 0.921
2.644 -0.156 0.922
2.621 -0.132 0.921
2.648 -0.111 0.922
2.616 -0.088 0.921
2.657 -0.067 0.923
2.614 -0.044 0.921
2.652 -0.022 0.923
2.624 -0 0.922
2.656 0.022 0.923
2.624 0.044 0.922
2.654 0.067 0.923
2.616 0.088 0.921
2.664 0.112 0.923
2.635 0.133 0.922
2.68 0.158 0.924
2.629 0.177 0.922
2.67 0.203 0.923
2.631 0.222 0.922
2.671 0.248 0.923
2.628 0.266 0.922
2.68 0.294 0.924
2.645 0.313 0.922
2.673 0.339 0.923
2.637 0.357 0.922
2.675 0.385 0.923
2.646 0.404 0.922
2.68 0.432 0.924
2.638 0.448 0.922
2.679 0.479 0.924
2.645 0.495 0.922
2.682 0.526 0.924
2.643 0.541 0.922
2.687 0.574 0.924
2.646 0.588 0.922
2.697 0.624 0.924
2.657 0.638 0.923
2.689 0.67 0.924
2.649 0.684 0.922
2.696 0.721 0.924
2.66 0.735 0.923
2.7 0.771 0.924
2.663 0.784 0.923
2.713 0.825 0.925
2.67 0.836 0.923
2.718 0.877 0.925
2.681 0.89 0.924
2.722 0.929 0.925
2.678 0.939 0.923
2.725 0.982 0.925
2.677 0.99 0.923
2.73 1.037 0.925
2.685 1.046 0.924
2.733 1.092 0.926
2.688 1.1 0.924
2.734 1.146 0.926
2.689 1.154 0.924
2.742 1.206 0.926
2.69 1.209 0.924
2.749 1.265 0.926
2.7 1.27 0.924
2.743 1.319 0.926
2.711 1.332 0.925
2.756 1.384 0.926
2.706 1.387 0.925
2.748 1.439 0.926
2.712 1.45 0.925
2.758 1.505 0.926
2.724 1.517 0.925
2.76 1.568 0.926
2.728 1.581 0.925
2.76 1.632 0.927
2.729 1.644 0.925
2.783 1.711 0.927
2.74 1.716 0.926
2.781 1.776 0.927
2.744 1.786 0.926
2.793 1.853 0.928
2.75 1.857 0.926
2.8 1.928 0.928
2.75 1.927 0.926
2.796 1.997 0.928
2.759 2.006 0.926
2.802 2.075 0.928
2.754 2.075 0.926
2.807 2.156 0.928
2.769 2.164 0.927
2.812 2.238 0.928
2.769 2.242 0.927
2.822 2.328 0.929
2.774 2.327 0.927
2.844 2.43 0.93
2.802 2.436 0.928
2.842 2.515 0.93
2.798 2.519 0.928
2.837 2.6 0.929
2.795 2.605 0.928
2.846 2.701 0.93
2.797 2.7 0.928
2.856 2.807 0.93
2.811 2.81 0.928
2.858 2.909 0.93
2.828 2.928 0.929
2.882 3.039 0.931
2.859 3.067 0.93
2.891 3.158 0.931
2.857 3.174 0.93
2.924 3.31 0.933
2.861 3.294 0.93
2.929 3.435 0.933
2.897 3.458 0.932
2.936 3.569 0.933
2.889 3.574 0.931
2.95 3.718 0.934
2.917 3.742 0.932
2.95 3.855 0.933
2.9 3.858 0.932
2.98 4.041 0.935
2.002 2.72 0.899
1.953 2.699 0.897
1.919 2.699 0.896
1.885 2.7 0.894
1.855 2.706 0.893
1.831 2.72 0.892
1.81 2.74 0.892
1.785 2.752 0.891
1.755 2.758 0.89
1.7 2.719 0.888
1.554 2.522 0.882
1.458 2.403 0.879
0.862 1.377 0.857
0.865 1.411 0.857
0.862 1.437 0.857
0.816 1.378 0.855
0.79 1.358 0.854
0.793 1.393 0.854
0.79 1.418 0.854
0.814 1.5 0.855
0.803 1.511 0.855
0.787 1.51 0.854
0.775 1.52 0.854
0.763 1.528 0.853
0.806 1.666 0.855
1.015 2.214 0.862
0.996 2.222 0.862
0.976 2.228 0.861
0.957 2.236 0.86
0.937 2.243 0.859
0.922 2.263 0.859
1.26 3.28 0.871
1.136 3.013 0.867
0.94 2.516 0.86
0.95 2.622 0.86
0.925 2.623 0.859
0.937 2.743 0.859
0.966 2.928 0.861
0.915 2.846 0.859
0.863 2.756 0.857
0.805 2.637 0.855
0.783 2.647 0.854
0.732 2.54 0.852
0.654 2.312 0.849
0.608 2.204 0.847
0.555 2.06 0.845
0.513 1.947 0.844
0.471 1.83 0.842
0.437 1.74 0.841
0.404 1.649 0.84
0.377 1.579 0.839
0.352 1.511 0.838
0.328 1.447 0.837
0.307 1.392 0.836
0.286 1.332 0.836
0.268 1.283 0.835
0.251 1.241 0.834
0.235 1.197 0.834
0.22 1.156 0.833
0.207 1.12 0.833
0.194 1.086 0.832
0.183 1.062 0.832
0.171 1.033 0.831
0.16 0.998 0.831
0.15 0.969 0.831
0.14 0.95 0.83
0.131 0.924 0.83
0.122 0.896 0.83
0.114 0.879 0.829
0.106 0.851 0.829
0.099 0.834 0.829
0.099 -0.395 0.829
0.102 -0.4 0.83
0.106 -0.4 0.83
0.109 -0.405 0.83
0.113 -0.402 0.83
0.116 -0.4 0.83
0.119 -0.395 0.83
0.123 -0.4 0.83
0.127 -0.401 0.831
0.13 -0.402 0.831
0.134 -0.403 0.831
0.137 -0.402 0.831
0.141 -0.402 0.831
0.145 -0.402 0.831
0.148 -0.401 0.832
0.153 -0.408 0.832
0.156 -0.41 0.832
0.159 -0.401 0.832
0.163 -0.403 0.832
0.166 -0.404 0.832
0.17 -0.403 0.833
0.173 -0.4 0.833
0.176 -0.398 0.833
0.181 -0.406 0.833
0.184 -0.4 0.833
0.189 -0.409 0.833
0.192 -0.402 0.834
0.196 -0.405 0.834
0.2 -0.405 0.834
0.204 -0.406 0.834
0.207 -0.403 0.834
0.213 -0.411 0.834
0.216 -0.41 0.835
0.22 -0.41 0.835
0.224 -0.409 0.835
0.227 -0.408 0.835
0.231 -0.407 0.835
0.237 -0.414 0.836
0.241 -0.413 0.836
0.245 -0.414 0.836
0.249 -0.414 0.836
0.253 -0.414 0.836
0.258 -0.415 0.836
0.262 -0.415 0.837
0.266 -0.414 0.837
0.269 -0.412 0.837
0.277 -0.42 0.837
0.28 -0.418 0.837
0.284 -0.417 0.838
0.288 -0.416 0.838
0.292 -0.414 0.838
0.3 -0.422 0.838
0.303 -0.42 0.838
0.307 -0.419 0.839
0.312 -0.419 0.839
0.316 -0.417 0.839
0.324 -0.424 0.839
0.328 -0.422 0.84
0.335 -0.426 0.84
0.34 -0.426 0.84
0.341 -0.42 0.84
0.349 -0.425 0.84
0.353 -0.423 0.841
0.36 -0.427 0.841
0.365 -0.427 0.841
0.369 -0.425 0.841
0.373 -0.423 0.842
0.381 -0.427 0.842
0.384 -0.423 0.842
0.388 -0.421 0.842
0.393 -0.421 0.842
0.403 -0.427 0.843
0.41 -0.429 0.843
0.414 -0.426 0.843
0.417 -0.422 0.844
0.427 -0.428 0.844
0.43 -0.425 0.844
0.44 -0.429 0.845
0.443 -0.425 0.845
0.453 -0.431 0.845
0.456 -0.427 0.845
0.465 -0.43 0.846
0.47 -0.427 0.846
0.479 -0.431 0.846
0.484 -0.428 0.846
0.495 -0.433 0.847
0.506 -0.437 0.847
0.511 -0.435 0.848
0.521 -0.438 0.848
0.529 -0.438 0.848
0.622 -0.524 0.853
0.965 -0.852 0.868
0.966 -0.838 0.868
0.981 -0.838 0.869
0.989 -0.831 0.869
0.994 -0.822 0.869
0.996 -0.808 0.869
1.002 -0.8 0.869
1.003 -0.787 0.869
1.01 -0.779 0.87
1.016 -0.77 0.87
1.072 -0.803 0.873
1.076 -0.792 0.873
1.077 -0.779 0.873
1.084 -0.77 0.873
1.09 -0.762 0.873
1.089 -0.747 0.873
1.096 -0.739 0.874
1.101 -0.729 0.874
1.1 -0.715 0.874
1.106 -0.706 0.874
1.111 -0.697 0.874
1.117 -0.687 0.875
1.123 -0.679 0.875
1.129 -0.67 0.875
1.141 -0.665 0.876
1.156 -0.661 0.876
1.222 -0.689 0.879
1.378 -0.769 0.886
1.88 -1.05 0.908
2.286 -1.264 0.926
2.05 -1.105 0.916
2.347 -1.247 0.929
2.364 -1.231 0.93
2.513 -1.285 0.936
2.368 -1.183 0.93
2.362 -1.154 0.93
2.37 -1.133 0.93
2.251 -1.051 0.925
1.646 -0.739 0.898
2.399 -1.073 0.931
2.421 -1.059 0.932
2.494 -1.067 0.936
2.648 -1.109 0.942
2.652 -1.085 0.943
2.667 -1.065 0.943
2.672 -1.041 0.943
2.682 -1.019 0.944
2.69 -0.996 0.944
2.695 -0.971 0.944
2.699 -0.947 0.945
2.694 -0.92 0.944
2.664 -0.884 0.943
2.701 -0.872 0.945
2.659 -0.833 0.943
2.704 -0.822 0.945
2.652 -0.781 0.943
2.701 -0.772 0.945
2.655 -0.734 0.943
2.694 -0.72 0.944
2.645 -0.683 0.942
2.242 -0.555 0.924
2.647 -0.636 0.942
2.709 -0.627 0.945
2.657 -0.591 0.943
2.693 -0.576 0.944
1.754 -0.352 0.903
2.708 -0.531 0.945
2.664 -0.499 0.943
2.725 -0.487 0.946
2.676 -0.455 0.944
2.725 -0.44 0.946
2.675 -0.408 0.944
2.717 -0.392 0.945
2.684 -0.364 0.944
2.726 -0.346 0.946
2.683 -0.318 0.944
2.724 -0.299 0.946
2.688 -0.272 0.944
2.742 -0.255 0.947
2.682 -0.226 0.944
2.743 -0.208 0.947
2.686 -0.181 0.944
2.736 -0.161 0.946
2.689 -0.136 0.944
2.739 -0.115 0.946
2.701 -0.091 0.945
2.743 -0.069 0.947
2.697 -0.045 0.945
2.754 -0.023 0.947
2.702 -0 0.945
2.754 0.023 0.947
2.715 0.046 0.945
2.757 0.07 0.947
2.72 0.092 0.946
2.759 0.116 0.947
2.713 0.137 0.945
2.767 0.163 0.948
2.717 0.183 0.945
2.77 0.21 0.948
2.726 0.23 0.946
2.771 0.258 0.948
2.725 0.276 0.946
2.775 0.305 0.948
2.731 0.324 0.946
2.779 0.353 0.948
2.732 0.37 0.946
2.775 0.4 0.948
2.729 0.417 0.946
2.78 0.449 0.948
2.732 0.465 0.946
2.772 0.496 0.948
2.741 0.514 0.947
2.779 0.546 0.948
2.731 0.56 0.946
2.787 0.597 0.949
2.74 0.61 0.946
2.784 0.645 0.948
2.735 0.658 0.946
2.788 0.696 0.949
2.748 0.71 0.947
2.793 0.748 0.949
2.752 0.762 0.947
2.792 0.799 0.949
2.757 0.813 0.947
2.822 0.859 0.95
2.753 0.863 0.947
2.809 0.908 0.95
2.756 0.916 0.947
2.819 0.964 0.95
2.765 0.971 0.948
2.808 1.014 0.949
2.781 1.031 0.948
2.816 1.071 0.95
2.779 1.084 0.948
2.828 1.132 0.95
2.801 1.148 0.949
2.845 1.195 0.951
2.797 1.202 0.949
2.855 1.257 0.952
2.801 1.261 0.949
2.849 1.313 0.951
2.799 1.318 0.949
2.85 1.373 0.951
2.798 1.376 0.949
2.861 1.439 0.952
2.801 1.438 0.949
2.865 1.504 0.952
2.81 1.504 0.95
2.866 1.567 0.952
2.818 1.572 0.95
2.871 1.635 0.952
2.83 1.642 0.95
2.882 1.708 0.953
2.821 1.703 0.95
2.878 1.773 0.953
2.839 1.781 0.951
2.903 1.858 0.954
2.841 1.851 0.951
2.896 1.924 0.953
2.848 1.927 0.951
2.908 2.006 0.954
2.844 1.997 0.951
2.916 2.087 0.954
2.853 2.077 0.951
2.905 2.156 0.954
2.862 2.161 0.952
2.925 2.25 0.955
2.874 2.249 0.952
2.924 2.331 0.955
2.878 2.335 0.953
2.95 2.437 0.956
2.893 2.431 0.953
2.944 2.519 0.955
2.893 2.518 0.953
2.948 2.613 0.956
2.904 2.619 0.954
2.955 2.713 0.956
2.898 2.706 0.953
2.966 2.82 0.956
2.931 2.835 0.955
2.984 2.939 0.957
2.936 2.941 0.955
2.993 3.052 0.958
2.938 3.048 0.955
3.006 3.175 0.958
2.941 3.16 0.955
3.02 3.305 0.959
2.977 3.314 0.957
3.024 3.429 0.959
2.994 3.453 0.958
3.045 3.578 0.96
2.988 3.572 0.957
3.073 3.743 0.961
3.006 3.724 0.958
3.075 3.883 0.961
3.02 3.881 0.959
3.094 4.052 0.962
3.048 4.063 0.96
3.102 4.214 0.963
2.004 2.724 0.914
1.956 2.706 0.912
1.919 2.702 0.91
1.883 2.698 0.908
1.853 2.704 0.907
1.829 2.718 0.906
1.804 2.732 0.905
1.784 2.753 0.904
1.761 2.769 0.903
1.616 2.578 0.897
1.5 2.43 0.892
1.481 2.445 0.891
0.912 1.469 0.865
0.88 1.44 0.864
0.87 1.452 0.864
0.839 1.423 0.862
0.803 1.383 0.861
0.834 1.476 0.862
0.821 1.483 0.861
0.814 1.502 0.861
0.801 1.508 0.861
0.79 1.518 0.86
0.774 1.518 0.859
0.761 1.525 0.859
0.801 1.656 0.861
1.015 2.215 0.87
0.995 2.221 0.869
0.976 2.229 0.868
0.957 2.237 0.867
0.937 2.243 0.867
0.921 2.261 0.866
1.202 3.119 0.878
1.115 2.955 0.874
0.937 2.508 0.867
0.953 2.631 0.867
0.927 2.628 0.866
0.945 2.769 0.867
0.964 2.922 0.868
0.916 2.854 0.866
0.868 2.775 0.863
0.804 2.635 0.861
0.784 2.651 0.86
0.732 2.54 0.857
0.663 2.351 0.854
0.608 2.207 0.852
0.559 2.078 0.85
0.512 1.947 0.848
0.472 1.837 0.846
0.437 1.739 0.844
0.406 1.661 0.843
0.377 1.578 0.842
0.353 1.519 0.841
0.327 1.445 0.84
0.307 1.394 0.839
0.286 1.332 0.838
0.267 1.281 0.837
0.251 1.242 0.836
0.235 1.196 0.835
0.22 1.156 0.835
0.207 1.129 0.834
0.194 1.088 0.834
0.182 1.061 0.833
0.171 1.033 0.833
0.16 1.009 0.832
0.15 0.969 0.832
0.14 0.949 0.831
0.131 0.924 0.831
0.122 0.905 0.83
0.114 0.88 0.83
0.106 0.86 0.83
0.099 0.833 0.829
0.099 -0.395 0.83
0.102 -0.4 0.83
0.106 -0.4 0.83
0.109 -0.405 0.83
0.113 -0.402 0.83
0.116 -0.4 0.831
0.12 -0.407 0.831
0.123 -0.402 0.831
0.127 -0.402 0.831
0.13 -0.402 0.831
0.134 -0.405 0.831
0.137 -0.402 0.832
0.141 -0.403 0.832
0.144 -0.401 0.832
0.149 -0.409 0.832
0.153 -0.409 0.832
0.155 -0.401 0.832
0.16 -0.409 0.833
0.162 -0.403 0.833
0.166 -0.404 0.833
0.169 -0.402 0.833
0.173 -0.4 0.833
0.176 -0.398 0.833
0.181 -0.404 0.834
0.184 -0.4 0.834
0.189 -0.407 0.834
0.192 -0.403 0.834
0.196 -0.406 0.834
0.2 -0.406 0.835
0.203 -0.405 0.835
0.206 -0.403 0.835
0.212 -0.411 0.835
0.216 -0.41 0.835
0.22 -0.41 0.836
0.224 -0.409 0.836
0.228 -0.409 0.836
0.231 -0.407 0.836
0.237 -0.413 0.836
0.241 -0.413 0.837
0.245 -0.413 0.837
0.249 -0.414 0.837
0.253 -0.413 0.837
0.258 -0.415 0.837
0.262 -0.416 0.838
0.266 -0.414 0.838
0.269 -0.412 0.838
0.276 -0.419 0.838
0.277 -0.41 0.838
0.28 -0.408 0.838
0.288 -0.417 0.839
0.292 -0.414 0.839
0.296 -0.413 0.839
0.304 -0.421 0.84
0.307 -0.418 0.84
0.312 -0.42 0.84
0.315 -0.416 0.84
0.32 -0.416 0.84
0.327 -0.421 0.841
0.335 -0.428 0.841
0.335 -0.419 0.841
0.341 -0.421 0.841
0.344 -0.417 0.841
0.352 -0.423 0.842
0.361 -0.428 0.842
0.364 -0.426 0.842
0.369 -0.424 0.843
0.372 -0.422 0.843
0.38 -0.426 0.843
0.383 -0.422 0.843
0.388 -0.422 0.844
0.397 -0.426 0.844
0.4 -0.423 0.844
0.41 -0.429 0.845
0.414 -0.426 0.845
0.423 -0.43 0.845
0.427 -0.428 0.845
0.431 -0.426 0.846
0.439 -0.429 0.846
0.444 -0.427 0.846
0.453 -0.43 0.847
0.456 -0.426 0.847
0.466 -0.43 0.847
0.469 -0.426 0.847
0.479 -0.431 0.848
0.484 -0.429 0.848
0.495 -0.433 0.849
0.505 -0.437 0.849
0.511 -0.434 0.849
0.514 -0.431 0.85
0.524 -0.434 0.85
0.623 -0.525 0.855
0.959 -0.847 0.871
0.972 -0.845 0.872
0.98 -0.837 0.872
0.988 -0.83 0.872
0.995 -0.822 0.873
1.002 -0.814 0.873
1.002 -0.8 0.873
1.003 -0.787 0.873
1.009 -0.779 0.873
1.019 -0.773 0.874
1.065 -0.798 0.876
1.076 -0.792 0.877
1.077 -0.779 0.877
1.083 -0.77 0.877
1.09 -0.762 0.877
1.089 -0.747 0.877
1.096 -0.739 0.877
1.102 -0.729 0.878
1.1 -0.715 0.878
1.106 -0.706 0.878
1.112 -0.697 0.878
1.117 -0.688 0.879
1.122 -0.678 0.879
1.129 -0.67 0.879
1.137 -0.662 0.879
1.156 -0.661 0.88
1.215 -0.685 0.883
1.399 -0.782 0.892
1.841 -1.027 0.913
2.292 -1.267 0.935
1.844 -0.989 0.913
2.345 -1.246 0.937
2.362 -1.23 0.938
2.498 -1.277 0.945
2.369 -1.183 0.938
2.362 -1.154 0.938
2.361 -1.129 0.938
2.351 -1.1 0.938
1.618 -0.725 0.902
2.394 -1.071 0.94
2.421 -1.06 0.941
2.489 -1.065 0.944
2.646 -1.109 0.952
2.654 -1.086 0.952
2.661 -1.063 0.952
2.674 -1.042 0.953
2.681 -1.019 0.953
2.694 -0.997 0.954
2.692 -0.971 0.954
2.71 -0.952 0.955
2.704 -0.924 0.954
2.747 -0.913 0.957
2.809 -0.908 0.959
2.761 -0.866 0.957
2.813 -0.857 0.96
2.75 -0.812 0.957
2.802 -0.802 0.959
2.75 -0.761 0.957
2.804 -0.751 0.959
2.756 -0.713 0.957
2.246 -0.556 0.933
2.746 -0.661 0.956
2.803 -0.65 0.959
2.766 -0.617 0.957
2.817 -0.603 0.96
1.748 -0.351 0.909
2.821 -0.554 0.96
2.755 -0.517 0.957
2.823 -0.506 0.96
2.766 -0.471 0.957
2.826 -0.457 0.96
2.778 -0.425 0.958
2.831 -0.409 0.961
2.783 -0.378 0.958
2.825 -0.359 0.96
2.77 -0.328 0.958
2.833 -0.312 0.961
2.785 -0.283 0.958
2.839 -0.264 0.961
2.792 -0.236 0.959
2.838 -0.216 0.961
2.785 -0.188 0.958
2.835 -0.168 0.961
2.791 -0.141 0.959
2.84 -0.12 0.961
2.803 -0.095 0.959
2.853 -0.072 0.962
2.801 -0.047 0.959
2.852 -0.024 0.962
2.798 -0 0.959
2.863 0.024 0.962
2.792 0.047 0.959
2.871 0.073 0.962
2.801 0.094 0.959
2.867 0.121 0.962
2.806 0.142 0.959
2.87 0.17 0.962
2.814 0.19 0.96
2.876 0.219 0.963
2.824 0.239 0.96
2.871 0.267 0.962
2.822 0.287 0.96
2.88 0.317 0.963
2.826 0.335 0.96
2.882 0.367 0.963
2.832 0.385 0.961
2.88 0.416 0.963
2.823 0.432 0.96
2.885 0.467 0.963
2.823 0.481 0.96
2.89 0.518 0.963
2.837 0.533 0.961
2.896 0.57 0.964
2.827 0.58 0.96
2.893 0.62 0.963
2.837 0.633 0.961
2.895 0.672 0.964
2.835 0.683 0.961
2.896 0.724 0.964
2.848 0.738 0.961
2.9 0.778 0.964
2.853 0.791 0.962
2.914 0.835 0.965
2.85 0.842 0.961
2.921 0.891 0.965
2.858 0.898 0.962
2.919 0.945 0.965
2.864 0.953 0.962
2.921 1 0.965
2.869 1.01 0.962
2.926 1.058 0.965
2.879 1.068 0.963
2.942 1.121 0.966
2.878 1.124 0.963
2.947 1.181 0.966
2.875 1.18 0.963
2.931 1.233 0.965
2.884 1.241 0.963
2.951 1.301 0.966
2.89 1.303 0.963
2.954 1.363 0.966
2.902 1.369 0.964
2.962 1.429 0.967
2.912 1.435 0.964
2.976 1.499 0.967
2.922 1.503 0.965
2.97 1.561 0.967
2.919 1.565 0.965
2.977 1.63 0.968
2.923 1.633 0.965
2.987 1.703 0.968
2.934 1.705 0.965
2.999 1.78 0.969
2.941 1.778 0.966
3.008 1.856 0.969
2.944 1.85 0.966
3.005 1.926 0.969
2.957 1.93 0.967
3.014 2.006 0.969
2.956 2.003 0.967
3.018 2.085 0.969
2.96 2.081 0.967
3.027 2.169 0.97
2.971 2.167 0.967
3.033 2.254 0.97
2.983 2.256 0.968
3.041 2.343 0.971
2.989 2.343 0.968
3.058 2.442 0.971
2.997 2.435 0.968
3.057 2.53 0.971
2.992 2.518 0.968
3.059 2.622 0.971
3.008 2.622 0.969
3.072 2.728 0.972
3.021 2.729 0.97
3.084 2.836 0.973
3.012 2.817 0.969
3.099 2.952 0.973
3.029 2.934 0.97
3.108 3.066 0.974
3.048 3.058 0.971
3.115 3.182 0.974
3.051 3.17 0.971
3.134 3.316 0.975
3.078 3.313 0.972
3.145 3.447 0.976
3.071 3.423 0.972
3.163 3.591 0.976
3.073 3.548 0.972
3.167 3.726 0.977
3.111 3.724 0.974
3.178 3.875 0.977
3.135 3.89 0.975
3.219 4.071 0.979
3.149 4.053 0.976
3.24 4.25 0.98
3.158 4.215 0.976
3.237 4.405 0.98
2.002 2.721 0.921
1.954 2.702 0.919
1.915 2.695 0.917
1.881 2.695 0.915
1.856 2.709 0.914
1.832 2.724 0.913
1.805 2.733 0.911
1.784 2.754 0.91
1.762 2.771 0.909
1.717 2.751 0.907
1.519 2.463 0.898
1.157 1.872 0.88
0.943 1.524 0.87
0.893 1.465 0.868
0.88 1.471 0.867
0.855 1.454 0.866
0.831 1.438 0.865
0.838 1.484 0.865
0.824 1.488 0.864
0.814 1.502 0.864
0.801 1.507 0.863
0.789 1.517 0.863
0.774 1.518 0.862
0.762 1.528 0.862
0.785 1.618 0.863
1.015 2.214 0.874
0.995 2.222 0.873
0.976 2.23 0.872
0.956 2.237 0.871
0.937 2.244 0.87
0.92 2.259 0.869
1.174 3.041 0.881
1.148 3.05 0.88
0.936 2.505 0.87
0.95 2.624 0.871
0.927 2.629 0.869
0.932 2.727 0.87
0.959 2.906 0.871
0.925 2.886 0.869
0.875 2.803 0.867
0.806 2.644 0.864
0.784 2.652 0.863
0.738 2.565 0.86
0.668 2.375 0.857
0.611 2.223 0.854
0.561 2.087 0.852
0.514 1.957 0.85
0.474 1.847 0.848
0.438 1.749 0.846
0.408 1.669 0.845
0.378 1.588 0.843
0.352 1.518 0.842
0.329 1.456 0.841
0.308 1.4 0.84
0.287 1.341 0.839
0.268 1.291 0.838
0.252 1.248 0.837
0.236 1.206 0.836
0.221 1.164 0.836
0.207 1.129 0.835
0.194 1.096 0.834
0.182 1.062 0.834
0.171 1.033 0.833
0.16 1.01 0.833
0.15 0.978 0.832
0.14 0.949 0.832
0.131 0.924 0.831
0.122 0.897 0.831
0.114 0.88 0.83
0.106 0.85 0.83
0.099 0.833 0.83
0.098 -0.394 0.83
0.102 -0.4 0.831
0.106 -0.408 0.831
0.109 -0.396 0.831
0.112 -0.394 0.831
0.116 -0.398 0.831
0.119 -0.396 0.832
0.123 -0.402 0.832
0.126 -0.394 0.832
0.13 -0.4 0.832
0.134 -0.405 0.832
0.137 -0.402 0.833
0.141 -0.402 0.833
0.145 -0.409 0.833
0.148 -0.408 0.833
0.152 -0.408 0.833
0.155 -0.401 0.834
0.158 -0.401 0.834
0.162 -0.404 0.834
0.166 -0.404 0.834
0.169 -0.403 0.834
0.174 -0.408 0.835
0.176 -0.4 0.835
0.182 -0.413 0.835
0.183 -0.4 0.835
0.189 -0.407 0.835
0.192 -0.405 0.836
0.196 -0.405 0.836
0.199 -0.405 0.836
0.203 -0.405 0.836
0.209 -0.412 0.837
0.212 -0.411 0.837
0.216 -0.41 0.837
0.22 -0.409 0.837
0.223 -0.409 0.837
0.227 -0.408 0.838
0.23 -0.406 0.838
0.237 -0.414 0.838
0.241 -0.414 0.838
0.244 -0.413 0.839
0.249 -0.413 0.839
0.252 -0.412 0.839
0.257 -0.415 0.839
0.262 -0.415 0.84
0.266 -0.414 0.84
0.272 -0.42 0.84
0.272 -0.411 0.84
0.28 -0.418 0.841
0.284 -0.417 0.841
0.288 -0.417 0.841
0.295 -0.421 0.841
0.299 -0.421 0.842
0.303 -0.42 0.842
0.306 -0.417 0.842
0.312 -0.419 0.842
0.315 -0.417 0.843
0.323 -0.422 0.843
0.327 -0.422 0.843
0.334 -0.426 0.844
0.338 -0.425 0.844
0.341 -0.42 0.844
0.344 -0.418 0.844
0.352 -0.423 0.845
0.356 -0.421 0.845
0.36 -0.419 0.845
0.368 -0.424 0.845
0.372 -0.422 0.846
0.38 -0.426 0.846
0.383 -0.423 0.846
0.393 -0.429 0.847
0.396 -0.426 0.847
0.399 -0.423 0.847
0.41 -0.43 0.848
0.414 -0.427 0.848
0.422 -0.43 0.848
0.427 -0.428 0.849
0.431 -0.426 0.849
0.44 -0.43 0.849
0.443 -0.427 0.85
0.453 -0.431 0.85
0.457 -0.427 0.85
0.465 -0.43 0.851
0.475 -0.434 0.851
0.48 -0.431 0.852
0.49 -0.435 0.852
0.494 -0.433 0.852
0.506 -0.438 0.853
0.504 -0.428 0.853
0.513 -0.43 0.853
0.523 -0.432 0.854
0.643 -0.545 0.861
0.964 -0.852 0.878
0.972 -0.845 0.879
0.98 -0.838 0.879
0.987 -0.83 0.88
0.988 -0.816 0.88
0.996 -0.809 0.88
0.994 -0.794 0.88
1.002 -0.787 0.881
1.009 -0.779 0.881
1.022 -0.776 0.882
1.068 -0.8 0.884
1.075 -0.792 0.885
1.077 -0.779 0.885
1.083 -0.77 0.885
1.09 -0.762 0.885
1.088 -0.747 0.885
1.095 -0.739 0.886
1.1 -0.729 0.886
1.098 -0.714 0.886
1.104 -0.705 0.886
1.111 -0.697 0.887
1.115 -0.687 0.887
1.123 -0.679 0.887
1.128 -0.67 0.888
1.137 -0.662 0.888
1.159 -0.663 0.889
1.223 -0.69 0.893
1.464 -0.822 0.906
1.829 -1.021 0.926
2.29 -1.267 0.952
1.82 -0.975 0.926
2.302 -1.223 0.953
2.369 -1.235 0.956
2.452 -1.253 0.961
2.361 -1.18 0.956
2.359 -1.154 0.956
2.364 -1.131 0.956
2.357 -1.103 0.956
1.619 -0.726 0.915
2.387 -1.069 0.957
2.418 -1.059 0.959
2.469 -1.057 0.962
2.645 -1.109 0.972
2.651 -1.085 0.972
2.658 -1.062 0.972
2.667 -1.039 0.973
2.674 -1.016 0.973
2.682 -0.993 0.974
2.696 -0.973 0.974
2.709 -0.952 0.975
2.687 -0.918 0.974
2.839 -0.945 0.982
2.886 -0.934 0.985
2.849 -0.895 0.983
2.89 -0.881 0.985
2.846 -0.841 0.983
2.889 -0.828 0.985
2.843 -0.788 0.983
2.898 -0.778 0.986
2.846 -0.737 0.983
2.232 -0.553 0.949
2.845 -0.686 0.983
2.895 -0.672 0.985
2.845 -0.635 0.983
2.894 -0.621 0.985
1.754 -0.352 0.922
2.911 -0.573 0.986
2.857 -0.537 0.983
2.024 -0.357 0.937
2.865 -0.489 0.984
2.898 -0.469 0.986
2.874 -0.44 0.984
2.914 -0.421 0.987
2.877 -0.391 0.984
2.917 -0.372 0.987
2.874 -0.341 0.984
2.92 -0.322 0.987
2.878 -0.293 0.985
3.174 -0.297 1.001
3.132 -0.266 0.999
3.171 -0.242 1.001
2.908 -0.197 0.986
3.174 -0.188 1.001
2.891 -0.147 0.985
2.944 -0.124 0.988
2.903 -0.098 0.986
3.152 -0.08 1
2.908 -0.049 0.986
2.955 -0.025 0.989
2.905 -0 0.986
2.947 0.025 0.988
2.905 0.049 0.986
2.954 0.075 0.989
2.922 0.099 0.987
2.954 0.125 0.989
2.914 0.148 0.987
2.954 0.175 0.989
2.918 0.197 0.987
2.97 0.226 0.99
2.924 0.248 0.987
2.962 0.276 0.989
2.925 0.297 0.987
2.969 0.328 0.99
2.93 0.348 0.987
2.969 0.379 0.99
2.931 0.399 0.988
2.976 0.431 0.99
2.93 0.449 0.987
2.979 0.483 0.99
2.93 0.5 0.987
2.988 0.536 0.991
2.94 0.553 0.988
2.987 0.589 0.991
2.947 0.606 0.988
2.983 0.64 0.99
2.944 0.658 0.988
2.991 0.695 0.991
2.945 0.711 0.988
2.999 0.751 0.991
2.943 0.763 0.988
3.009 0.808 0.992
2.952 0.819 0.989
3.007 0.863 0.992
2.964 0.877 0.989
3.012 0.92 0.992
2.968 0.934 0.99
3.014 0.977 0.992
2.973 0.991 0.99
3.02 1.036 0.992
2.971 1.047 0.99
3.03 1.098 0.993
2.986 1.11 0.991
3.031 1.157 0.993
2.998 1.173 0.991
3.037 1.219 0.993
2.989 1.229 0.991
3.042 1.282 0.994
3.003 1.295 0.991
3.059 1.351 0.995
3.015 1.362 0.992
3.056 1.413 0.994
3.009 1.422 0.992
3.075 1.486 0.995
3.018 1.49 0.992
3.063 1.545 0.995
3.027 1.56 0.993
3.077 1.62 0.996
3.033 1.629 0.993
3.082 1.69 0.996
3.038 1.7 0.993
3.093 1.767 0.996
3.052 1.777 0.994
3.102 1.843 0.997
3.049 1.846 0.994
3.104 1.918 0.997
3.064 1.929 0.995
3.114 1.999 0.998
3.066 2.005 0.995
3.122 2.082 0.998
3.073 2.086 0.995
3.125 2.162 0.998
3.082 2.171 0.996
3.128 2.245 0.998
3.082 2.252 0.996
3.144 2.341 0.999
3.102 2.351 0.997
3.14 2.423 0.999
3.103 2.437 0.997
3.154 2.523 1
3.1 2.522 0.997
3.17 2.628 1.001
3.119 2.629 0.998
3.173 2.725 1.001
3.127 2.731 0.998
3.184 2.832 1.002
3.125 2.827 0.998
3.188 2.937 1.002
3.141 2.943 0.999
3.203 3.056 1.003
3.148 3.055 1
3.205 3.166 1.003
3.164 3.179 1
3.228 3.303 1.004
3.178 3.307 1.001
3.251 3.445 1.005
3.193 3.442 1.002
3.257 3.576 1.006
3.213 3.588 1.003
3.273 3.723 1.006
3.223 3.729 1.004
3.292 3.88 1.007
3.242 3.887 1.005
3.318 4.054 1.009
3.253 4.044 1.005
3.322 4.208 1.009
3.28 4.228 1.007
3.35 4.4 1.011
3.299 4.412 1.008
3.359 4.579 1.011
2.003 2.724 0.936
1.957 2.709 0.934
1.914 2.696 0.931
1.88 2.696 0.929
1.854 2.708 0.928
1.828 2.718 0.926
1.805 2.735 0.925
1.78 2.748 0.924
1.762 2.773 0.923
1.747 2.803 0.922
1.578 2.567 0.913
0.923 1.459 0.876
0.903 1.454 0.875
0.888 1.457 0.874
0.877 1.466 0.874
0.86 1.464 0.873
0.841 1.459 0.872
0.84 1.49 0.872
0.826 1.494 0.871
0.81 1.495 0.87
0.801 1.508 0.869
0.785 1.509 0.869
0.774 1.519 0.868
0.773 1.553 0.868
0.786 1.622 0.869
1.014 2.215 0.881
0.995 2.222 0.88
0.975 2.229 0.879
0.956 2.237 0.878
0.936 2.244 0.877
0.916 2.25 0.876
1.169 3.028 0.89
1.137 3.02 0.888
0.939 2.515 0.877
0.95 2.624 0.878
0.924 2.621 0.876
0.93 2.725 0.877
0.964 2.926 0.878
0.932 2.911 0.877
0.877 2.811 0.874
0.806 2.644 0.87
0.783 2.652 0.868
0.739 2.573 0.866
0.672 2.391 0.862
0.61 2.22 0.859
0.562 2.096 0.856
0.516 1.966 0.854
0.474 1.848 0.851
0.438 1.749 0.849
0.407 1.668 0.848
0.378 1.588 0.846
0.352 1.52 0.845
0.329 1.456 0.843
0.308 1.404 0.842
0.287 1.342 0.841
0.268 1.292 0.84
0.251 1.241 0.839
0.236 1.206 0.838
0.221 1.164 0.837
0.207 1.13 0.837
0.194 1.096 0.836
0.182 1.061 0.835
0.171 1.033 0.834
0.16 1.001 0.834
0.15 0.978 0.833
0.14 0.949 0.833
0.131 0.923 0.832
0.122 0.896 0.832
0.114 0.88 0.831
0.106 0.85 0.831
0.098 0.834 0.83
0.098 -0.392 0.831
0.102 -0.392 0.831
0.105 -0.397 0.832
0.109 -0.396 0.832
0.112 -0.395 0.832
0.116 -0.398 0.832
0.119 -0.403 0.833
0.123 -0.402 0.833
0.126 -0.403 0.833
0.13 -0.4 0.833
0.134 -0.405 0.833
0.137 -0.403 0.834
0.14 -0.401 0.834
0.144 -0.401 0.834
0.148 -0.408 0.834
0.152 -0.409 0.835
0.155 -0.403 0.835
0.158 -0.402 0.835
0.162 -0.404 0.835
0.166 -0.404 0.835
0.169 -0.403 0.836
0.172 -0.401 0.836
0.176 -0.4 0.836
0.182 -0.411 0.836
0.183 -0.4 0.837
0.189 -0.408 0.837
0.192 -0.406 0.837
0.195 -0.405 0.837
0.199 -0.405 0.838
0.203 -0.406 0.838
0.206 -0.404 0.838
0.212 -0.411 0.838
0.216 -0.41 0.839
0.219 -0.409 0.839
0.225 -0.417 0.839
0.227 -0.409 0.839
0.233 -0.417 0.84
0.237 -0.414 0.84
0.241 -0.414 0.84
0.244 -0.413 0.84
0.248 -0.413 0.841
0.252 -0.412 0.841
0.257 -0.415 0.841
0.261 -0.415 0.841
0.265 -0.414 0.842
0.272 -0.42 0.842
0.276 -0.419 0.842
0.28 -0.418 0.843
0.284 -0.417 0.843
0.288 -0.417 0.843
0.291 -0.414 0.843
0.299 -0.422 0.844
0.302 -0.418 0.844
