# .PCD v0.7 - Point Cloud Data file format
VERSION 0.7
FIELDS x y z
SIZE 4 4 4
TYPE F F F
COUNT 1 1 1
WIDTH 2534
HEIGHT 1
VIEWPOINT 0 0 0 1 0 0 0
POINTS 2534
DATA ascii
4.243 1.905 2.983
4.217 1.942 2.968
4.197 1.981 2.957
4.185 2.024 2.95
4.151 2.057 2.931
4.129 2.095 2.919
4.107 2.133 2.907
4.085 2.171 2.895
4.062 2.207 2.882
4.048 2.249 2.874
4.022 2.285 2.86
3.999 2.321 2.847
3.974 2.357 2.833
3.952 2.394 2.821
3.94 2.437 2.814
3.915 2.472 2.8
3.894 2.51 2.789
3.875 2.549 2.778
3.849 2.583 2.764
3.83 2.621 2.753
3.818 2.665 2.746
3.665 2.608 2.661
3.624 2.629 2.638
3.625 2.681 2.639
3.606 2.718 2.628
3.51 2.695 2.575
3.53 2.762 2.586
3.509 2.797 2.574
3.487 2.832 2.562
3.473 2.873 2.554
3.45 2.906 2.542
3.435 2.946 2.533
3.412 2.98 2.521
3.396 3.02 2.512
3.372 3.053 2.498
3.349 3.087 2.486
3.332 3.127 2.476
3.308 3.159 2.463
3.29 3.199 2.453
3.274 3.239 2.444
3.248 3.271 2.429
3.228 3.308 2.418
3.21 3.348 2.408
3.191 3.386 2.398
3.165 3.418 2.383
3.144 3.455 2.372
3.125 3.494 2.361
3.103 3.531 2.349
3.083 3.569 2.337
3.062 3.608 2.326
3.041 3.646 2.314
1.579 1.916 1.502
1.571 1.94 1.497
1.556 1.956 1.489
1.546 1.978 1.484
1.524 1.983 1.471
1.43 1.893 1.419
1.361 1.832 1.38
1.347 1.846 1.373
1.327 1.85 1.361
1.174 1.664 1.276
1.103 1.591 1.237
1.057 1.55 1.211
0.993 1.482 1.176
0.962 1.461 1.159
0.951 1.472 1.153
0.945 1.488 1.149
0.938 1.506 1.146
0.927 1.515 1.139
0.92 1.532 1.135
0.908 1.541 1.129
0.901 1.557 1.125
0.889 1.566 1.118
0.881 1.582 1.114
0.874 1.6 1.11
0.866 1.617 1.105
0.854 1.626 1.099
0.846 1.643 1.094
0.836 1.655 1.088
0.797 1.61 1.067
0.773 1.592 1.053
0.761 1.601 1.047
0.775 1.666 1.055
0.779 1.712 1.057
0.776 1.742 1.055
0.744 1.706 1.038
0.698 1.635 1.012
0.602 1.436 0.959
0.56 1.363 0.935
0.525 1.306 0.916
0.497 1.264 0.9
0.479 1.245 0.89
0.465 1.239 0.883
0.448 1.222 0.873
0.435 1.215 0.866
0.432 1.237 0.864
0.439 1.293 0.868
0.454 1.374 0.876
0.452 1.407 0.876
0.446 1.426 0.872
0.431 1.416 0.864
0.423 1.429 0.859
0.415 1.446 0.855
0.414 1.486 0.854
0.408 1.51 0.851
0.41 1.567 0.852
0.407 1.608 0.85
0.412 1.688 0.853
0.401 1.698 0.847
0.4 1.758 0.846
0.39 1.778 0.841
0.38 1.799 0.835
0.364 1.793 0.827
0.349 1.788 0.818
0.332 1.774 0.809
0.314 1.749 0.799
0.299 1.742 0.79
0.284 1.735 0.782
0.268 1.718 0.773
0.254 1.712 0.765
0.239 1.703 0.757
0.225 1.696 0.749
0.21 1.679 0.741
0.196 1.669 0.733
0.183 1.669 0.726
0.169 1.653 0.718
0.154 1.634 0.71
0.141 1.626 0.703
0.128 1.617 0.695
0.115 1.608 0.688
0.102 1.598 0.681
0.09 1.599 0.674
0.078 1.589 0.667
0.065 1.579 0.66
0.053 1.569 0.653
0.041 1.56 0.647
0.029 1.555 0.64
0.017 0.154 0.633
0.017 -0.101 0.633
0.032 -2.061 0.642
0.049 -2.092 0.651
0.065 -2.11 0.661
0.082 -2.15 0.67
0.097 -2.097 0.678
0.101 -1.848 0.681
0.114 -1.82 0.688
0.133 -1.901 0.699
0.174 -2.297 0.722
0.195 -2.339 0.734
0.216 -2.379 0.746
0.238 -2.419 0.758
0.251 -2.357 0.765
0.271 -2.38 0.777
0.288 -2.366 0.786
0.328 -2.541 0.809
0.352 -2.577 0.822
0.383 -2.654 0.839
0.403 -2.647 0.851
0 0 0
0 0 0
0 0 0
0 0 0
0.394 -2.037 0.846
0.362 -1.789 0.828
0.37 -1.754 0.832
0.395 -1.809 0.846
0.409 -1.805 0.854
0.483 -2.069 0.896
0.454 -1.873 0.879
0.423 -1.681 0.862
0.396 -1.519 0.847
0.388 -1.436 0.842
0.339 -1.21 0.815
0.315 -1.085 0.801
0.334 -1.121 0.812
0.373 -1.221 0.834
0.429 -1.375 0.865
0.467 -1.458 0.887
0.473 -1.44 0.89
0.483 -1.432 0.896
0.488 -1.408 0.898
0.503 -1.415 0.907
0.514 -1.412 0.913
1.312 -3.587 1.362
1.337 -3.567 1.376
1.361 -3.546 1.389
1.387 -3.531 1.404
1.411 -3.509 1.417
1.435 -3.49 1.431
1.514 -3.601 1.475
2.581 -6.031 2.075
2.606 -5.957 2.089
2.631 -5.887 2.104
2.656 -5.817 2.118
2.677 -5.739 2.129
2.702 -5.673 2.143
2.724 -5.604 2.156
2.754 -5.55 2.172
3.269 -6.463 2.462
3.318 -6.43 2.49
3.367 -6.397 2.517
3.416 -6.363 2.545
3.459 -6.32 2.569
3.506 -6.284 2.596
3.554 -6.249 2.622
3.606 -6.221 2.651
3.653 -6.184 2.678
3.698 -6.145 2.703
3.744 -6.107 2.729
3.791 -6.07 2.755
3.84 -6.038 2.783
3.89 -6.005 2.811
3.937 -5.968 2.838
3.988 -5.937 2.866
4.033 -5.897 2.891
4.083 -5.865 2.92
4.128 -5.824 2.945
4.177 -5.79 2.973
4.227 -5.756 3.001
4.277 -5.722 3.029
4.326 -5.687 3.056
4.375 -5.652 3.084
4.424 -5.615 3.111
4.472 -5.578 3.139
4.521 -5.541 3.166
4.574 -5.51 3.196
4.616 -5.464 3.219
4.669 -5.431 3.249
4.717 -5.392 3.276
4.77 -5.358 3.306
4.819 -5.32 3.333
4.827 -5.237 3.338
4.559 -4.859 3.187
4.529 -4.743 3.17
4.701 -4.838 3.267
4.756 -4.81 3.298
4.774 -4.745 3.308
4.839 -4.725 3.345
4.888 -4.689 3.372
4.94 -4.655 3.401
4.986 -4.616 3.427
5.033 -4.577 3.454
5.086 -4.544 3.484
5.13 -4.501 3.508
5.177 -4.461 3.535
5.201 -4.401 3.548
5.18 -4.303 3.536
5.711 -4.66 3.835
5.768 -4.62 3.867
5.824 -4.579 3.899
5.881 -4.538 3.931
5.944 -4.501 3.966
6.002 -4.459 3.998
6.057 -4.414 4.029
6.113 -4.37 4.061
6.169 -4.325 4.093
6.234 -4.286 4.129
6.29 -4.239 4.16
6.353 -4.197 4.196
6.41 -4.15 4.228
6.472 -4.105 4.263
6.534 -4.06 4.298
6.604 -4.018 4.337
6.665 -3.97 4.371
6.726 -3.922 4.405
6.794 -3.877 4.444
6.852 -3.825 4.477
6.919 -3.777 4.514
6.989 -3.73 4.553
7.049 -3.677 4.587
7.107 -3.622 4.62
7.18 -3.573 4.661
3.199 -1.55 2.423
3.19 -1.508 2.417
3.198 -1.474 2.422
3.17 -1.425 2.406
3.142 -1.376 2.39
3.138 -1.339 2.388
3.138 -1.303 2.389
3.145 -1.271 2.392
3.159 -1.241 2.4
3.16 -1.206 2.401
3.179 -1.179 2.411
3.192 -1.149 2.419
3.233 -1.128 2.442
3.25 -1.099 2.452
3.265 -1.069 2.46
3.308 -1.047 2.484
0 0 0
0 0 0
0 0 0
0 0 0
0 0 0
2.066 -0.521 1.786
2.037 -0.493 1.769
2.015 -0.466 1.757
2.028 -0.448 1.764
2.039 -0.43 1.771
2.058 -0.413 1.781
2.007 -0.382 1.752
1.966 -0.354 1.729
1.951 -0.332 1.721
1.946 -0.311 1.718
1.94 -0.29 1.715
1.933 -0.27 1.711
1.935 -0.251 1.712
1.937 -0.232 1.713
1.939 -0.212 1.714
1.943 -0.193 1.716
1.951 -0.175 1.721
1.969 -0.157 1.731
1.98 -0.138 1.737
1.997 -0.119 1.747
2.062 -0.102 1.784
2.064 -0.082 1.784
2.037 -0.061 1.769
2.037 -0.04 1.769
2.045 -0.02 1.774
2.075 -0 1.791
0 0 0
5.081 0.101 3.481
5.072 0.152 3.475
5.105 0.204 3.494
5.128 0.256 3.507
5.157 0.309 3.523
5.173 0.362 3.532
5.134 0.411 3.511
5.113 0.46 3.499
5.11 0.511 3.497
5.067 0.558 3.473
5.021 0.603 3.447
4.998 0.651 3.434
4.985 0.7 3.427
4.938 0.743 3.401
4.894 0.786 3.376
4.89 0.836 3.374
4.869 0.882 3.362
4.826 0.923 3.337
4.782 0.964 3.313
4.773 1.011 3.307
4.747 1.055 3.293
4.719 1.098 3.277
4.691 1.14 3.261
4.672 1.184 3.251
4.648 1.227 3.237
4.617 1.267 3.22
4.594 1.309 3.207
4.564 1.349 3.19
4.408 1.35 3.103
4.348 1.378 3.068
4.314 1.413 3.049
4.272 1.446 3.026
4.246 1.483 3.012
4.254 1.533 3.016
4.262 1.582 3.02
4.235 1.619 3.005
4.351 1.712 3.07
4.33 1.752 3.058
4.316 1.795 3.051
4.297 1.836 3.04
4.266 1.871 3.023
4.246 1.911 3.011
4.216 1.946 2.995
4.204 1.99 2.987
4.163 2.019 2.965
4.146 2.06 2.955
4.123 2.098 2.942
4.105 2.137 2.932
4.088 2.178 2.923
4.051 2.208 2.902
4.031 2.246 2.891
4.019 2.289 2.884
3.997 2.327 2.871
3.968 2.36 2.855
3.941 2.394 2.84
3.926 2.435 2.831
3.908 2.474 2.821
3.884 2.51 2.808
3.864 2.549 2.797
3.845 2.587 2.786
3.824 2.625 2.774
3.797 2.657 2.759
3.652 2.606 2.677
3.621 2.634 2.66
3.614 2.68 2.656
3.58 2.706 2.637
3.523 2.713 2.605
3.527 2.768 2.607
3.506 2.803 2.595
3.484 2.837 2.583
3.463 2.873 2.571
3.447 2.912 2.562
3.425 2.946 2.55
3.409 2.987 2.541
3.386 3.02 2.528
3.37 3.06 2.519
3.346 3.093 2.505
3.329 3.133 2.496
3.305 3.166 2.482
3.282 3.199 2.469
3.265 3.239 2.46
3.24 3.271 2.446
3.221 3.31 2.435
3.202 3.349 2.425
3.176 3.38 2.41
3.157 3.419 2.399
3.137 3.457 2.388
3.117 3.495 2.377
3.096 3.533 2.365
3.075 3.571 2.353
3.054 3.608 2.341
3.032 3.646 2.329
1.573 1.915 1.509
1.567 1.941 1.505
1.552 1.956 1.497
1.543 1.979 1.491
1.527 1.993 1.483
1.429 1.897 1.428
1.362 1.839 1.39
1.348 1.853 1.382
1.328 1.858 1.371
1.176 1.672 1.285
1.104 1.597 1.245
1.054 1.551 1.217
0.99 1.481 1.181
0.959 1.461 1.163
0.949 1.472 1.157
0.942 1.488 1.154
0.936 1.506 1.15
0.924 1.515 1.144
0.918 1.532 1.14
0.906 1.541 1.133
0.898 1.557 1.129
0.886 1.566 1.122
0.879 1.582 1.118
0.872 1.6 1.114
0.864 1.617 1.11
0.856 1.635 1.105
0.844 1.643 1.098
0.829 1.647 1.09
0.788 1.597 1.067
0.766 1.584 1.055
0.754 1.591 1.048
0.757 1.632 1.05
0.765 1.684 1.054
0.771 1.735 1.058
0.748 1.719 1.044
0.715 1.68 1.026
0.648 1.553 0.988
0.58 1.417 0.95
0.537 1.341 0.926
0.508 1.295 0.909
0.477 1.245 0.892
0.461 1.231 0.883
0.446 1.22 0.875
0.434 1.216 0.868
0.42 1.205 0.86
0.419 1.235 0.86
0.435 1.318 0.869
0.446 1.392 0.875
0.441 1.414 0.872
0.425 1.401 0.863
0.415 1.405 0.857
0.407 1.419 0.853
0.403 1.45 0.851
0.4 1.486 0.849
0.4 1.532 0.849
0.394 1.56 0.846
0.404 1.659 0.851
0.395 1.68 0.846
0.382 1.681 0.839
0.385 1.758 0.84
0.377 1.788 0.836
0.361 1.784 0.827
0.348 1.787 0.82
0.331 1.773 0.81
0.315 1.759 0.801
0.298 1.743 0.792
0.283 1.735 0.783
0.267 1.718 0.774
0.253 1.711 0.766
0.239 1.703 0.758
0.225 1.696 0.75
0.209 1.678 0.742
0.195 1.669 0.734
0.183 1.669 0.727
0.168 1.653 0.719
0.155 1.644 0.711
0.141 1.626 0.703
0.128 1.627 0.696
0.115 1.608 0.689
0.103 1.609 0.682
0.089 1.589 0.674
0.077 1.589 0.668
0.065 1.579 0.661
0.053 1.569 0.654
0.041 1.57 0.647
0.029 1.554 0.64
0.017 0.137 0.633
0.016 -0.112 0.634
0.032 -2.071 0.643
0.048 -2.093 0.652
0.065 -2.12 0.661
0.082 -2.151 0.671
0.096 -2.097 0.679
0.1 -1.846 0.682
0.113 -1.824 0.689
0.132 -1.901 0.7
0.173 -2.297 0.723
0.194 -2.339 0.735
0.215 -2.379 0.747
0.237 -2.418 0.76
0.24 -2.257 0.761
0.267 -2.346 0.777
0.283 -2.332 0.786
0.325 -2.531 0.81
0.352 -2.587 0.826
0.382 -2.661 0.843
0.402 -2.656 0.854
0 0 0
0 0 0
0 0 0
0.326 -1.753 0.811
0.382 -1.982 0.843
0.364 -1.805 0.832
0.375 -1.79 0.839
0.435 -2.009 0.873
0.465 -2.073 0.89
0.49 -2.111 0.905
0.496 -2.062 0.908
0.519 -2.089 0.921
0.396 -1.526 0.851
0.364 -1.351 0.832
0.327 -1.169 0.811
0.309 -1.07 0.801
0.327 -1.102 0.811
0.393 -1.295 0.849
0.437 -1.406 0.874
0.483 -1.518 0.9
0.479 -1.465 0.898
0.482 -1.434 0.9
0.485 -1.405 0.901
0.504 -1.425 0.912
0.504 -1.389 0.912
1.306 -3.587 1.371
1.331 -3.569 1.386
1.354 -3.544 1.399
1.381 -3.531 1.414
1.405 -3.509 1.428
1.433 -3.498 1.444
1.501 -3.585 1.483
2.573 -6.039 2.096
2.594 -5.956 2.108
2.62 -5.887 2.123
2.645 -5.817 2.137
2.669 -5.748 2.151
2.69 -5.672 2.163
2.713 -5.604 2.176
2.738 -5.542 2.191
3.256 -6.463 2.486
3.304 -6.43 2.514
3.353 -6.397 2.542
3.401 -6.362 2.569
3.449 -6.328 2.597
3.496 -6.292 2.624
3.543 -6.256 2.651
3.589 -6.217 2.677
3.636 -6.181 2.704
3.683 -6.146 2.731
3.73 -6.109 2.758
3.777 -6.073 2.784
3.821 -6.032 2.81
3.873 -6.004 2.839
3.92 -5.968 2.867
3.971 -5.937 2.895
4.016 -5.897 2.921
4.066 -5.865 2.95
4.116 -5.832 2.978
4.16 -5.79 3.004
4.209 -5.756 3.032
4.259 -5.722 3.06
4.308 -5.687 3.088
4.357 -5.652 3.116
4.405 -5.615 3.144
4.453 -5.578 3.172
4.501 -5.541 3.199
4.555 -5.51 3.23
4.602 -5.471 3.257
4.65 -5.431 3.284
4.703 -5.399 3.314
4.757 -5.367 3.345
4.804 -5.326 3.372
4.816 -5.247 3.379
4.556 -4.876 3.23
4.508 -4.741 3.203
4.684 -4.841 3.303
4.736 -4.81 3.333
4.753 -4.743 3.343
4.819 -4.725 3.381
4.87 -4.692 3.41
4.918 -4.655 3.437
4.967 -4.619 3.465
5.012 -4.577 3.491
5.066 -4.545 3.522
5.114 -4.506 3.549
5.161 -4.466 3.576
5.19 -4.41 3.593
5.163 -4.308 3.578
5.695 -4.666 3.881
5.751 -4.626 3.914
5.8 -4.579 3.942
5.856 -4.538 3.974
5.919 -4.501 4.01
5.977 -4.459 4.043
6.031 -4.414 4.074
6.087 -4.37 4.106
6.144 -4.326 4.138
6.208 -4.286 4.175
6.271 -4.245 4.211
6.327 -4.197 4.243
6.39 -4.154 4.279
6.445 -4.105 4.31
6.514 -4.064 4.35
6.576 -4.018 4.386
6.637 -3.97 4.42
6.704 -3.926 4.459
6.766 -3.877 4.494
6.832 -3.83 4.532
6.89 -3.777 4.565
6.958 -3.729 4.604
7.02 -3.677 4.64
7.077 -3.622 4.672
7.15 -3.573 4.714
3.183 -1.548 2.445
3.175 -1.507 2.44
3.176 -1.471 2.441
3.157 -1.425 2.43
3.128 -1.376 2.413
3.119 -1.336 2.408
3.125 -1.303 2.412
3.129 -1.27 2.414
3.145 -1.241 2.423
3.145 -1.206 2.423
3.163 -1.178 2.434
3.174 -1.147 2.44
3.204 -1.123 2.457
3.237 -1.099 2.475
3.252 -1.069 2.484
3.282 -1.043 2.501
0 0 0
0 0 0
0 0 0
6.277 -1.731 4.214
0 0 0
2.05 -0.519 1.797
2.019 -0.49 1.779
2.006 -0.466 1.772
2.02 -0.449 1.779
2.013 -0.426 1.775
2.05 -0.413 1.797
1.998 -0.382 1.767
1.958 -0.354 1.744
1.943 -0.332 1.736
1.929 -0.31 1.728
1.923 -0.289 1.724
1.925 -0.27 1.725
1.927 -0.251 1.726
1.919 -0.23 1.722
1.922 -0.211 1.723
1.926 -0.192 1.726
1.934 -0.174 1.73
1.952 -0.156 1.741
1.961 -0.137 1.746
1.98 -0.119 1.757
2.034 -0.102 1.788
2.036 -0.081 1.789
2.018 -0.06 1.779
2.028 -0.04 1.784
2.036 -0.02 1.789
2.066 -0 1.806
0 0 0
5.068 0.102 3.523
5.058 0.152 3.517
5.093 0.204 3.537
5.115 0.256 3.55
5.146 0.31 3.568
5.146 0.361 3.567
5.142 0.413 3.565
5.123 0.463 3.554
5.067 0.509 3.522
5.013 0.554 3.492
4.989 0.602 3.478
5.005 0.655 3.487
4.961 0.699 3.462
4.921 0.744 3.439
4.875 0.787 3.413
4.869 0.835 3.409
4.834 0.879 3.389
4.801 0.922 3.371
4.763 0.964 3.348
4.766 1.014 3.35
4.721 1.053 3.324
4.708 1.1 3.317
4.686 1.144 3.305
4.634 1.179 3.275
4.624 1.226 3.269
4.597 1.267 3.254
4.571 1.308 3.239
4.546 1.35 3.225
4.392 1.351 3.137
4.329 1.378 3.1
4.289 1.411 3.077
4.259 1.448 3.06
4.235 1.486 3.047
4.22 1.527 3.038
4.209 1.569 3.031
4.181 1.605 3.016
4.152 1.641 2.999
4.133 1.679 2.988
4.197 1.753 3.025
4.191 1.798 3.021
4.253 1.874 3.057
4.23 1.912 3.044
4.214 1.954 3.034
4.192 1.993 3.022
4.163 2.028 3.005
4.138 2.064 2.991
4.113 2.101 2.977
4.088 2.138 2.963
4.066 2.176 2.95
4.047 2.215 2.939
4.022 2.251 2.925
4.002 2.289 2.914
3.976 2.324 2.899
3.953 2.361 2.885
3.944 2.406 2.88
3.919 2.441 2.866
3.891 2.474 2.85
3.874 2.514 2.84
3.856 2.554 2.83
3.826 2.585 2.813
3.798 2.618 2.797
3.789 2.663 2.791
3.642 2.61 2.707
3.605 2.634 2.686
3.598 2.68 2.682
3.54 2.687 2.649
3.514 2.718 2.634
3.517 2.771 2.636
3.489 2.801 2.62
3.475 2.842 2.612
3.454 2.877 2.6
3.432 2.912 2.587
3.411 2.946 2.575
3.395 2.987 2.566
3.372 3.02 2.553
3.349 3.054 2.54
3.332 3.093 2.53
3.315 3.133 2.52
3.291 3.166 2.507
3.275 3.206 2.497
3.25 3.238 2.483
3.226 3.271 2.469
3.207 3.31 2.459
3.189 3.349 2.448
3.17 3.388 2.438
3.144 3.419 2.422
3.124 3.457 2.411
3.105 3.496 2.4
3.084 3.534 2.388
3.063 3.572 2.376
3.042 3.61 2.364
3.021 3.647 2.352
1.575 1.926 1.525
1.56 1.941 1.516
1.545 1.956 1.508
1.536 1.978 1.502
1.532 2.008 1.5
1.443 1.924 1.449
1.361 1.846 1.403
1.353 1.867 1.398
1.326 1.863 1.383
1.155 1.649 1.285
1.093 1.588 1.25
1.047 1.548 1.223
0.987 1.484 1.189
0.956 1.462 1.171
0.945 1.472 1.164
0.938 1.488 1.161
0.932 1.506 1.157
0.92 1.515 1.151
0.913 1.532 1.147
0.902 1.541 1.14
0.894 1.557 1.136
0.887 1.574 1.131
0.875 1.582 1.125
0.868 1.6 1.121
0.86 1.617 1.116
0.852 1.634 1.111
0.84 1.643 1.105
0.817 1.63 1.092
0.78 1.587 1.071
0.759 1.575 1.058
0.747 1.583 1.052
0.746 1.615 1.051
0.751 1.661 1.054
0.767 1.735 1.063
0.749 1.73 1.053
0.716 1.69 1.034
0.679 1.637 1.013
0.615 1.514 0.976
0.546 1.369 0.936
0.518 1.33 0.921
0.477 1.25 0.897
0.462 1.239 0.888
0.446 1.224 0.879
0.431 1.213 0.871
0.418 1.205 0.863
0.404 1.194 0.855
0.41 1.246 0.859
0.421 1.315 0.865
0.433 1.393 0.872
0.422 1.395 0.865
0.408 1.389 0.858
0.397 1.391 0.851
0.395 1.427 0.85
0.389 1.448 0.847
0.389 1.498 0.847
0.386 1.536 0.845
0.39 1.604 0.847
0.387 1.651 0.846
0.379 1.674 0.841
0.376 1.723 0.839
0.372 1.774 0.837
0.36 1.783 0.83
0.346 1.787 0.822
0.33 1.773 0.813
0.313 1.757 0.803
0.297 1.743 0.794
0.282 1.735 0.786
0.266 1.718 0.776
0.252 1.712 0.768
0.237 1.703 0.76
0.222 1.686 0.751
0.208 1.678 0.743
0.194 1.669 0.735
0.182 1.669 0.728
0.167 1.653 0.72
0.153 1.634 0.712
0.14 1.626 0.704
0.127 1.617 0.697
0.114 1.608 0.689
0.102 1.608 0.682
0.089 1.589 0.675
0.076 1.579 0.668
0.064 1.58 0.661
0.052 1.569 0.654
0.04 1.56 0.647
0.028 1.554 0.64
0.016 0.177 0.634
0.016 -0.095 0.634
0.032 -2.071 0.643
0.048 -2.092 0.652
0.064 -2.12 0.662
0.081 -2.15 0.671
0.096 -2.106 0.68
0.1 -1.852 0.682
0.113 -1.822 0.689
0.131 -1.898 0.7
0.173 -2.297 0.724
0.193 -2.339 0.736
0.215 -2.379 0.748
0.236 -2.414 0.761
0.214 -2.003 0.748
0.263 -2.321 0.776
0.282 -2.334 0.788
0.323 -2.522 0.811
0.351 -2.586 0.827
0.382 -2.668 0.845
0.398 -2.636 0.855
0 0 0
0 0 0
0 0 0
0 0 0
0.388 -2.02 0.849
0.371 -1.85 0.839
0.389 -1.865 0.849
0.46 -2.133 0.89
0.476 -2.131 0.9
0.492 -2.124 0.909
0.5 -2.084 0.913
0.533 -2.151 0.932
0.382 -1.475 0.845
0.346 -1.285 0.824
0.317 -1.138 0.808
0.31 -1.077 0.804
0.332 -1.121 0.816
0.403 -1.334 0.857
0.452 -1.463 0.886
0.489 -1.541 0.907
0.48 -1.472 0.902
0.481 -1.437 0.903
0.482 -1.401 0.903
0.499 -1.416 0.913
0.523 -1.448 0.927
1.303 -3.589 1.378
1.328 -3.569 1.392
1.351 -3.546 1.406
1.378 -3.533 1.421
1.401 -3.511 1.435
1.426 -3.492 1.449
1.497 -3.587 1.49
2.566 -6.039 2.109
2.591 -5.965 2.123
2.612 -5.886 2.135
2.637 -5.816 2.15
2.662 -5.748 2.164
2.686 -5.681 2.178
2.705 -5.603 2.189
2.731 -5.542 2.204
3.246 -6.463 2.502
3.295 -6.43 2.53
3.343 -6.397 2.558
3.392 -6.363 2.586
3.438 -6.326 2.613
3.484 -6.289 2.64
3.531 -6.253 2.667
3.576 -6.212 2.693
3.626 -6.183 2.722
3.671 -6.143 2.748
3.717 -6.105 2.774
3.766 -6.073 2.803
3.811 -6.034 2.829
3.867 -6.011 2.861
3.909 -5.968 2.886
3.959 -5.937 2.915
4.004 -5.897 2.941
4.054 -5.865 2.97
4.104 -5.832 2.998
4.153 -5.798 3.027
4.197 -5.756 3.052
4.247 -5.722 3.081
4.295 -5.687 3.109
4.35 -5.659 3.141
4.393 -5.615 3.165
4.447 -5.586 3.197
4.495 -5.548 3.224
4.542 -5.51 3.252
4.59 -5.471 3.279
4.642 -5.439 3.31
4.69 -5.399 3.337
4.744 -5.367 3.368
4.79 -5.326 3.395
4.817 -5.263 3.411
4.557 -4.892 3.261
4.494 -4.74 3.224
4.668 -4.838 3.324
4.722 -4.809 3.356
4.739 -4.743 3.366
4.805 -4.725 3.404
4.857 -4.692 3.434
4.904 -4.654 3.461
4.953 -4.619 3.49
5.006 -4.585 3.52
5.058 -4.551 3.55
5.111 -4.516 3.581
5.15 -4.469 3.603
5.168 -4.403 3.613
5.145 -4.304 3.6
5.679 -4.666 3.909
5.735 -4.626 3.942
5.791 -4.585 3.974
5.847 -4.543 4.007
5.903 -4.501 4.039
5.959 -4.458 4.071
6.022 -4.42 4.108
6.07 -4.37 4.136
6.134 -4.331 4.173
6.19 -4.286 4.205
6.254 -4.245 4.242
6.309 -4.197 4.274
6.372 -4.154 4.31
6.434 -4.11 4.346
6.495 -4.064 4.382
6.557 -4.018 4.417
6.618 -3.97 4.452
6.686 -3.926 4.492
6.747 -3.877 4.527
6.813 -3.83 4.565
6.879 -3.782 4.604
6.946 -3.733 4.642
7.008 -3.681 4.678
7.065 -3.626 4.711
7.138 -3.578 4.754
7.267 -3.556 4.828
3.174 -1.511 2.46
3.166 -1.47 2.455
3.148 -1.425 2.445
3.127 -1.379 2.433
3.11 -1.336 2.423
3.116 -1.303 2.427
3.12 -1.27 2.429
3.128 -1.238 2.434
3.136 -1.206 2.439
3.148 -1.176 2.445
3.165 -1.147 2.455
3.178 -1.117 2.463
3.214 -1.094 2.484
3.236 -1.066 2.496
3.27 -1.042 2.516
0 0 0
0 0 0
6.316 -1.815 4.278
6.223 -1.721 4.224
0 0 0
2.027 -0.515 1.797
2.012 -0.49 1.788
1.991 -0.464 1.776
1.995 -0.444 1.778
1.998 -0.424 1.78
2.027 -0.41 1.797
2.001 -0.384 1.782
1.952 -0.354 1.753
1.937 -0.332 1.745
1.924 -0.31 1.737
1.917 -0.289 1.733
1.911 -0.269 1.73
1.913 -0.25 1.731
1.914 -0.23 1.731
1.916 -0.211 1.733
1.92 -0.192 1.735
1.928 -0.174 1.739
1.938 -0.155 1.745
1.956 -0.137 1.756
1.966 -0.118 1.761
2.02 -0.101 1.793
2.03 -0.081 1.799
2.013 -0.06 1.789
2.014 -0.04 1.789
2.023 -0.02 1.794
2.061 -0 1.816
2.101 0.021 1.839
5.053 0.102 3.547
5.044 0.152 3.542
5.079 0.204 3.562
5.1 0.256 3.575
5.132 0.31 3.593
5.144 0.362 3.6
5.121 0.412 3.587
5.077 0.46 3.561
5.079 0.512 3.562
5.06 0.561 3.551
4.983 0.603 3.507
4.969 0.652 3.499
4.944 0.699 3.484
4.906 0.744 3.462
4.875 0.789 3.444
4.83 0.831 3.418
4.809 0.877 3.406
4.782 0.921 3.39
4.754 0.965 3.374
4.729 1.009 3.36
4.708 1.053 3.347
4.688 1.098 3.336
4.665 1.141 3.323
4.638 1.184 3.307
4.618 1.227 3.296
4.588 1.268 3.278
4.562 1.309 3.263
4.541 1.352 3.251
4.381 1.351 3.158
4.318 1.378 3.122
4.287 1.415 3.104
4.252 1.449 3.084
4.228 1.488 3.07
4.21 1.528 3.06
4.184 1.564 3.044
4.165 1.604 3.034
4.145 1.642 3.022
4.125 1.681 3.011
4.118 1.724 3.006
4.095 1.762 2.993
4.099 1.81 2.995
4.077 1.848 2.983
4.186 1.946 3.046
4.171 1.988 3.037
4.153 2.029 3.027
4.125 2.064 3.01
4.111 2.106 3.002
4.089 2.144 2.99
4.065 2.181 2.976
4.045 2.22 2.964
4.012 2.251 2.945
3.986 2.287 2.93
3.964 2.324 2.917
3.951 2.366 2.91
3.928 2.403 2.896
3.904 2.438 2.882
3.883 2.476 2.87
3.861 2.513 2.858
3.836 2.548 2.843
3.82 2.588 2.834
3.8 2.627 2.823
3.777 2.662 2.809
3.627 2.607 2.723
3.595 2.634 2.704
3.582 2.675 2.696
3.548 2.701 2.677
3.511 2.723 2.655
3.51 2.774 2.655
3.484 2.805 2.639
3.469 2.845 2.631
3.449 2.881 2.619
3.427 2.916 2.607
3.406 2.951 2.595
3.391 2.991 2.586
3.362 3.02 2.569
3.346 3.06 2.56
3.323 3.094 2.547
3.307 3.133 2.537
3.282 3.166 2.523
3.265 3.206 2.513
3.242 3.239 2.499
3.224 3.279 2.489
3.204 3.316 2.478
3.179 3.348 2.463
3.161 3.388 2.453
3.141 3.426 2.441
3.116 3.458 2.427
3.096 3.497 2.415
3.075 3.534 2.403
3.055 3.572 2.391
3.034 3.61 2.379
3.013 3.648 2.367
1.581 1.938 1.539
1.555 1.941 1.524
1.541 1.956 1.516
1.532 1.979 1.51
1.527 2.008 1.508
1.496 2.001 1.49
1.371 1.865 1.417
1.363 1.887 1.412
1.326 1.869 1.392
1.141 1.633 1.284
1.092 1.59 1.256
1.048 1.553 1.23
0.98 1.477 1.191
0.953 1.462 1.175
0.942 1.472 1.169
0.935 1.488 1.165
0.924 1.497 1.159
0.917 1.515 1.155
0.906 1.524 1.148
0.899 1.541 1.144
0.892 1.557 1.14
0.884 1.574 1.136
0.872 1.582 1.129
0.865 1.6 1.125
0.857 1.617 1.12
0.85 1.635 1.116
0.837 1.643 1.109
0.815 1.631 1.096
0.775 1.581 1.073
0.749 1.559 1.058
0.744 1.581 1.055
0.74 1.605 1.052
0.745 1.651 1.055
0.765 1.735 1.067
0.747 1.73 1.056
0.715 1.692 1.038
0.686 1.659 1.021
0.655 1.62 1.003
0.56 1.411 0.948
0.524 1.35 0.928
0.488 1.284 0.907
0.462 1.243 0.891
0.441 1.216 0.88
0.428 1.209 0.872
0.419 1.211 0.866
0.403 1.195 0.857
0.396 1.205 0.853
0.399 1.248 0.855
0.426 1.375 0.871
0.41 1.361 0.862
0.402 1.372 0.857
0.394 1.384 0.852
0.388 1.404 0.849
0.383 1.429 0.846
0.38 1.465 0.844
0.376 1.498 0.842
0.378 1.558 0.843
0.375 1.602 0.841
0.374 1.656 0.84
0.37 1.703 0.838
0.367 1.753 0.836
0.357 1.773 0.831
0.344 1.778 0.823
0.328 1.772 0.814
0.312 1.757 0.805
0.296 1.743 0.795
0.28 1.725 0.786
0.265 1.718 0.778
0.251 1.712 0.769
0.237 1.703 0.761
0.221 1.686 0.752
0.208 1.679 0.744
0.194 1.669 0.736
0.181 1.67 0.729
0.167 1.654 0.721
0.153 1.634 0.713
0.139 1.626 0.705
0.126 1.617 0.697
0.114 1.618 0.69
0.101 1.599 0.683
0.088 1.589 0.675
0.076 1.589 0.668
0.064 1.58 0.661
0.052 1.569 0.654
0.04 1.56 0.647
0.028 1.556 0.64
0.016 0.154 0.634
0.016 -0.101 0.634
0.032 -2.071 0.643
0.048 -2.093 0.652
0.064 -2.12 0.662
0.081 -2.151 0.672
0.095 -2.105 0.68
0.1 -1.85 0.683
0.113 -1.83 0.691
0.131 -1.905 0.701
0.172 -2.298 0.726
0.192 -2.339 0.738
0.214 -2.379 0.75
0.233 -2.391 0.761
0.205 -1.925 0.745
0.258 -2.284 0.776
0.288 -2.395 0.794
0.318 -2.492 0.811
0.352 -2.607 0.831
0.381 -2.671 0.848
0.395 -2.627 0.857
0 0 0
0 0 0
0 0 0
0 0 0
0.399 -2.092 0.859
0.387 -1.944 0.852
0.44 -2.128 0.883
0.461 -2.152 0.896
0.475 -2.138 0.904
0.489 -2.12 0.912
0.498 -2.087 0.917
0.531 -2.154 0.937
0.333 -1.283 0.82
0.332 -1.237 0.82
0.304 -1.094 0.803
0.309 -1.078 0.806
0.347 -1.182 0.829
0.427 -1.424 0.876
0.476 -1.55 0.904
0.494 -1.565 0.915
0.479 -1.475 0.906
0.483 -1.449 0.909
0.483 -1.411 0.908
0.489 -1.392 0.912
1.272 -3.606 1.373
1.299 -3.593 1.389
1.322 -3.571 1.402
1.346 -3.548 1.416
1.373 -3.536 1.432
1.4 -3.522 1.448
1.421 -3.495 1.46
1.485 -3.574 1.498
2.555 -6.039 2.127
2.58 -5.967 2.142
2.606 -5.898 2.158
2.63 -5.825 2.172
2.65 -5.748 2.184
2.674 -5.681 2.198
2.697 -5.612 2.211
2.72 -5.545 2.225
3.227 -6.454 2.523
3.281 -6.43 2.555
3.329 -6.397 2.583
3.377 -6.363 2.611
3.422 -6.324 2.638
3.472 -6.293 2.667
3.517 -6.256 2.694
3.562 -6.215 2.72
3.609 -6.18 2.748
3.654 -6.142 2.775
3.705 -6.113 2.805
3.75 -6.073 2.831
3.8 -6.043 2.86
3.849 -6.01 2.889
3.897 -5.976 2.917
3.942 -5.937 2.944
3.993 -5.905 2.973
4.042 -5.873 3.003
4.086 -5.832 3.029
4.135 -5.798 3.058
4.179 -5.756 3.083
4.234 -5.73 3.115
4.277 -5.687 3.141
4.331 -5.659 3.173
4.374 -5.615 3.198
4.427 -5.586 3.229
4.475 -5.548 3.257
4.523 -5.51 3.285
4.576 -5.478 3.317
4.623 -5.439 3.344
4.669 -5.399 3.372
4.724 -5.368 3.404
4.77 -5.326 3.431
4.805 -5.273 3.451
4.56 -4.916 3.307
4.477 -4.743 3.258
4.638 -4.828 3.353
4.707 -4.815 3.394
4.716 -4.74 3.399
4.792 -4.733 3.444
4.837 -4.694 3.47
4.888 -4.659 3.5
4.939 -4.626 3.53
4.992 -4.592 3.561
5.055 -4.568 3.598
5.081 -4.509 3.614
5.119 -4.461 3.636
5.087 -4.354 3.617
5.112 -4.296 3.632
5.655 -4.667 3.951
5.71 -4.626 3.984
5.767 -4.586 4.017
5.822 -4.543 4.05
5.885 -4.507 4.087
5.94 -4.464 4.12
5.996 -4.42 4.152
6.052 -4.376 4.185
6.107 -4.331 4.218
6.172 -4.291 4.256
6.227 -4.245 4.288
6.29 -4.202 4.325
6.352 -4.159 4.362
6.406 -4.11 4.394
6.468 -4.064 4.43
6.537 -4.023 4.471
6.597 -3.975 4.506
6.657 -3.926 4.541
6.717 -3.876 4.576
6.783 -3.83 4.616
6.849 -3.782 4.654
6.916 -3.733 4.693
6.978 -3.681 4.73
7.034 -3.625 4.763
7.108 -3.578 4.807
7.237 -3.556 4.883
3.167 -1.514 2.488
3.149 -1.469 2.477
3.135 -1.425 2.469
3.114 -1.38 2.456
3.102 -1.339 2.45
3.103 -1.304 2.45
3.113 -1.272 2.456
3.118 -1.239 2.459
3.123 -1.206 2.462
3.136 -1.176 2.469
3.153 -1.147 2.479
3.165 -1.117 2.486
3.192 -1.091 2.502
3.216 -1.065 2.516
3.247 -1.04 2.535
0 0 0
0 0 0
6.301 -1.818 4.331
6.194 -1.721 4.269
0 0 0
2.015 -0.514 1.81
2.012 -0.492 1.808
1.974 -0.462 1.786
1.988 -0.445 1.794
1.983 -0.423 1.791
2.011 -0.408 1.807
1.985 -0.382 1.792
1.943 -0.354 1.768
1.928 -0.332 1.759
1.915 -0.31 1.751
1.909 -0.289 1.747
1.902 -0.269 1.744
1.904 -0.25 1.745
1.906 -0.23 1.746
1.898 -0.21 1.741
1.904 -0.192 1.745
1.913 -0.173 1.75
1.921 -0.155 1.755
1.938 -0.136 1.765
1.957 -0.118 1.776
1.993 -0.1 1.797
2.014 -0.081 1.809
1.999 -0.06 1.801
1.996 -0.04 1.799
1.997 -0.02 1.799
2.038 -0 1.823
2.054 0.021 1.833
5.04 0.102 3.59
5.03 0.152 3.584
5.065 0.205 3.605
5.078 0.256 3.612
5.116 0.31 3.634
5.138 0.363 3.647
5.097 0.412 3.623
5.095 0.464 3.622
5.067 0.513 3.606
5.014 0.558 3.575
4.964 0.603 3.545
4.941 0.651 3.531
4.914 0.698 3.516
4.894 0.745 3.504
4.864 0.791 3.486
4.831 0.835 3.466
4.817 0.882 3.459
4.769 0.923 3.43
4.754 0.969 3.421
4.726 1.013 3.405
4.695 1.055 3.387
4.671 1.099 3.372
4.644 1.141 3.356
4.619 1.184 3.342
4.594 1.226 3.327
4.564 1.267 3.31
4.551 1.312 3.302
4.523 1.352 3.285
4.363 1.351 3.191
4.307 1.381 3.159
4.268 1.415 3.135
4.233 1.449 3.115
4.211 1.488 3.102
4.204 1.532 3.098
4.185 1.572 3.087
4.164 1.61 3.074
4.133 1.645 3.056
4.108 1.681 3.041
4.083 1.717 3.026
4.062 1.755 3.014
4.049 1.796 3.007
4.022 1.831 2.991
4.006 1.87 2.981
3.977 1.903 2.964
4.06 1.992 3.013
4.039 2.03 3.001
4.092 2.105 3.032
4.078 2.148 3.024
4.052 2.184 3.009
4.031 2.222 2.996
4.004 2.257 2.98
3.979 2.293 2.966
3.956 2.329 2.952
3.936 2.368 2.94
3.912 2.404 2.926
3.89 2.441 2.913
3.873 2.48 2.903
3.854 2.519 2.892
3.812 2.543 2.867
3.803 2.588 2.862
3.79 2.631 2.854
3.762 2.663 2.838
3.622 2.615 2.756
3.571 2.628 2.726
3.564 2.674 2.722
3.511 2.684 2.69
3.509 2.734 2.689
3.492 2.771 2.679
3.476 2.811 2.669
3.454 2.845 2.657
3.431 2.879 2.643
3.416 2.919 2.635
3.396 2.955 2.622
3.373 2.989 2.609
3.353 3.025 2.597
3.336 3.064 2.587
3.314 3.099 2.574
3.291 3.132 2.561
3.268 3.166 2.547
3.25 3.205 2.537
3.227 3.238 2.523
3.209 3.277 2.512
3.191 3.317 2.502
3.172 3.356 2.491
3.148 3.388 2.476
3.128 3.427 2.465
3.109 3.465 2.453
3.089 3.503 2.442
3.062 3.534 2.426
3.041 3.572 2.414
3.022 3.611 2.402
3 3.648 2.389
1.579 1.945 1.553
1.549 1.941 1.536
1.54 1.963 1.53
1.525 1.979 1.522
1.521 2.008 1.519
1.507 2.025 1.511
1.388 1.897 1.441
1.371 1.907 1.431
1.322 1.871 1.402
1.136 1.634 1.293
1.087 1.591 1.264
1.041 1.55 1.237
0.973 1.473 1.197
0.949 1.462 1.182
0.942 1.479 1.179
0.931 1.488 1.172
0.925 1.506 1.168
0.913 1.515 1.162
0.907 1.532 1.158
0.895 1.541 1.151
0.888 1.557 1.147
0.881 1.575 1.143
0.874 1.593 1.138
0.861 1.6 1.131
0.854 1.617 1.127
0.846 1.635 1.122
0.838 1.652 1.117
0.807 1.621 1.099
0.768 1.573 1.076
0.748 1.563 1.064
0.737 1.573 1.058
0.732 1.597 1.055
0.741 1.651 1.06
0.762 1.735 1.073
0.743 1.73 1.062
0.715 1.7 1.045
0.687 1.67 1.029
0.658 1.634 1.012
0.603 1.529 0.979
0.552 1.429 0.949
0.498 1.318 0.918
0.473 1.28 0.903
0.442 1.224 0.885
0.427 1.21 0.875
0.413 1.2 0.867
0.401 1.195 0.86
0.386 1.18 0.852
0.379 1.188 0.847
0.402 1.302 0.861
0.403 1.342 0.862
0.394 1.349 0.856
0.385 1.359 0.851
0.381 1.386 0.849
0.376 1.411 0.846
0.372 1.442 0.843
0.368 1.474 0.841
0.367 1.52 0.84
0.362 1.55 0.837
0.363 1.617 0.838
0.363 1.677 0.838
0.36 1.73 0.836
0.352 1.758 0.831
0.34 1.768 0.824
0.327 1.772 0.817
0.31 1.757 0.807
0.294 1.742 0.798
0.278 1.726 0.788
0.264 1.718 0.78
0.25 1.712 0.771
0.235 1.703 0.763
0.22 1.686 0.754
0.206 1.678 0.746
0.193 1.669 0.738
0.18 1.669 0.73
0.166 1.653 0.722
0.152 1.634 0.714
0.139 1.626 0.706
0.126 1.617 0.698
0.114 1.618 0.691
0.1 1.599 0.683
0.088 1.589 0.676
0.076 1.579 0.669
0.064 1.58 0.662
0.051 1.569 0.655
0.04 1.56 0.648
0.028 1.554 0.641
0.016 0.136 0.634
0.016 -0.109 0.634
0.031 -2.071 0.643
0.047 -2.093 0.653
0.063 -2.121 0.662
0.08 -2.151 0.672
0.095 -2.106 0.681
0.099 -1.847 0.684
0.112 -1.83 0.691
0.13 -1.901 0.702
0.171 -2.298 0.727
0.192 -2.34 0.739
0.211 -2.368 0.751
0.226 -2.33 0.76
0.201 -1.896 0.745
0.251 -2.231 0.775
0.281 -2.351 0.793
0.317 -2.501 0.814
0.351 -2.615 0.835
0.378 -2.665 0.851
0.393 -2.624 0.859
0 0 0
0 0 0
0 0 0
0 0 0
0.41 -2.16 0.87
0.424 -2.147 0.878
0.444 -2.16 0.89
0.46 -2.156 0.9
0.474 -2.14 0.908
0.484 -2.111 0.914
0.499 -2.103 0.923
0.525 -2.14 0.939
0.312 -1.203 0.811
0.319 -1.192 0.815
0.294 -1.059 0.8
0.307 -1.075 0.808
0.371 -1.274 0.847
0.448 -1.504 0.892
0.486 -1.592 0.915
0.494 -1.574 0.92
0.482 -1.494 0.913
0.488 -1.472 0.916
0.468 -1.374 0.905
1.242 -3.627 1.367
1.266 -3.607 1.382
1.294 -3.595 1.398
1.317 -3.572 1.413
1.344 -3.559 1.429
1.368 -3.538 1.443
1.389 -3.512 1.456
1.416 -3.498 1.472
1.478 -3.572 1.509
2.544 -6.04 2.146
2.569 -5.967 2.161
2.594 -5.897 2.177
2.618 -5.825 2.191
2.642 -5.757 2.206
2.663 -5.682 2.218
2.685 -5.612 2.231
2.713 -5.555 2.248
2.763 -5.544 2.277
3.266 -6.43 2.579
3.314 -6.397 2.608
3.362 -6.363 2.636
3.41 -6.33 2.665
3.457 -6.295 2.693
3.503 -6.258 2.721
3.55 -6.222 2.749
3.597 -6.187 2.777
3.643 -6.15 2.804
3.688 -6.112 2.831
3.733 -6.073 2.858
3.782 -6.041 2.887
3.837 -6.018 2.921
3.88 -5.976 2.946
3.931 -5.945 2.976
3.969 -5.897 2.999
4.024 -5.873 3.032
4.068 -5.832 3.059
4.117 -5.798 3.088
4.167 -5.764 3.117
4.215 -5.73 3.147
4.264 -5.695 3.176
4.312 -5.659 3.205
4.36 -5.623 3.233
4.408 -5.586 3.262
4.455 -5.548 3.29
4.503 -5.51 3.319
4.556 -5.478 3.35
4.603 -5.439 3.378
4.649 -5.399 3.406
4.703 -5.368 3.438
4.748 -5.326 3.466
4.791 -5.28 3.491
4.553 -4.93 3.349
4.453 -4.739 3.289
4.615 -4.826 3.386
4.688 -4.817 3.429
4.695 -4.74 3.434
4.781 -4.742 3.485
4.82 -4.697 3.508
4.877 -4.669 3.542
4.929 -4.637 3.574
4.954 -4.577 3.589
5 -4.538 3.616
4.974 -4.434 3.601
5.019 -4.394 3.628
5.02 -4.315 3.628
5.072 -4.281 3.659
5.63 -4.667 3.993
5.693 -4.632 4.031
5.748 -4.591 4.064
5.797 -4.544 4.093
5.859 -4.507 4.13
5.915 -4.464 4.164
5.97 -4.42 4.197
6.025 -4.376 4.23
6.089 -4.337 4.268
6.144 -4.291 4.301
6.207 -4.25 4.339
6.263 -4.203 4.372
6.325 -4.16 4.409
6.386 -4.115 4.445
6.447 -4.069 4.482
6.508 -4.023 4.519
6.576 -3.98 4.559
6.635 -3.93 4.594
6.696 -3.881 4.631
6.762 -3.834 4.671
6.82 -3.782 4.705
6.885 -3.733 4.744
6.947 -3.681 4.781
7.005 -3.626 4.816
7.077 -3.578 4.859
7.209 -3.558 4.938
3.147 -1.511 2.507
3.143 -1.473 2.505
3.129 -1.429 2.497
3.1 -1.38 2.479
3.087 -1.338 2.472
3.093 -1.305 2.475
3.099 -1.272 2.479
3.104 -1.239 2.482
3.118 -1.21 2.49
3.122 -1.176 2.492
3.131 -1.144 2.498
3.151 -1.117 2.51
3.168 -1.088 2.52
3.197 -1.063 2.537
3.23 -1.039 2.557
3.264 -1.014 2.578
0 0 0
0 0 0
6.175 -1.723 4.319
0 0 0
0 0 0
2.003 -0.492 1.823
1.973 -0.464 1.805
1.973 -0.443 1.805
1.967 -0.422 1.802
1.986 -0.405 1.813
1.985 -0.384 1.812
1.935 -0.354 1.782
1.912 -0.33 1.768
1.907 -0.31 1.765
1.893 -0.288 1.757
1.896 -0.269 1.759
1.896 -0.25 1.759
1.887 -0.229 1.754
1.89 -0.21 1.755
1.894 -0.191 1.758
1.898 -0.173 1.76
1.908 -0.154 1.766
1.913 -0.135 1.769
1.939 -0.117 1.785
1.976 -0.1 1.807
1.999 -0.081 1.82
1.98 -0.06 1.809
1.983 -0.04 1.811
1.983 -0.02 1.811
2.004 -0 1.824
2.033 0.021 1.841
5.016 0.102 3.626
5.016 0.153 3.626
5.044 0.205 3.642
5.064 0.257 3.655
5.085 0.31 3.667
5.101 0.362 3.677
5.074 0.412 3.661
5.062 0.463 3.653
5.018 0.51 3.627
5.026 0.562 3.632
4.952 0.605 3.587
4.929 0.652 3.573
4.906 0.7 3.56
4.87 0.745 3.538
4.825 0.788 3.511
4.819 0.836 3.508
4.77 0.877 3.478
4.749 0.923 3.466
4.736 0.97 3.458
4.723 1.017 3.451
4.68 1.057 3.425
4.649 1.099 3.406
4.633 1.144 3.397
4.619 1.189 3.388
4.579 1.228 3.365
4.547 1.268 3.345
4.522 1.309 3.33
4.496 1.35 3.315
4.344 1.352 3.224
4.289 1.381 3.191
4.261 1.418 3.174
4.226 1.453 3.153
4.201 1.491 3.138
4.193 1.535 3.133
4.178 1.576 3.124
4.155 1.614 3.111
4.127 1.65 3.094
4.11 1.69 3.084
4.08 1.724 3.066
4.06 1.762 3.054
4.029 1.795 3.035
4.008 1.833 3.023
3.995 1.873 3.015
3.97 1.909 3
3.968 1.955 2.999
3.943 1.99 2.984
3.938 2.035 2.981
3.921 2.074 2.971
4.034 2.184 3.038
4.009 2.22 3.023
3.995 2.262 3.015
3.974 2.3 3.002
3.944 2.332 2.984
3.927 2.372 2.974
3.906 2.41 2.961
3.882 2.446 2.947
3.855 2.48 2.931
3.835 2.518 2.919
3.809 2.552 2.903
3.783 2.586 2.888
3.771 2.629 2.881
3.75 2.667 2.868
3.603 2.612 2.78
3.57 2.639 2.761
3.562 2.684 2.756
3.502 2.689 2.72
3.491 2.732 2.713
3.477 2.772 2.705
3.462 2.812 2.696
3.44 2.847 2.683
3.418 2.881 2.67
3.403 2.921 2.66
3.379 2.954 2.647
3.365 2.994 2.638
3.341 3.028 2.624
3.319 3.062 2.61
3.305 3.104 2.602
3.282 3.138 2.588
3.259 3.172 2.575
3.235 3.204 2.56
3.219 3.245 2.551
3.202 3.285 2.54
3.177 3.317 2.525
3.159 3.356 2.515
3.133 3.387 2.499
3.114 3.427 2.488
3.095 3.465 2.476
3.069 3.496 2.461
3.055 3.541 2.452
3.028 3.572 2.436
3.008 3.611 2.424
2.986 3.648 2.411
1.566 1.937 1.561
1.542 1.941 1.547
1.533 1.963 1.542
1.524 1.986 1.536
1.52 2.017 1.534
1.502 2.027 1.523
1.423 1.954 1.476
1.381 1.93 1.451
1.316 1.871 1.412
1.122 1.62 1.296
1.081 1.589 1.272
1.033 1.545 1.243
0.967 1.47 1.203
0.944 1.462 1.189
0.938 1.479 1.186
0.927 1.488 1.179
0.92 1.506 1.175
0.909 1.515 1.168
0.903 1.532 1.165
0.891 1.541 1.158
0.884 1.558 1.154
0.877 1.575 1.149
0.865 1.583 1.142
0.862 1.609 1.14
0.85 1.617 1.133
0.842 1.635 1.128
0.83 1.643 1.121
0.803 1.621 1.105
0.765 1.574 1.082
0.742 1.559 1.069
0.735 1.575 1.064
0.729 1.597 1.061
0.735 1.646 1.064
0.762 1.744 1.08
0.744 1.741 1.07
0.711 1.7 1.05
0.685 1.673 1.035
0.661 1.65 1.02
0.632 1.611 1.002
0.59 1.538 0.977
0.507 1.348 0.928
0.481 1.308 0.912
0.445 1.238 0.891
0.425 1.21 0.879
0.409 1.194 0.869
0.398 1.191 0.863
0.384 1.178 0.854
0.371 1.169 0.846
0.379 1.228 0.851
0.383 1.28 0.854
0.385 1.326 0.855
0.378 1.337 0.85
0.376 1.371 0.849
0.368 1.385 0.845
0.364 1.417 0.843
0.359 1.442 0.839
0.36 1.495 0.84
0.354 1.522 0.836
0.352 1.57 0.835
0.352 1.634 0.835
0.354 1.706 0.836
0.346 1.737 0.832
0.338 1.767 0.827
0.323 1.762 0.818
0.31 1.766 0.81
0.293 1.741 0.8
0.277 1.726 0.79
0.263 1.719 0.782
0.248 1.712 0.773
0.234 1.703 0.765
0.219 1.686 0.756
0.205 1.678 0.747
0.192 1.669 0.739
0.179 1.669 0.732
0.165 1.654 0.723
0.151 1.634 0.715
0.138 1.626 0.707
0.126 1.627 0.7
0.113 1.618 0.692
0.1 1.609 0.684
0.088 1.599 0.677
0.075 1.589 0.67
0.063 1.58 0.662
0.051 1.569 0.655
0.039 1.56 0.648
0.027 1.556 0.641
0.016 0.151 0.634
0.016 -0.106 0.634
0.031 -2.061 0.643
0.047 -2.093 0.653
0.063 -2.12 0.663
0.08 -2.151 0.673
0.094 -2.106 0.682
0.099 -1.849 0.684
0.111 -1.822 0.692
0.129 -1.901 0.703
0.17 -2.297 0.728
0.191 -2.339 0.74
0.209 -2.346 0.751
0.202 -2.075 0.747
0.196 -1.847 0.743
0.248 -2.209 0.774
0.277 -2.32 0.792
0.32 -2.53 0.818
0.35 -2.617 0.836
0.375 -2.654 0.852
0.391 -2.623 0.861
0 0 0
0 0 0
0 0 0
0 0 0
0.41 -2.171 0.873
0.427 -2.166 0.883
0.443 -2.164 0.893
0.456 -2.145 0.901
0.473 -2.143 0.911
0.478 -2.091 0.914
0.5 -2.113 0.927
0 0 0
0.289 -1.116 0.8
0.309 -1.158 0.812
0.29 -1.048 0.8
0.317 -1.119 0.817
0.381 -1.313 0.855
0.46 -1.552 0.903
0.488 -1.605 0.92
0.494 -1.58 0.924
0.489 -1.519 0.92
0.534 -1.62 0.947
0.479 -1.411 0.914
1.238 -3.628 1.374
1.264 -3.611 1.389
1.288 -3.591 1.404
1.313 -3.572 1.419
1.339 -3.557 1.435
1.363 -3.538 1.449
1.388 -3.521 1.465
1.411 -3.498 1.478
1.473 -3.572 1.516
2.54 -6.048 2.161
2.564 -5.973 2.175
2.586 -5.895 2.189
2.61 -5.824 2.203
2.635 -5.757 2.218
2.655 -5.681 2.231
2.681 -5.62 2.247
2.704 -5.554 2.26
2.916 -5.871 2.389
3.261 -6.439 2.597
3.304 -6.397 2.624
3.356 -6.372 2.655
3.398 -6.326 2.68
3.444 -6.29 2.708
3.492 -6.256 2.737
3.539 -6.222 2.766
3.586 -6.186 2.794
3.63 -6.147 2.821
3.677 -6.111 2.849
3.721 -6.071 2.875
3.771 -6.041 2.906
3.825 -6.017 2.939
3.869 -5.976 2.965
3.913 -5.937 2.992
3.963 -5.905 3.022
4.012 -5.873 3.052
4.056 -5.832 3.078
4.105 -5.798 3.108
4.154 -5.764 3.138
4.203 -5.73 3.167
4.251 -5.695 3.197
4.299 -5.659 3.226
4.347 -5.623 3.255
4.395 -5.586 3.283
4.442 -5.548 3.312
4.489 -5.51 3.341
4.542 -5.478 3.373
4.594 -5.446 3.404
4.642 -5.407 3.433
4.688 -5.367 3.461
4.741 -5.333 3.493
4.784 -5.289 3.519
4.547 -4.939 3.376
4.444 -4.743 3.313
4.604 -4.828 3.41
4.684 -4.827 3.458
4.688 -4.747 3.461
4.807 -4.783 3.533
4.82 -4.712 3.541
4.839 -4.647 3.552
4.883 -4.607 3.579
4.858 -4.501 3.563
4.896 -4.456 3.586
4.907 -4.387 3.593
4.95 -4.346 3.619
4.979 -4.293 3.637
5.023 -4.252 3.663
5.128 -4.262 3.727
5.676 -4.632 4.058
5.731 -4.591 4.092
5.786 -4.549 4.125
5.842 -4.507 4.159
5.897 -4.464 4.192
5.952 -4.42 4.226
6.008 -4.376 4.259
6.071 -4.337 4.297
6.126 -4.291 4.331
6.188 -4.25 4.368
6.244 -4.203 4.402
6.305 -4.159 4.439
6.367 -4.115 4.477
6.428 -4.069 4.513
6.488 -4.022 4.55
6.556 -3.979 4.591
6.615 -3.93 4.627
6.683 -3.885 4.667
6.742 -3.834 4.703
6.807 -3.786 4.743
6.874 -3.738 4.783
6.935 -3.685 4.82
6.992 -3.63 4.854
7.055 -3.578 4.893
7.189 -3.559 4.974
7.255 -3.505 5.014
3.14 -1.476 2.524
3.12 -1.429 2.512
3.098 -1.383 2.499
3.085 -1.341 2.491
3.089 -1.308 2.494
3.09 -1.272 2.494
3.101 -1.242 2.501
3.108 -1.209 2.505
3.119 -1.179 2.512
3.125 -1.146 2.515
3.134 -1.114 2.52
3.157 -1.087 2.534
3.187 -1.063 2.553
3.205 -1.034 2.563
3.24 -1.01 2.584
0 0 0
0 0 0
6.162 -1.725 4.353
0 0 0
0 0 0
1.997 -0.492 1.832
1.958 -0.462 1.809
1.957 -0.441 1.809
1.952 -0.42 1.806
1.973 -0.403 1.818
1.971 -0.382 1.817
1.937 -0.356 1.796
1.905 -0.33 1.777
1.892 -0.308 1.769
1.886 -0.288 1.766
1.889 -0.269 1.767
1.881 -0.248 1.762
1.883 -0.229 1.763
1.883 -0.21 1.764
1.88 -0.191 1.762
1.879 -0.171 1.762
1.893 -0.153 1.769
1.899 -0.135 1.773
1.924 -0.117 1.788
1.96 -0.099 1.81
1.981 -0.08 1.823
1.962 -0.06 1.812
1.963 -0.04 1.812
1.963 -0.02 1.812
1.979 -0 1.822
2.008 0.02 1.84
5.009 0.102 3.655
5.001 0.153 3.65
5.028 0.205 3.666
5.049 0.257 3.679
5.088 0.311 3.702
5.085 0.362 3.701
5.097 0.415 3.708
5.075 0.465 3.695
5.023 0.512 3.663
4.966 0.557 3.629
4.94 0.605 3.613
4.922 0.653 3.603
4.895 0.7 3.586
4.869 0.747 3.57
4.837 0.792 3.551
4.795 0.835 3.525
4.773 0.881 3.512
4.725 0.921 3.483
4.72 0.969 3.48
4.688 1.012 3.461
4.661 1.055 3.444
4.635 1.098 3.428
4.609 1.141 3.413
4.61 1.19 3.413
4.573 1.23 3.391
4.55 1.272 3.377
4.518 1.312 3.358
4.491 1.353 3.342
4.332 1.352 3.245
4.284 1.383 3.216
4.255 1.421 3.199
4.212 1.453 3.173
4.191 1.492 3.16
4.185 1.537 3.157
4.167 1.577 3.146
4.139 1.613 3.129
4.117 1.651 3.115
4.104 1.692 3.107
4.082 1.73 3.094
4.052 1.764 3.076
4.029 1.8 3.062
4.005 1.837 3.047
3.979 1.872 3.032
3.954 1.907 3.017
3.938 1.946 3.007
3.922 1.985 2.997
3.899 2.021 2.983
3.883 2.06 2.974
3.86 2.095 2.96
3.84 2.132 2.948
3.913 2.222 2.992
3.899 2.263 2.983
3.937 2.335 3.006
3.929 2.381 3.001
3.909 2.42 2.99
3.879 2.452 2.971
3.855 2.488 2.957
3.839 2.528 2.947
3.808 2.559 2.928
3.783 2.594 2.913
3.762 2.631 2.9
3.741 2.668 2.888
3.595 2.614 2.799
3.566 2.644 2.782
3.528 2.666 2.759
3.475 2.676 2.727
3.486 2.736 2.733
3.469 2.774 2.723
3.451 2.811 2.712
3.436 2.852 2.704
3.41 2.882 2.687
3.394 2.922 2.678
3.378 2.962 2.668
3.355 2.995 2.654
3.332 3.028 2.64
3.317 3.069 2.631
3.294 3.103 2.617
3.271 3.137 2.604
3.254 3.176 2.593
3.231 3.21 2.579
3.208 3.244 2.565
3.191 3.283 2.555
3.167 3.316 2.54
3.149 3.356 2.53
3.13 3.394 2.518
3.111 3.434 2.507
3.086 3.465 2.491
3.066 3.503 2.479
3.046 3.541 2.467
3.026 3.58 2.455
2.999 3.611 2.439
2.978 3.648 2.426
1.564 1.94 1.571
1.537 1.941 1.554
1.528 1.963 1.549
1.519 1.986 1.544
1.516 2.017 1.541
1.494 2.023 1.528
1.419 1.955 1.483
1.375 1.927 1.456
1.302 1.857 1.412
1.123 1.627 1.304
1.074 1.583 1.274
1.033 1.55 1.25
0.967 1.475 1.209
0.941 1.462 1.194
0.935 1.479 1.19
0.924 1.488 1.183
0.918 1.506 1.18
0.911 1.523 1.176
0.9 1.532 1.169
0.893 1.549 1.165
0.881 1.557 1.158
0.873 1.574 1.153
0.867 1.593 1.149
0.859 1.608 1.144
0.847 1.617 1.137
0.839 1.635 1.132
0.831 1.652 1.128
0.8 1.621 1.109
0.762 1.574 1.086
0.741 1.561 1.073
0.728 1.566 1.065
0.723 1.588 1.062
0.732 1.643 1.067
0.759 1.743 1.084
0.743 1.742 1.074
0.709 1.698 1.053
0.683 1.673 1.038
0.66 1.652 1.024
0.637 1.631 1.01
0.608 1.592 0.992
0.523 1.398 0.941
0.492 1.343 0.922
0.457 1.277 0.901
0.427 1.22 0.883
0.411 1.204 0.873
0.396 1.188 0.864
0.383 1.181 0.857
0.369 1.166 0.848
0.362 1.176 0.844
0.367 1.227 0.847
0.38 1.311 0.854
0.373 1.323 0.85
0.369 1.35 0.848
0.363 1.372 0.844
0.36 1.402 0.842
0.353 1.42 0.838
0.352 1.466 0.837
0.344 1.485 0.833
0.344 1.541 0.833
0.343 1.592 0.832
0.348 1.681 0.835
0.339 1.707 0.83
0.335 1.755 0.827
0.32 1.751 0.818
0.308 1.755 0.811
0.293 1.749 0.802
0.278 1.736 0.792
0.262 1.718 0.783
0.248 1.712 0.774
0.232 1.694 0.765
0.218 1.686 0.757
0.205 1.679 0.748
0.191 1.669 0.74
0.177 1.659 0.732
0.164 1.654 0.724
0.15 1.634 0.715
0.137 1.626 0.708
0.125 1.627 0.7
0.112 1.608 0.692
0.1 1.608 0.685
0.087 1.59 0.677
0.075 1.589 0.67
0.063 1.58 0.663
0.051 1.569 0.655
0.039 1.56 0.648
0.027 1.555 0.641
0.016 0.165 0.634
0.015 -0.113 0.634
0.031 -2.071 0.644
0.047 -2.093 0.653
0.063 -2.12 0.663
0.08 -2.15 0.673
0.094 -2.106 0.682
0.098 -1.849 0.685
0.111 -1.824 0.692
0.129 -1.901 0.703
0.17 -2.297 0.728
0.19 -2.338 0.741
0.204 -2.295 0.749
0.199 -2.044 0.746
0.192 -1.816 0.742
0.233 -2.076 0.767
0.28 -2.353 0.796
0.321 -2.547 0.821
0.35 -2.62 0.838
0.374 -2.651 0.853
0.391 -2.631 0.864
0 0 0
0 0 0
0 0 0
0 0 0
0.413 -2.191 0.877
0.425 -2.167 0.885
0.442 -2.165 0.895
0.456 -2.153 0.904
0.471 -2.14 0.913
0.483 -2.117 0.92
0.498 -2.111 0.929
0.256 -1.018 0.781
0.28 -1.079 0.796
0.288 -1.08 0.801
0.287 -1.04 0.8
0.325 -1.151 0.823
0.398 -1.379 0.868
0.467 -1.581 0.91
0.49 -1.617 0.925
0.503 -1.614 0.932
0.511 -1.597 0.937
0.683 -2.093 1.042
1.211 -3.649 1.365
1.232 -3.619 1.378
1.26 -3.611 1.395
1.284 -3.591 1.41
1.308 -3.569 1.425
1.334 -3.555 1.441
1.358 -3.535 1.455
1.383 -3.519 1.471
1.406 -3.497 1.485
1.462 -3.555 1.519
2.532 -6.047 2.173
2.557 -5.975 2.188
2.582 -5.905 2.204
2.602 -5.824 2.216
2.627 -5.757 2.231
2.651 -5.689 2.246
2.674 -5.621 2.26
2.696 -5.555 2.274
2.878 -5.812 2.385
3.251 -6.439 2.613
3.299 -6.406 2.642
3.346 -6.372 2.671
3.388 -6.326 2.697
3.433 -6.289 2.725
3.481 -6.256 2.754
3.528 -6.221 2.783
3.574 -6.184 2.81
3.619 -6.146 2.838
3.67 -6.118 2.869
3.715 -6.079 2.897
3.76 -6.041 2.924
3.812 -6.014 2.956
3.857 -5.976 2.984
3.907 -5.945 3.014
3.951 -5.905 3.041
4.001 -5.873 3.072
4.049 -5.839 3.101
4.093 -5.798 3.128
4.142 -5.764 3.158
4.19 -5.73 3.187
4.239 -5.695 3.217
4.287 -5.659 3.247
4.334 -5.623 3.276
4.382 -5.586 3.305
4.435 -5.555 3.337
4.482 -5.517 3.366
4.529 -5.478 3.395
4.581 -5.446 3.426
4.627 -5.406 3.455
4.68 -5.373 3.487
4.726 -5.333 3.516
4.77 -5.289 3.542
4.552 -4.959 3.409
4.428 -4.74 3.333
4.59 -4.828 3.432
4.705 -4.864 3.503
4.679 -4.752 3.487
4.732 -4.722 3.519
4.764 -4.67 3.538
4.748 -4.573 3.529
4.781 -4.524 3.549
4.793 -4.455 3.556
4.838 -4.417 3.584
4.867 -4.364 3.601
4.907 -4.321 3.626
4.908 -4.244 3.627
4.944 -4.197 3.649
4.999 -4.167 3.682
5.659 -4.632 4.086
5.721 -4.596 4.124
5.769 -4.549 4.153
5.824 -4.507 4.187
5.879 -4.464 4.221
5.942 -4.426 4.259
5.998 -4.382 4.293
6.053 -4.337 4.327
6.115 -4.296 4.365
6.171 -4.25 4.399
6.233 -4.208 4.437
6.286 -4.159 4.47
6.347 -4.114 4.507
6.416 -4.074 4.549
6.477 -4.027 4.586
6.537 -3.979 4.623
6.604 -3.935 4.664
6.663 -3.885 4.7
6.728 -3.838 4.74
6.786 -3.785 4.775
6.852 -3.737 4.816
6.922 -3.69 4.858
6.978 -3.634 4.893
7.044 -3.582 4.933
7.168 -3.559 5.009
7.244 -3.51 5.056
3.133 -1.476 2.541
3.11 -1.429 2.527
3.096 -1.386 2.518
3.083 -1.344 2.51
3.078 -1.307 2.507
3.08 -1.272 2.509
3.086 -1.239 2.512
3.091 -1.206 2.515
3.099 -1.175 2.52
3.116 -1.146 2.531
3.132 -1.117 2.54
3.147 -1.087 2.55
3.173 -1.061 2.565
3.188 -1.031 2.574
3.241 -1.013 2.607
0 0 0
0 0 0
6.146 -1.725 4.384
0 0 0
0 0 0
1.984 -0.49 1.838
1.952 -0.462 1.819
1.948 -0.44 1.816
1.946 -0.42 1.815
1.956 -0.401 1.821
1.957 -0.381 1.821
1.931 -0.356 1.806
1.892 -0.329 1.782
1.886 -0.308 1.778
1.871 -0.286 1.769
1.873 -0.267 1.77
1.875 -0.248 1.772
1.876 -0.229 1.772
1.869 -0.209 1.768
1.872 -0.19 1.769
1.874 -0.171 1.771
1.877 -0.153 1.772
1.884 -0.134 1.777
1.91 -0.116 1.793
1.937 -0.098 1.81
1.965 -0.08 1.827
1.956 -0.06 1.821
1.948 -0.04 1.816
1.948 -0.02 1.816
1.956 -0 1.821
1.994 0.02 1.844
5.003 0.102 3.684
4.994 0.153 3.679
5.022 0.205 3.696
5.041 0.257 3.708
5.074 0.311 3.728
5.072 0.363 3.727
5.081 0.415 3.733
5.026 0.462 3.699
5.024 0.514 3.697
4.971 0.559 3.665
4.991 0.613 3.678
4.914 0.654 3.63
4.892 0.702 3.617
4.852 0.746 3.592
4.822 0.792 3.574
4.808 0.84 3.565
4.753 0.88 3.532
4.736 0.926 3.521
4.691 0.966 3.494
4.663 1.01 3.477
4.652 1.057 3.47
4.63 1.101 3.457
4.606 1.144 3.442
4.595 1.19 3.435
4.553 1.228 3.41
4.527 1.27 3.394
4.516 1.315 3.387
4.47 1.351 3.359
4.319 1.352 3.267
4.271 1.383 3.237
4.249 1.423 3.224
4.201 1.453 3.194
4.188 1.495 3.186
4.172 1.536 3.177
4.151 1.575 3.163
4.13 1.614 3.151
4.111 1.653 3.139
4.084 1.689 3.122
4.073 1.731 3.116
4.052 1.769 3.103
4.035 1.809 3.093
4.007 1.843 3.076
3.984 1.879 3.061
3.97 1.92 3.053
3.935 1.95 3.031
3.913 1.987 3.018
3.886 2.02 3.002
3.871 2.06 2.992
