# .PCD v0.7 - Point Cloud Data file format
VERSION 0.7
FIELDS x y z
SIZE 4 4 4
TYPE F F F
COUNT 1 1 1
WIDTH 2496
HEIGHT 1
VIEWPOINT 0 0 0 1 0 0 0
POINTS 2496
DATA ascii
0.151 0.458 1.032
0.149 0.462 1.029
0.147 0.464 1.027
0.146 0.473 1.025
0.143 0.472 1.021
0.141 0.474 1.018
0.138 0.475 1.015
0.135 0.475 1.011
0.132 0.474 1.008
0.13 0.477 1.005
0.127 0.479 1.002
0.125 0.482 0.999
0.122 0.478 0.994
0.119 0.475 0.99
0.117 0.485 0.989
0.115 0.488 0.986
0.112 0.485 0.982
0.108 0.48 0.978
0.107 0.489 0.976
0.103 0.481 0.971
0.102 0.491 0.969
0.099 0.493 0.966
0.096 0.493 0.962
0.093 0.488 0.958
0.091 0.496 0.956
0.088 0.488 0.951
0.086 0.497 0.949
0.083 0.498 0.945
0.08 0.5 0.942
0.078 0.501 0.939
0.075 0.5 0.935
0.072 0.5 0.932
0.069 0.497 0.928
0.067 0.504 0.925
0.064 0.506 0.922
0.062 0.505 0.918
0.059 0.505 0.915
0.056 0.508 0.911
0.053 0.513 0.908
0.051 0.515 0.905
0.048 0.508 0.901
0.045 0.515 0.897
0.042 0.51 0.894
0.042 -0.572 0.894
0.045 -0.58 0.898
0.048 -0.58 0.902
0.051 -0.58 0.906
0.054 -0.58 0.91
0.057 -0.579 0.914
0.06 -0.579 0.918
0.063 -0.58 0.922
0.067 -0.58 0.926
0.07 -0.578 0.93
0.073 -0.578 0.934
0.076 -0.587 0.939
0.08 -0.587 0.943
0.083 -0.586 0.947
0.087 -0.595 0.952
0.09 -0.594 0.956
0.093 -0.594 0.96
0.096 -0.593 0.964
0.099 -0.593 0.968
0.103 -0.592 0.972
0.107 -0.599 0.978
0.11 -0.598 0.982
0.113 -0.596 0.986
0.125 -0.666 1.001
0.119 -0.591 0.993
0.405 -2.665 1.361
0.405 -2.565 1.362
0.443 -2.721 1.41
0.452 -2.68 1.422
0.475 -2.727 1.451
0.491 -2.731 1.472
0.509 -2.742 1.495
0.525 -2.744 1.515
0.543 -2.756 1.538
0.561 -2.766 1.562
0.577 -2.767 1.583
0.594 -2.769 1.604
0.612 -2.778 1.628
0.632 -2.789 1.652
0.648 -2.789 1.674
0.667 -2.798 1.698
0.686 -2.808 1.723
0.706 -2.818 1.748
0.723 -2.815 1.77
0.743 -2.825 1.795
0.762 -2.831 1.82
0.781 -2.837 1.845
0.802 -2.846 1.871
0.821 -2.851 1.896
0.842 -2.858 1.922
0.861 -2.86 1.947
0.884 -2.875 1.976
0.904 -2.878 2.002
0.924 -2.883 2.029
0.947 -2.894 2.058
0.968 -2.896 2.084
0.991 -2.907 2.114
1.011 -2.908 2.14
1.037 -2.925 2.174
1.058 -2.925 2.2
1.081 -2.932 2.23
1.106 -2.941 2.261
1.13 -2.949 2.293
1.154 -2.956 2.324
1.182 -2.972 2.36
1.208 -2.98 2.392
1.232 -2.985 2.424
1.259 -2.995 2.459
1.288 -3.009 2.496
1.313 -3.013 2.529
1.339 -3.018 2.562
1.372 -3.037 2.604
1.398 -3.04 2.638
1.428 -3.051 2.676
1.459 -3.062 2.715
1.489 -3.072 2.754
1.52 -3.081 2.794
1.551 -3.089 2.833
1.586 -3.105 2.879
1.617 -3.112 2.919
1.652 -3.125 2.964
1.687 -3.137 3.009
1.722 -3.147 3.053
1.757 -3.157 3.098
1.796 -3.173 3.149
1.835 -3.186 3.198
1.875 -3.2 3.25
1.915 -3.215 3.302
1.956 -3.228 3.354
1.995 -3.236 3.404
2.04 -3.254 3.462
2.085 -3.27 3.52
2.127 -3.279 3.574
2.175 -3.297 3.636
2.222 -3.311 3.696
2.269 -3.324 3.757
2.325 -3.348 3.828
2.376 -3.363 3.895
2.432 -3.383 3.966
2.49 -3.404 4.04
2.519 -3.384 4.077
2.506 -3.308 4.061
2.515 -3.261 4.072
2.502 -3.187 4.056
2.512 -3.142 4.068
2.499 -3.07 4.052
2.504 -3.022 4.059
2.496 -2.957 4.048
2.507 -2.917 4.062
2.494 -2.848 4.045
2.505 -2.808 4.059
2.496 -2.747 4.048
2.501 -2.701 4.054
2.49 -2.639 4.041
2.499 -2.598 4.052
2.494 -2.544 4.045
2.502 -2.503 4.056
2.491 -2.444 4.041
2.503 -2.408 4.057
2.492 -2.35 4.043
2.504 -2.314 4.058
2.49 -2.255 4.04
2.5 -2.218 4.053
2.487 -2.162 4.036
2.498 -2.127 4.051
2.492 -2.077 4.043
2.498 -2.038 4.051
2.488 -1.986 4.037
2.499 -1.952 4.052
2.48 -1.893 4.027
2.496 -1.864 4.049
2.486 -1.813 4.035
2.497 -1.78 4.049
2.485 -1.73 4.034
2.495 -1.696 4.047
2.481 -1.646 4.029
2.493 -1.613 4.044
2.491 -1.571 4.041
2.521 -1.55 4.08
2.498 -1.495 4.051
2.504 -1.459 4.059
2.513 -1.425 4.069
2.517 -1.388 4.075
2.522 -1.351 4.082
2.523 -1.313 4.083
2.531 -1.278 4.093
2.532 -1.24 4.095
2.54 -1.205 4.105
2.544 -1.168 4.11
2.537 -1.127 4.1
2.549 -1.094 4.116
2.515 -1.042 4.073
2.546 -1.017 4.112
2.503 -0.962 4.057
2.508 -0.927 4.063
2.471 -0.877 4.016
2.49 -0.847 4.041
2.469 -0.804 4.013
2.481 -0.772 4.029
2.47 -0.733 4.014
2.477 -0.699 4.024
2.466 -0.661 4.01
2.475 -0.628 4.022
2.468 -0.59 4.012
2.477 -0.557 4.023
2.468 -0.52 4.012
2.476 -0.487 4.023
2.467 -0.45 4.011
2.476 -0.417 4.022
2.462 -0.379 4.004
2.474 -0.346 4.019
2.464 -0.31 4.007
2.477 -0.277 4.024
2.461 -0.241 4.003
2.467 -0.207 4.011
2.463 -0.172 4.005
2.469 -0.138 4.013
2.457 -0.103 3.998
2.463 -0.069 4.006
2.451 -0.034 3.99
2.466 -0 4.01
2.456 0.034 3.996
2.47 0.069 4.015
2.458 0.103 3.999
2.475 0.138 4.022
2.462 0.172 4.005
2.48 0.208 4.027
2.467 0.242 4.011
2.478 0.277 4.025
2.464 0.31 4.007
2.474 0.347 4.02
2.466 0.38 4.01
2.476 0.417 4.022
2.462 0.449 4.005
2.468 0.485 4.013
2.468 0.52 4.012
2.463 0.554 4.006
2.465 0.59 4.008
2.477 0.628 4.023
2.461 0.659 4.003
2.469 0.697 4.013
2.465 0.731 4.008
2.472 0.769 4.018
2.468 0.804 4.012
2.474 0.842 4.02
2.469 0.876 4.014
2.472 0.914 4.018
2.462 0.946 4.004
2.474 0.988 4.02
2.463 1.02 4.006
2.474 1.061 4.02
2.463 1.094 4.006
2.473 1.135 4.019
2.468 1.17 4.012
2.472 1.21 4.017
2.465 1.244 4.009
2.474 1.287 4.02
2.467 1.322 4.011
2.477 1.365 4.023
2.467 1.398 4.011
2.476 1.443 4.022
2.462 1.473 4.004
2.472 1.519 4.017
2.464 1.554 4.008
2.473 1.6 4.019
2.461 1.631 4.003
2.471 1.679 4.016
2.462 1.714 4.005
2.473 1.762 4.018
2.459 1.794 4
2.47 1.843 4.014
2.454 1.874 3.994
2.464 1.924 4.007
2.459 1.962 4
2.464 2.01 4.007
2.454 2.045 3.994
2.465 2.098 4.008
2.456 2.135 3.997
2.46 2.183 4.002
2.452 2.22 3.991
2.457 2.271 3.999
0.402 0.346 1.357
0.398 0.349 1.352
0.391 0.349 1.344
0.388 0.352 1.339
0.385 0.356 1.335
0.383 0.361 1.332
0.376 0.36 1.323
0.37 0.36 1.316
0.367 0.364 1.312
0.361 0.364 1.304
0.359 0.368 1.302
0.356 0.372 1.298
0.351 0.373 1.292
0.348 0.376 1.288
0.34 0.373 1.278
0.339 0.378 1.276
0.337 0.382 1.273
0.33 0.38 1.265
0.328 0.385 1.263
0.323 0.384 1.255
0.319 0.386 1.251
0.317 0.39 1.249
0.311 0.388 1.241
0.31 0.393 1.239
0.303 0.39 1.231
0.305 0.4 1.232
0.3 0.399 1.226
0.293 0.395 1.217
0.291 0.399 1.215
0.289 0.402 1.212
0.287 0.406 1.209
0.281 0.403 1.201
0.278 0.405 1.198
0.276 0.41 1.196
0.275 0.414 1.194
0.268 0.409 1.185
0.266 0.413 1.182
0.264 0.417 1.18
0.261 0.418 1.176
0.256 0.416 1.17
0.253 0.417 1.165
0.25 0.419 1.162
0.248 0.423 1.16
0.246 0.426 1.157
0.243 0.428 1.153
0.239 0.426 1.147
0.236 0.428 1.144
0.234 0.43 1.141
0.229 0.427 1.135
0.227 0.43 1.132
0.224 0.432 1.129
0.221 0.434 1.125
0.219 0.436 1.122
0.217 0.439 1.119
0.214 0.441 1.116
0.209 0.436 1.109
0.207 0.438 1.106
0.205 0.441 1.104
0.202 0.444 1.101
0.2 0.447 1.098
0.197 0.447 1.094
0.195 0.451 1.092
0.19 0.445 1.085
0.188 0.447 1.082
0.185 0.449 1.079
0.183 0.451 1.076
0.179 0.449 1.071
0.176 0.449 1.067
0.175 0.457 1.066
0.171 0.451 1.06
0.169 0.455 1.058
0.167 0.459 1.055
0.164 0.459 1.052
0.162 0.46 1.048
0.16 0.464 1.046
0.156 0.462 1.041
0.155 0.467 1.039
0.152 0.469 1.036
0.148 0.461 1.03
0.145 0.463 1.027
0.144 0.471 1.026
0.142 0.473 1.023
0.139 0.475 1.02
0.136 0.474 1.016
0.133 0.474 1.012
0.131 0.473 1.008
0.129 0.477 1.006
0.126 0.48 1.003
0.123 0.476 0.998
0.12 0.477 0.995
0.118 0.482 0.993
0.115 0.476 0.988
0.112 0.479 0.985
0.11 0.478 0.981
0.108 0.488 0.98
0.106 0.491 0.977
0.103 0.491 0.973
0.101 0.493 0.97
0.098 0.494 0.966
0.095 0.492 0.963
0.092 0.489 0.959
0.09 0.493 0.956
0.086 0.488 0.952
0.085 0.499 0.95
0.082 0.498 0.946
0.079 0.5 0.943
0.077 0.501 0.939
0.074 0.498 0.936
0.072 0.507 0.933
0.069 0.506 0.929
0.066 0.496 0.925
0.063 0.505 0.922
0.061 0.507 0.919
0.058 0.506 0.915
0.055 0.506 0.912
0.053 0.513 0.908
0.05 0.506 0.905
0.047 0.508 0.901
0.044 0.515 0.898
0.042 0.51 0.894
0.041 -0.572 0.895
0.044 -0.572 0.899
0.047 -0.58 0.903
0.05 -0.58 0.907
0.053 -0.58 0.911
0.056 -0.579 0.915
0.059 -0.579 0.919
0.063 -0.579 0.923
0.066 -0.58 0.927
0.069 -0.589 0.931
0.072 -0.588 0.935
0.075 -0.587 0.939
0.079 -0.596 0.944
0.082 -0.595 0.948
0.085 -0.595 0.953
0.089 -0.594 0.957
0.092 -0.593 0.961
0.095 -0.593 0.965
0.098 -0.593 0.969
0.101 -0.592 0.973
0.104 -0.59 0.977
0.108 -0.598 0.983
0.111 -0.596 0.986
0.121 -0.648 0.999
0.117 -0.589 0.994
0.404 -2.69 1.368
0.42 -2.699 1.389
0.438 -2.721 1.413
0.454 -2.725 1.434
0.47 -2.727 1.454
0.488 -2.739 1.477
0.504 -2.742 1.498
0.521 -2.753 1.521
0.538 -2.756 1.542
0.554 -2.756 1.563
0.572 -2.768 1.587
0.588 -2.769 1.609
0.607 -2.779 1.632
0.625 -2.789 1.657
0.642 -2.79 1.679
0.66 -2.797 1.703
0.68 -2.808 1.728
0.699 -2.817 1.753
0.716 -2.817 1.775
0.735 -2.824 1.8
0.754 -2.83 1.825
0.774 -2.838 1.851
0.793 -2.845 1.876
0.814 -2.852 1.902
0.833 -2.857 1.928
0.853 -2.862 1.954
0.873 -2.867 1.98
0.895 -2.879 2.009
0.915 -2.883 2.035
0.938 -2.894 2.065
0.958 -2.896 2.091
0.981 -2.906 2.121
1.001 -2.907 2.147
1.025 -2.917 2.178
1.048 -2.925 2.208
1.071 -2.933 2.239
1.095 -2.941 2.269
1.119 -2.949 2.301
1.143 -2.957 2.333
1.168 -2.964 2.364
1.196 -2.98 2.401
1.221 -2.986 2.433
1.247 -2.995 2.468
1.273 -3.002 2.502
1.298 -3.006 2.534
1.327 -3.018 2.572
1.355 -3.029 2.609
1.384 -3.039 2.647
1.415 -3.051 2.687
1.444 -3.06 2.725
1.475 -3.072 2.765
1.505 -3.081 2.805
1.536 -3.09 2.845
1.567 -3.098 2.885
1.602 -3.112 2.931
1.633 -3.118 2.971
1.667 -3.129 3.016
1.705 -3.147 3.066
1.741 -3.158 3.112
1.775 -3.166 3.157
1.814 -3.18 3.207
1.853 -3.195 3.259
1.893 -3.208 3.311
1.933 -3.221 3.363
1.976 -3.237 3.419
2.017 -3.248 3.472
2.062 -3.264 3.531
2.107 -3.279 3.589
2.149 -3.289 3.645
2.201 -3.311 3.713
2.247 -3.323 3.773
2.299 -3.342 3.84
2.349 -3.357 3.906
2.405 -3.377 3.978
2.456 -3.391 4.045
2.477 -3.36 4.073
2.465 -3.284 4.056
2.468 -3.231 4.061
2.458 -3.161 4.048
2.465 -3.113 4.057
2.454 -3.044 4.043
2.461 -2.998 4.052
2.45 -2.93 4.037
2.461 -2.89 4.051
2.447 -2.821 4.033
2.461 -2.785 4.052
2.448 -2.719 4.034
2.457 -2.679 4.046
2.448 -2.618 4.034
2.455 -2.577 4.044
2.445 -2.518 4.031
2.46 -2.484 4.05
2.448 -2.424 4.034
2.456 -2.385 4.045
2.444 -2.327 4.03
2.457 -2.292 4.046
2.445 -2.236 4.031
2.457 -2.201 4.046
2.446 -2.146 4.032
2.457 -2.112 4.047
2.448 -2.06 4.035
2.454 -2.021 4.042
2.449 -1.973 4.035
2.458 -1.938 4.048
2.443 -1.883 4.029
2.454 -1.849 4.042
2.442 -1.799 4.027
2.452 -1.764 4.04
2.442 -1.716 4.026
2.45 -1.681 4.037
2.437 -1.631 4.02
2.464 -1.609 4.055
2.47 -1.573 4.063
2.472 -1.534 4.067
2.474 -1.495 4.068
2.48 -1.459 4.076
2.485 -1.423 4.083
2.49 -1.386 4.09
2.498 -1.351 4.099
2.498 -1.312 4.1
2.497 -1.273 4.099
2.512 -1.242 4.119
2.482 -1.188 4.078
2.502 -1.16 4.106
2.452 -1.099 4.039
2.479 -1.074 4.075
2.426 -1.014 4.006
2.443 -0.985 4.029
2.426 -0.941 4.005
2.436 -0.909 4.019
2.429 -0.87 4.009
2.438 -0.837 4.022
2.427 -0.798 4.007
2.436 -0.765 4.019
2.424 -0.726 4.003
2.434 -0.694 4.016
2.42 -0.654 3.998
2.435 -0.623 4.018
2.421 -0.585 4
2.436 -0.553 4.019
2.422 -0.515 4
2.43 -0.482 4.012
2.42 -0.446 3.998
2.435 -0.414 4.018
2.423 -0.377 4.002
2.432 -0.344 4.014
2.424 -0.308 4.003
2.43 -0.275 4.012
2.421 -0.239 3.999
2.421 -0.205 4
2.416 -0.17 3.992
2.426 -0.137 4.005
2.402 -0.102 3.975
2.41 -0.068 3.985
2.404 -0.034 3.978
2.416 -0 3.993
2.412 0.034 3.987
2.43 0.069 4.012
2.418 0.102 3.995
2.429 0.137 4.009
2.422 0.171 4
2.433 0.206 4.015
2.426 0.24 4.005
2.437 0.275 4.02
2.424 0.308 4.003
2.433 0.344 4.015
2.42 0.376 3.998
2.429 0.413 4.01
2.421 0.446 4
2.431 0.482 4.012
2.423 0.515 4.002
2.434 0.553 4.016
2.422 0.585 4.001
2.431 0.622 4.012
2.421 0.655 4
2.434 0.694 4.017
2.424 0.726 4.004
2.432 0.764 4.014
2.422 0.796 4.001
2.435 0.836 4.018
2.424 0.868 4.003
2.432 0.907 4.014
2.423 0.94 4.002
2.434 0.981 4.016
2.423 1.013 4.003
2.429 1.052 4.01
2.424 1.086 4.003
2.429 1.125 4.01
2.423 1.16 4.002
2.433 1.202 4.015
2.42 1.233 3.998
2.436 1.279 4.019
2.425 1.311 4.004
2.434 1.355 4.017
2.417 1.383 3.995
2.433 1.431 4.015
2.422 1.463 4
2.433 1.509 4.015
2.418 1.539 3.996
2.43 1.587 4.012
2.422 1.621 4.001
2.428 1.666 4.009
2.419 1.7 3.997
2.425 1.745 4.005
2.416 1.779 3.993
2.426 1.828 4.006
2.416 1.862 3.993
2.426 1.912 4.006
2.416 1.946 3.993
2.426 1.997 4.005
2.415 2.031 3.991
2.424 2.083 4.003
2.41 2.114 3.985
2.422 2.17 4.001
2.41 2.203 3.985
2.413 2.251 3.989
0.397 0.345 1.36
0.393 0.348 1.354
0.387 0.349 1.346
0.384 0.352 1.342
0.38 0.355 1.337
0.378 0.359 1.334
0.374 0.362 1.329
0.37 0.365 1.324
0.364 0.365 1.316
0.357 0.364 1.307
0.355 0.368 1.304
0.348 0.366 1.295
0.347 0.372 1.293
0.345 0.377 1.291
0.337 0.374 1.281
0.335 0.377 1.278
0.333 0.382 1.276
0.327 0.38 1.267
0.325 0.384 1.264
0.322 0.388 1.262
0.316 0.386 1.253
0.31 0.384 1.245
0.308 0.389 1.243
0.306 0.392 1.24
0.304 0.397 1.238
0.301 0.399 1.234
0.296 0.398 1.227
0.29 0.395 1.219
0.288 0.399 1.217
0.286 0.402 1.214
0.284 0.406 1.211
0.281 0.409 1.208
0.275 0.405 1.2
0.273 0.41 1.198
0.268 0.408 1.191
0.266 0.41 1.188
0.264 0.413 1.185
0.261 0.417 1.182
0.258 0.418 1.178
0.253 0.415 1.171
0.25 0.417 1.167
0.247 0.417 1.163
0.246 0.423 1.161
0.243 0.426 1.158
0.238 0.421 1.151
0.236 0.425 1.149
0.234 0.428 1.146
0.231 0.43 1.143
0.23 0.435 1.141
0.224 0.43 1.134
0.222 0.432 1.13
0.219 0.434 1.127
0.217 0.437 1.124
0.214 0.439 1.121
0.212 0.441 1.118
0.207 0.436 1.111
0.204 0.437 1.107
0.202 0.44 1.104
0.2 0.445 1.102
0.195 0.438 1.095
0.196 0.449 1.096
0.19 0.443 1.089
0.188 0.446 1.087
0.186 0.447 1.083
0.183 0.449 1.08
0.181 0.451 1.077
0.177 0.447 1.072
0.174 0.449 1.069
0.172 0.451 1.065
0.17 0.453 1.062
0.167 0.455 1.059
0.165 0.457 1.056
0.162 0.459 1.053
0.16 0.459 1.049
0.158 0.464 1.047
0.155 0.465 1.044
0.153 0.467 1.041
0.15 0.467 1.037
0.148 0.47 1.034
0.145 0.472 1.031
0.142 0.469 1.027
0.14 0.475 1.024
0.138 0.475 1.021
0.135 0.474 1.017
0.132 0.475 1.013
0.129 0.474 1.01
0.127 0.479 1.007
0.125 0.479 1.004
0.121 0.475 0.999
0.12 0.485 0.998
0.117 0.482 0.994
0.115 0.485 0.991
0.112 0.486 0.987
0.109 0.487 0.984
0.107 0.487 0.98
0.104 0.491 0.977
0.102 0.491 0.974
0.099 0.493 0.971
0.097 0.494 0.967
0.094 0.493 0.964
0.091 0.493 0.96
0.088 0.492 0.956
0.086 0.495 0.953
0.084 0.498 0.95
0.081 0.5 0.947
0.078 0.499 0.943
0.076 0.5 0.94
0.073 0.504 0.937
0.071 0.506 0.933
0.068 0.498 0.929
0.065 0.505 0.926
0.062 0.505 0.923
0.06 0.508 0.919
0.057 0.507 0.916
0.054 0.508 0.912
0.052 0.504 0.909
0.049 0.507 0.905
0.046 0.509 0.902
0.044 0.515 0.898
0.041 0.51 0.895
0.041 -0.571 0.895
0.044 -0.571 0.899
0.047 -0.581 0.903
0.05 -0.58 0.907
0.053 -0.58 0.911
0.056 -0.579 0.915
0.059 -0.579 0.919
0.062 -0.58 0.923
0.065 -0.58 0.927
0.068 -0.578 0.931
0.072 -0.588 0.936
0.075 -0.588 0.94
0.078 -0.587 0.944
0.082 -0.595 0.949
0.084 -0.586 0.952
0.088 -0.594 0.957
0.091 -0.593 0.961
0.094 -0.593 0.965
0.097 -0.584 0.968
0.101 -0.592 0.974
0.104 -0.59 0.978
0.108 -0.598 0.983
0.111 -0.596 0.987
0.117 -0.62 0.995
0.117 -0.596 0.996
0.118 -0.578 0.997
0.42 -2.717 1.394
0.436 -2.72 1.414
0.452 -2.725 1.435
0.468 -2.727 1.456
0.484 -2.731 1.477
0.501 -2.742 1.5
0.517 -2.745 1.521
0.535 -2.756 1.544
0.551 -2.756 1.565
0.569 -2.767 1.589
0.585 -2.769 1.611
0.603 -2.779 1.635
0.622 -2.789 1.659
0.639 -2.79 1.681
0.657 -2.799 1.706
0.676 -2.808 1.73
0.693 -2.809 1.753
0.712 -2.817 1.778
0.731 -2.823 1.803
0.75 -2.831 1.828
0.77 -2.839 1.854
0.788 -2.837 1.877
0.809 -2.852 1.905
0.829 -2.857 1.931
0.846 -2.854 1.954
0.868 -2.867 1.983
0.888 -2.871 2.009
0.91 -2.882 2.038
0.933 -2.894 2.068
0.953 -2.896 2.095
0.976 -2.907 2.125
0.996 -2.907 2.151
1.019 -2.916 2.181
1.043 -2.926 2.212
1.066 -2.933 2.243
1.09 -2.942 2.274
1.113 -2.949 2.305
1.137 -2.956 2.337
1.162 -2.964 2.369
1.187 -2.971 2.401
1.214 -2.985 2.438
1.238 -2.988 2.469
1.266 -3.001 2.506
1.292 -3.007 2.54
1.32 -3.019 2.577
1.349 -3.029 2.615
1.378 -3.04 2.653
1.404 -3.043 2.687
1.437 -3.062 2.731
1.464 -3.065 2.767
1.494 -3.073 2.806
1.528 -3.09 2.851
1.559 -3.098 2.891
1.593 -3.111 2.936
1.624 -3.118 2.977
1.659 -3.13 3.022
1.694 -3.141 3.068
1.728 -3.15 3.113
1.766 -3.166 3.164
1.805 -3.18 3.214
1.844 -3.195 3.266
1.879 -3.2 3.312
1.924 -3.221 3.371
1.963 -3.231 3.422
2.007 -3.248 3.48
2.051 -3.264 3.539
2.093 -3.273 3.593
2.14 -3.29 3.654
2.186 -3.304 3.715
2.232 -3.317 3.776
2.283 -3.336 3.843
2.338 -3.357 3.915
2.389 -3.371 3.982
2.431 -3.372 4.037
2.439 -3.324 4.048
2.427 -3.25 4.033
2.434 -3.202 4.042
2.422 -3.129 4.025
2.435 -3.09 4.043
2.419 -3.015 4.022
2.43 -2.975 4.037
2.419 -2.907 4.022
2.425 -2.861 4.029
2.421 -2.805 4.025
2.426 -2.759 4.031
2.417 -2.698 4.019
2.426 -2.657 4.03
2.416 -2.597 4.018
2.425 -2.558 4.03
2.415 -2.498 4.016
2.428 -2.464 4.033
2.417 -2.406 4.019
2.425 -2.367 4.03
2.413 -2.308 4.014
2.425 -2.274 4.03
2.412 -2.216 4.012
2.424 -2.183 4.029
2.413 -2.128 4.014
2.425 -2.094 4.03
2.415 -2.042 4.017
2.422 -2.004 4.025
2.411 -1.953 4.012
2.421 -1.918 4.025
2.412 -1.868 4.013
2.42 -1.833 4.023
2.41 -1.784 4.011
2.425 -1.753 4.029
2.41 -1.701 4.009
2.42 -1.668 4.022
2.401 -1.615 3.998
2.446 -1.605 4.057
2.456 -1.572 4.071
2.458 -1.533 4.074
2.458 -1.493 4.074
2.471 -1.461 4.091
2.465 -1.418 4.083
2.476 -1.385 4.096
2.45 -1.331 4.062
2.47 -1.304 4.088
2.437 -1.248 4.046
2.448 -1.216 4.06
2.395 -1.152 3.99
2.42 -1.127 4.023
2.396 -1.079 3.992
2.406 -1.047 4.005
2.402 -1.009 3.999
2.41 -0.976 4.009
2.401 -0.936 3.998
2.406 -0.902 4.005
2.4 -0.864 3.997
2.405 -0.83 4.003
2.398 -0.792 3.994
2.402 -0.758 4
2.395 -0.721 3.99
2.404 -0.689 4.003
2.39 -0.649 3.984
2.4 -0.617 3.997
2.392 -0.581 3.987
2.401 -0.548 3.998
2.392 -0.511 3.987
2.401 -0.479 3.999
2.392 -0.443 3.986
2.399 -0.41 3.996
2.395 -0.374 3.99
2.403 -0.341 4.001
2.388 -0.305 3.981
2.395 -0.272 3.991
2.385 -0.237 3.977
2.391 -0.203 3.985
2.387 -0.169 3.979
2.392 -0.136 3.987
2.374 -0.101 3.963
2.38 -0.067 3.971
2.375 -0.034 3.964
2.38 -0 3.971
2.379 0.034 3.969
2.395 0.068 3.99
2.389 0.102 3.982
2.393 0.136 3.987
2.392 0.17 3.986
2.404 0.205 4.002
2.393 0.238 3.988
2.406 0.273 4.005
2.394 0.306 3.989
2.405 0.342 4.003
2.391 0.374 3.985
2.401 0.41 3.998
2.392 0.443 3.987
2.402 0.479 3.999
2.394 0.512 3.989
2.402 0.548 3.999
2.388 0.58 3.981
2.401 0.618 3.998
2.392 0.65 3.986
2.399 0.687 3.996
2.39 0.719 3.984
2.403 0.759 4.001
2.393 0.791 3.988
2.4 0.829 3.997
2.396 0.863 3.991
2.404 0.901 4.002
2.395 0.934 3.99
2.406 0.974 4.005
2.39 1.004 3.983
2.401 1.045 3.998
2.39 1.076 3.984
2.401 1.118 3.998
2.397 1.153 3.993
2.403 1.193 4.001
2.393 1.225 3.988
2.408 1.27 4.007
2.388 1.297 3.981
2.397 1.34 3.993
2.391 1.375 3.984
2.399 1.418 3.995
2.391 1.452 3.985
2.398 1.495 3.995
2.391 1.529 3.985
2.398 1.573 3.994
2.39 1.608 3.984
2.397 1.652 3.992
2.388 1.686 3.981
2.393 1.73 3.988
2.385 1.765 3.977
2.394 1.813 3.989
2.384 1.846 3.976
2.394 1.896 3.99
2.379 1.926 3.969
2.394 1.981 3.989
2.383 2.014 3.974
2.391 2.064 3.985
2.38 2.098 3.97
2.395 2.155 3.99
2.381 2.187 3.972
2.387 2.238 3.979
0.394 0.344 1.359
0.392 0.349 1.357
0.387 0.351 1.35
0.385 0.355 1.347
0.376 0.353 1.336
0.374 0.358 1.333
0.372 0.362 1.33
0.365 0.361 1.321
0.362 0.365 1.318
0.359 0.368 1.313
0.352 0.366 1.304
0.351 0.373 1.303
0.344 0.371 1.293
0.342 0.376 1.291
0.336 0.374 1.282
0.333 0.377 1.279
0.327 0.376 1.271
0.33 0.386 1.275
0.323 0.385 1.266
0.317 0.382 1.258
0.315 0.386 1.255
0.313 0.391 1.253
0.307 0.39 1.245
0.305 0.393 1.242
0.302 0.395 1.238
0.297 0.394 1.231
0.295 0.399 1.229
0.293 0.402 1.226
0.286 0.399 1.218
0.284 0.402 1.215
0.279 0.401 1.208
0.276 0.403 1.204
0.278 0.413 1.207
0.272 0.41 1.199
0.27 0.414 1.197
0.265 0.412 1.19
0.262 0.413 1.185
0.256 0.41 1.178
0.257 0.419 1.18
0.251 0.414 1.172
0.249 0.417 1.168
0.246 0.419 1.165
0.244 0.423 1.162
0.242 0.426 1.16
0.237 0.423 1.153
0.234 0.425 1.15
0.232 0.428 1.147
0.227 0.424 1.14
0.228 0.435 1.142
0.222 0.428 1.133
0.22 0.432 1.131
0.217 0.433 1.127
0.215 0.436 1.124
0.213 0.439 1.121
0.211 0.441 1.118
0.206 0.436 1.112
0.203 0.437 1.108
0.203 0.447 1.109
0.199 0.443 1.102
0.194 0.438 1.096
0.194 0.447 1.096
0.19 0.444 1.091
0.187 0.444 1.087
0.184 0.446 1.083
0.182 0.449 1.081
0.18 0.451 1.078
0.178 0.455 1.075
0.173 0.449 1.069
0.171 0.451 1.066
0.17 0.459 1.065
0.166 0.455 1.06
0.164 0.458 1.057
0.161 0.459 1.053
0.158 0.457 1.049
0.156 0.461 1.047
0.154 0.465 1.044
0.152 0.467 1.041
0.149 0.468 1.038
0.147 0.468 1.034
0.145 0.472 1.031
0.142 0.471 1.028
0.139 0.474 1.025
0.137 0.474 1.021
0.134 0.476 1.018
0.131 0.476 1.014
0.129 0.476 1.011
0.127 0.479 1.008
0.124 0.479 1.004
0.122 0.484 1.002
0.119 0.483 0.998
0.116 0.484 0.994
0.114 0.486 0.991
0.111 0.486 0.988
0.108 0.478 0.983
0.106 0.487 0.981
0.103 0.482 0.976
0.101 0.49 0.974
0.098 0.489 0.97
0.095 0.486 0.966
0.093 0.494 0.964
0.091 0.493 0.96
0.088 0.492 0.957
0.085 0.495 0.954
0.082 0.489 0.949
0.08 0.5 0.947
0.078 0.499 0.944
0.075 0.5 0.94
0.072 0.495 0.936
0.07 0.497 0.933
0.067 0.497 0.929
0.065 0.505 0.926
0.062 0.505 0.923
0.059 0.5 0.919
0.057 0.507 0.916
0.054 0.506 0.912
0.051 0.504 0.909
0.049 0.508 0.905
0.046 0.518 0.902
0.043 0.515 0.898
0.041 0.509 0.895
0.04 -0.571 0.895
0.043 -0.572 0.899
0.046 -0.58 0.903
0.049 -0.572 0.907
0.052 -0.581 0.911
0.055 -0.579 0.915
0.058 -0.58 0.919
0.061 -0.58 0.923
0.064 -0.58 0.927
0.068 -0.589 0.932
0.071 -0.588 0.936
0.074 -0.588 0.94
0.077 -0.587 0.944
0.08 -0.586 0.948
0.084 -0.595 0.953
0.087 -0.594 0.958
0.09 -0.593 0.962
0.093 -0.592 0.966
0.096 -0.593 0.97
0.1 -0.601 0.975
0.102 -0.591 0.978
0.106 -0.598 0.984
0.109 -0.596 0.988
0.112 -0.595 0.992
0.114 -0.585 0.995
0.118 -0.589 0.999
0.416 -2.716 1.397
0.431 -2.719 1.417
0.447 -2.726 1.439
0.463 -2.726 1.459
0.48 -2.738 1.482
0.496 -2.742 1.504
0.512 -2.744 1.525
0.528 -2.746 1.546
0.545 -2.755 1.569
0.563 -2.767 1.593
0.579 -2.769 1.615
0.597 -2.779 1.639
0.614 -2.78 1.661
0.632 -2.79 1.686
0.651 -2.799 1.71
0.668 -2.801 1.733
0.687 -2.81 1.758
0.705 -2.816 1.783
0.724 -2.825 1.809
0.743 -2.831 1.833
0.76 -2.831 1.857
0.78 -2.837 1.882
0.801 -2.851 1.911
0.818 -2.848 1.934
0.838 -2.854 1.96
0.86 -2.867 1.989
0.879 -2.87 2.015
0.902 -2.883 2.045
0.922 -2.886 2.072
0.944 -2.896 2.102
0.964 -2.898 2.128
0.986 -2.907 2.158
1.01 -2.918 2.189
1.032 -2.925 2.22
1.055 -2.933 2.25
1.079 -2.942 2.282
1.102 -2.949 2.313
1.126 -2.956 2.345
1.15 -2.964 2.377
1.175 -2.972 2.41
1.199 -2.978 2.443
1.226 -2.988 2.478
1.254 -3.002 2.516
1.279 -3.006 2.549
1.307 -3.019 2.587
1.335 -3.029 2.624
1.361 -3.033 2.659
1.39 -3.043 2.697
1.42 -3.055 2.737
1.449 -3.064 2.777
1.476 -3.065 2.812
1.51 -3.082 2.857
1.543 -3.097 2.902
1.575 -3.105 2.944
1.608 -3.118 2.989
1.639 -3.124 3.03
1.677 -3.141 3.08
1.711 -3.15 3.126
1.749 -3.166 3.176
1.783 -3.173 3.222
1.822 -3.188 3.274
1.861 -3.201 3.326
1.901 -3.214 3.379
1.939 -3.224 3.431
1.983 -3.241 3.489
2.028 -3.258 3.548
2.073 -3.274 3.608
2.114 -3.283 3.664
2.16 -3.297 3.725
2.21 -3.317 3.792
2.257 -3.329 3.854
2.311 -3.352 3.927
2.366 -3.373 4
2.387 -3.343 4.028
2.395 -3.296 4.038
2.383 -3.222 4.023
2.395 -3.181 4.039
2.381 -3.106 4.021
2.388 -3.06 4.03
2.38 -2.994 4.018
2.384 -2.946 4.024
2.378 -2.885 4.016
2.387 -2.844 4.028
2.375 -2.778 4.011
2.383 -2.737 4.023
2.379 -2.681 4.017
2.383 -2.636 4.023
2.374 -2.576 4.01
2.383 -2.537 4.022
2.372 -2.478 4.008
2.38 -2.439 4.019
2.37 -2.382 4.006
2.381 -2.347 4.021
2.375 -2.295 4.013
2.381 -2.254 4.02
2.376 -2.205 4.014
2.384 -2.167 4.024
2.37 -2.11 4.006
2.382 -2.077 4.021
2.372 -2.025 4.009
2.382 -1.991 4.022
2.373 -1.941 4.01
2.384 -1.907 4.024
2.368 -1.852 4.003
2.378 -1.818 4.016
2.367 -1.769 4.002
2.377 -1.736 4.015
2.366 -1.687 4
2.376 -1.654 4.013
2.359 -1.602 3.991
2.425 -1.607 4.079
2.42 -1.564 4.072
2.429 -1.53 4.084
2.402 -1.473 4.049
2.424 -1.447 4.078
2.394 -1.39 4.037
2.407 -1.36 4.055
2.358 -1.294 3.989
2.373 -1.264 4.009
2.359 -1.219 3.99
2.364 -1.185 3.997
2.359 -1.146 3.991
2.369 -1.114 4.005
2.356 -1.071 3.986
2.366 -1.04 4
2.358 -1 3.989
2.364 -0.966 3.997
2.356 -0.927 3.987
2.366 -0.896 4
2.354 -0.856 3.985
2.365 -0.824 3.998
2.352 -0.785 3.981
2.362 -0.753 3.994
2.349 -0.714 3.977
2.358 -0.682 3.989
2.356 -0.646 3.987
2.359 -0.613 3.991
2.352 -0.576 3.981
2.36 -0.544 3.992
2.346 -0.506 3.973
2.36 -0.475 3.992
2.351 -0.439 3.98
2.359 -0.407 3.991
2.351 -0.371 3.98
2.356 -0.338 3.987
2.349 -0.303 3.978
2.356 -0.27 3.986
2.345 -0.235 3.972
2.352 -0.202 3.982
2.347 -0.168 3.975
2.346 -0.134 3.973
2.334 -0.1 3.957
2.344 -0.067 3.971
2.333 -0.033 3.955
2.339 -0 3.964
2.343 0.034 3.969
2.348 0.067 3.977
2.343 0.101 3.969
2.359 0.135 3.991
2.347 0.168 3.974
2.362 0.203 3.995
2.351 0.236 3.98
2.36 0.271 3.993
2.354 0.304 3.984
2.357 0.338 3.989
2.351 0.371 3.98
2.36 0.407 3.992
2.352 0.439 3.981
2.356 0.474 3.987
2.347 0.507 3.975
2.361 0.544 3.994
2.347 0.575 3.975
2.355 0.612 3.986
2.347 0.644 3.974
2.359 0.682 3.991
2.35 0.714 3.979
2.363 0.753 3.996
2.354 0.785 3.984
2.36 0.823 3.993
2.357 0.857 3.988
2.363 0.894 3.996
2.354 0.927 3.985
2.36 0.965 3.992
2.352 0.998 3.982
2.365 1.039 3.999
2.355 1.071 3.985
2.362 1.111 3.995
2.349 1.141 3.978
2.36 1.183 3.992
2.352 1.216 3.982
2.357 1.256 3.988
2.35 1.289 3.979
2.358 1.332 3.99
2.347 1.363 3.975
2.355 1.405 3.985
2.347 1.439 3.975
2.359 1.485 3.991
2.35 1.518 3.979
2.355 1.56 3.986
2.347 1.594 3.975
2.353 1.638 3.983
2.345 1.672 3.973
2.355 1.719 3.986
2.346 1.753 3.973
2.347 1.794 3.974
2.342 1.831 3.968
2.351 1.88 3.98
2.342 1.915 3.968
2.35 1.964 3.979
2.34 1.997 3.965
2.35 2.048 3.978
2.338 2.081 3.963
2.352 2.138 3.981
2.341 2.172 3.967
0.4 0.347 1.376
0.392 0.346 1.365
0.39 0.351 1.362
0.384 0.352 1.355
0.377 0.351 1.345
0.374 0.355 1.341
0.37 0.357 1.335
0.365 0.359 1.329
0.364 0.364 1.327
0.359 0.366 1.321
0.356 0.369 1.317
0.349 0.368 1.307
0.347 0.372 1.305
0.342 0.372 1.298
0.339 0.376 1.294
0.332 0.374 1.285
0.329 0.377 1.281
0.328 0.382 1.279
0.326 0.386 1.277
0.32 0.385 1.269
0.317 0.388 1.265
0.311 0.386 1.257
0.305 0.384 1.249
0.308 0.395 1.252
0.301 0.391 1.243
0.299 0.395 1.24
0.293 0.394 1.233
0.292 0.399 1.231
0.289 0.402 1.228
0.288 0.406 1.226
0.282 0.403 1.218
0.279 0.406 1.214
0.273 0.403 1.206
0.271 0.407 1.204
0.27 0.411 1.202
0.267 0.413 1.198
0.262 0.411 1.191
0.259 0.413 1.187
0.257 0.416 1.184
0.255 0.42 1.182
0.252 0.421 1.178
0.245 0.416 1.169
0.244 0.42 1.168
0.242 0.423 1.165
0.24 0.426 1.162
0.235 0.424 1.155
0.235 0.432 1.156
0.23 0.428 1.149
0.228 0.432 1.146
0.222 0.426 1.138
0.22 0.428 1.135
0.218 0.432 1.133
0.215 0.434 1.129
0.213 0.435 1.126
0.211 0.44 1.124
0.208 0.44 1.119
0.203 0.436 1.113
0.2 0.437 1.109
0.201 0.446 1.109
0.196 0.443 1.104
0.192 0.438 1.098
0.192 0.449 1.098
0.187 0.443 1.091
0.188 0.454 1.092
0.182 0.447 1.085
0.181 0.451 1.083
0.177 0.45 1.079
0.175 0.453 1.076
0.173 0.455 1.073
0.17 0.453 1.068
0.169 0.46 1.067
0.164 0.454 1.061
0.162 0.459 1.058
0.16 0.46 1.055
0.157 0.458 1.051
0.155 0.463 1.048
0.153 0.466 1.046
0.15 0.465 1.042
0.147 0.467 1.038
0.143 0.462 1.033
0.142 0.47 1.032
0.14 0.469 1.028
0.138 0.473 1.025
0.135 0.474 1.022
0.132 0.474 1.018
0.13 0.477 1.015
0.127 0.474 1.011
0.124 0.474 1.007
0.123 0.481 1.005
0.119 0.475 1
0.118 0.483 0.999
0.115 0.484 0.995
0.111 0.478 0.99
0.11 0.486 0.988
0.107 0.487 0.985
0.105 0.487 0.981
0.102 0.484 0.977
0.099 0.488 0.974
0.097 0.49 0.971
0.095 0.493 0.968
0.092 0.494 0.965
0.089 0.493 0.961
0.087 0.493 0.957
0.084 0.496 0.954
0.082 0.499 0.951
0.08 0.502 0.948
0.077 0.499 0.944
0.074 0.501 0.941
0.071 0.495 0.937
0.069 0.498 0.933
0.066 0.505 0.93
0.064 0.505 0.927
0.061 0.505 0.923
0.059 0.509 0.92
0.056 0.507 0.916
0.053 0.506 0.913
0.051 0.516 0.909
0.048 0.508 0.906
0.045 0.518 0.902
0.043 0.515 0.899
0.04 0.509 0.895
0.039 -0.571 0.895
0.042 -0.571 0.899
0.045 -0.572 0.903
0.048 -0.58 0.908
0.051 -0.581 0.912
0.054 -0.579 0.916
0.057 -0.58 0.92
0.06 -0.58 0.924
0.063 -0.58 0.928
0.066 -0.579 0.932
0.07 -0.588 0.937
0.073 -0.587 0.941
0.076 -0.587 0.945
0.079 -0.586 0.949
0.083 -0.595 0.954
0.086 -0.594 0.958
0.089 -0.594 0.963
0.092 -0.593 0.967
0.095 -0.594 0.971
0.098 -0.592 0.975
0.101 -0.591 0.979
0.105 -0.598 0.984
0.108 -0.596 0.989
0.111 -0.594 0.993
0.114 -0.596 0.997
0.115 -0.573 0.998
0.411 -2.713 1.399
0.427 -2.718 1.42
0.443 -2.725 1.442
0.458 -2.728 1.463
0.474 -2.731 1.484
0.491 -2.742 1.507
0.507 -2.745 1.529
0.522 -2.746 1.55
0.539 -2.756 1.573
0.557 -2.767 1.597
0.573 -2.769 1.619
0.591 -2.779 1.643
0.607 -2.779 1.665
0.626 -2.79 1.69
0.642 -2.789 1.712
0.663 -2.808 1.74
0.679 -2.809 1.763
0.698 -2.816 1.788
0.717 -2.825 1.814
0.733 -2.822 1.836
0.753 -2.831 1.862
0.772 -2.837 1.888
0.793 -2.851 1.917
0.81 -2.849 1.94
0.829 -2.853 1.966
0.851 -2.866 1.995
0.87 -2.871 2.022
0.892 -2.883 2.052
0.912 -2.886 2.079
0.932 -2.888 2.105
0.954 -2.898 2.135
0.976 -2.907 2.165
0.999 -2.917 2.196
1.022 -2.925 2.227
1.045 -2.933 2.258
1.068 -2.942 2.29
1.088 -2.941 2.317
1.112 -2.948 2.349
1.139 -2.965 2.386
1.163 -2.972 2.419
1.187 -2.978 2.452
1.212 -2.984 2.485
1.238 -2.994 2.52
1.266 -3.006 2.558
1.291 -3.01 2.592
1.319 -3.021 2.629
1.348 -3.034 2.669
1.373 -3.036 2.703
1.406 -3.055 2.748
1.431 -3.056 2.782
1.465 -3.073 2.827
1.495 -3.083 2.869
1.528 -3.098 2.914
1.555 -3.097 2.95
1.592 -3.118 3.001
1.623 -3.123 3.042
1.656 -3.134 3.087
1.693 -3.149 3.137
1.728 -3.158 3.184
1.766 -3.173 3.235
1.804 -3.188 3.288
1.843 -3.201 3.34
1.881 -3.213 3.392
1.92 -3.224 3.445
1.964 -3.241 3.504
2.003 -3.251 3.557
2.052 -3.273 3.623
2.093 -3.282 3.678
2.143 -3.304 3.747
2.184 -3.311 3.803
2.233 -3.328 3.869
2.284 -3.345 3.938
2.336 -3.364 4.009
2.347 -3.32 4.023
2.355 -3.272 4.034
2.343 -3.198 4.017
2.351 -3.154 4.029
2.338 -3.08 4.011
2.345 -3.034 4.02
2.338 -2.971 4.011
2.344 -2.925 4.019
2.333 -2.859 4.005
2.344 -2.82 4.019
2.336 -2.76 4.009
2.341 -2.715 4.016
2.333 -2.655 4.004
2.342 -2.616 4.016
2.332 -2.557 4.004
2.341 -2.518 4.015
2.33 -2.458 4
2.339 -2.42 4.012
2.332 -2.367 4.003
2.34 -2.328 4.014
2.334 -2.277 4.006
2.341 -2.238 4.015
2.329 -2.182 3.999
2.341 -2.149 4.015
2.328 -2.093 3.997
2.338 -2.059 4.012
2.33 -2.009 4.001
2.34 -1.974 4.014
2.33 -1.924 4.001
2.335 -1.886 4.007
2.327 -1.838 3.996
2.335 -1.803 4.007
2.324 -1.754 3.993
2.335 -1.722 4.007
2.324 -1.673 3.992
2.333 -1.64 4.004
2.325 -1.595 3.993
2.397 -1.604 4.091
2.351 -1.534 4.029
2.369 -1.507 4.054
2.315 -1.433 3.98
2.349 -1.416 4.026
2.317 -1.359 3.983
2.323 -1.325 3.991
2.32 -1.285 3.987
2.33 -1.254 4
2.318 -1.21 3.984
2.329 -1.179 3.999
2.314 -1.135 3.979
2.326 -1.104 3.995
2.316 -1.064 3.982
2.327 -1.033 3.997
2.315 -0.991 3.98
2.324 -0.959 3.992
2.316 -0.921 3.981
2.326 -0.889 3.995
2.315 -0.85 3.98
2.324 -0.818 3.992
2.313 -0.779 3.977
2.322 -0.747 3.989
2.309 -0.709 3.972
2.318 -0.677 3.984
2.31 -0.64 3.973
2.32 -0.608 3.986
2.312 -0.572 3.976
2.315 -0.539 3.98
2.312 -0.504 3.976
2.321 -0.472 3.988
2.306 -0.435 3.967
2.319 -0.404 3.986
2.31 -0.368 3.974
2.318 -0.336 3.984
2.308 -0.301 3.97
2.315 -0.268 3.98
2.305 -0.233 3.967
2.312 -0.201 3.976
2.301 -0.166 3.962
2.312 -0.134 3.976
2.3 -0.1 3.959
2.301 -0.066 3.961
2.299 -0.033 3.959
2.308 -0 3.97
2.304 0.033 3.965
2.314 0.067 3.979
2.309 0.1 3.971
2.313 0.134 3.977
2.307 0.167 3.97
2.317 0.201 3.983
2.309 0.234 3.972
2.317 0.268 3.983
2.313 0.301 3.977
2.317 0.336 3.982
2.31 0.368 3.973
2.319 0.404 3.986
2.312 0.436 3.976
2.315 0.471 3.98
2.312 0.504 3.976
2.316 0.539 3.982
2.307 0.571 3.969
2.315 0.607 3.98
2.306 0.639 3.968
2.319 0.677 3.986
2.311 0.709 3.974
2.318 0.746 3.984
2.308 0.778 3.971
2.32 0.817 3.987
2.315 0.85 3.98
2.321 0.887 3.988
2.314 0.92 3.978
2.323 0.959 3.99
2.309 0.989 3.972
2.316 1.028 3.982
2.309 1.06 3.972
2.317 1.1 3.982
2.309 1.133 3.972
2.319 1.174 3.985
2.307 1.205 3.97
2.317 1.247 3.983
2.306 1.277 3.968
2.314 1.32 3.979
2.308 1.353 3.97
2.316 1.396 3.982
2.304 1.426 3.965
2.317 1.473 3.982
2.309 1.506 3.973
2.317 1.55 3.983
2.309 1.584 3.972
2.315 1.627 3.98
2.307 1.661 3.97
2.313 1.705 3.977
2.304 1.739 3.966
2.309 1.783 3.972
2.3 1.816 3.96
2.309 1.865 3.972
2.3 1.899 3.96
2.309 1.948 3.972
2.298 1.981 3.957
2.311 2.035 3.975
2.3 2.068 3.96
2.306 2.117 3.968
2.299 2.154 3.959
0.402 0.353 1.387
0.389 0.347 1.37
0.388 0.353 1.368
0.376 0.347 1.352
0.375 0.353 1.35
0.364 0.349 1.336
0.365 0.356 1.337
0.361 0.359 1.331
0.364 0.369 1.336
0.354 0.364 1.322
0.348 0.364 1.313
0.345 0.368 1.31
0.343 0.372 1.307
0.338 0.372 1.3
0.336 0.376 1.297
0.333 0.379 1.293
0.331 0.384 1.29
0.325 0.382 1.282
0.318 0.38 1.273
0.316 0.384 1.27
0.31 0.382 1.262
0.308 0.387 1.26
0.306 0.39 1.257
0.3 0.389 1.249
0.297 0.391 1.245
0.295 0.395 1.242
0.293 0.399 1.24
0.288 0.398 1.233
0.282 0.395 1.225
0.28 0.399 1.222
0.279 0.403 1.22
0.276 0.407 1.217
0.274 0.409 1.213
0.271 0.412 1.21
0.267 0.411 1.204
0.261 0.408 1.196
0.259 0.41 1.193
0.257 0.414 1.19
0.253 0.415 1.186
0.248 0.412 1.179
0.245 0.414 1.175
0.246 0.423 1.176
0.241 0.42 1.169
0.239 0.423 1.166
0.234 0.419 1.159
0.232 0.424 1.157
0.229 0.425 1.153
0.231 0.436 1.155
0.226 0.432 1.148
0.223 0.433 1.144
0.22 0.435 1.14
0.215 0.432 1.134
0.213 0.434 1.131
0.211 0.436 1.128
0.208 0.439 1.125
0.206 0.441 1.121
0.203 0.443 1.118
0.201 0.444 1.114
0.196 0.439 1.108
0.194 0.442 1.105
0.192 0.447 1.103
0.19 0.449 1.1
0.185 0.444 1.093
0.183 0.446 1.09
0.18 0.447 1.086
0.179 0.451 1.084
0.176 0.452 1.081
0.172 0.447 1.075
0.171 0.455 1.074
0.17 0.46 1.072
0.165 0.453 1.065
0.162 0.454 1.062
0.16 0.459 1.06
0.158 0.459 1.056
0.155 0.46 1.053
0.153 0.464 1.05
0.151 0.467 1.047
0.148 0.467 1.043
0.146 0.469 1.04
0.143 0.466 1.036
0.141 0.47 1.033
0.138 0.468 1.029
0.136 0.473 1.026
0.133 0.472 1.022
0.131 0.476 1.02
0.129 0.477 1.016
0.125 0.474 1.012
0.123 0.474 1.008
0.121 0.481 1.006
0.119 0.484 1.003
0.116 0.483 0.999
0.114 0.484 0.996
0.11 0.477 0.991
0.109 0.486 0.989
0.106 0.487 0.986
0.103 0.487 0.982
0.1 0.483 0.978
0.098 0.49 0.976
0.096 0.491 0.972
0.093 0.485 0.968
0.09 0.486 0.964
0.088 0.493 0.962
0.086 0.492 0.958
0.083 0.496 0.955
0.081 0.498 0.952
0.078 0.493 0.948
0.076 0.499 0.945
0.073 0.499 0.941
0.07 0.495 0.937
0.068 0.498 0.934
0.065 0.505 0.931
0.063 0.498 0.927
0.06 0.505 0.924
0.058 0.508 0.92
0.055 0.507 0.917
0.052 0.505 0.913
0.05 0.516 0.91
0.047 0.508 0.906
0.045 0.508 0.902
0.042 0.516 0.899
0.039 0.518 0.895
0.038 -0.572 0.896
0.041 -0.571 0.9
0.044 -0.581 0.904
0.047 -0.58 0.908
0.05 -0.58 0.912
0.053 -0.579 0.916
0.056 -0.58 0.92
0.059 -0.58 0.925
0.062 -0.58 0.929
0.065 -0.588 0.933
0.068 -0.588 0.937
0.071 -0.587 0.942
0.074 -0.587 0.946
0.077 -0.586 0.95
0.08 -0.586 0.954
0.084 -0.594 0.959
0.087 -0.593 0.963
0.09 -0.593 0.968
0.093 -0.594 0.972
0.096 -0.592 0.976
0.099 -0.591 0.98
0.103 -0.598 0.986
0.106 -0.597 0.99
0.109 -0.595 0.994
0.126 -0.707 1.018
0.115 -0.592 1.002
0.404 -2.707 1.403
0.419 -2.715 1.424
0.436 -2.726 1.447
0.451 -2.727 1.468
0.466 -2.731 1.489
0.481 -2.733 1.511
0.498 -2.744 1.534
0.514 -2.746 1.556
0.531 -2.756 1.579
0.548 -2.768 1.604
0.564 -2.769 1.626
0.58 -2.77 1.648
0.598 -2.78 1.672
0.616 -2.79 1.697
0.632 -2.79 1.72
0.65 -2.8 1.745
0.669 -2.808 1.77
0.687 -2.815 1.795
0.706 -2.825 1.822
0.722 -2.822 1.844
0.741 -2.831 1.871
0.759 -2.836 1.896
0.779 -2.844 1.923
0.798 -2.85 1.949
0.816 -2.853 1.975
0.838 -2.867 2.005
0.857 -2.87 2.031
0.876 -2.875 2.059
0.898 -2.886 2.089
0.917 -2.888 2.115
0.939 -2.896 2.145
0.959 -2.899 2.173
0.981 -2.909 2.204
1.003 -2.917 2.235
1.026 -2.925 2.266
1.048 -2.933 2.297
1.071 -2.94 2.329
1.095 -2.949 2.362
1.118 -2.955 2.394
1.142 -2.964 2.427
1.169 -2.978 2.465
1.193 -2.984 2.498
1.219 -2.994 2.534
1.243 -2.999 2.568
1.271 -3.01 2.606
1.296 -3.015 2.64
1.327 -3.033 2.683
1.352 -3.035 2.718
1.381 -3.047 2.758
1.409 -3.056 2.798
1.439 -3.066 2.839
1.469 -3.076 2.88
1.501 -3.09 2.926
1.531 -3.097 2.967
1.561 -3.103 3.008
1.594 -3.115 3.054
1.631 -3.134 3.105
1.661 -3.137 3.147
1.701 -3.159 3.203
1.735 -3.167 3.25
1.772 -3.179 3.301
1.807 -3.187 3.349
1.849 -3.208 3.409
1.887 -3.217 3.461
1.926 -3.228 3.514
1.965 -3.237 3.568
2.012 -3.26 3.634
2.056 -3.275 3.696
2.098 -3.285 3.753
2.148 -3.306 3.822
2.197 -3.324 3.89
2.242 -3.334 3.953
2.283 -3.337 4.01
2.271 -3.262 3.994
2.279 -3.215 4.004
2.27 -3.147 3.992
2.278 -3.101 4.003
2.267 -3.032 3.988
2.278 -2.993 4.003
2.266 -2.923 3.986
2.272 -2.879 3.995
2.264 -2.816 3.983
2.274 -2.778 3.997
2.266 -2.717 3.986
2.27 -2.672 3.992
2.262 -2.613 3.98
2.271 -2.575 3.993
2.261 -2.516 3.98
2.269 -2.478 3.991
2.259 -2.419 3.977
2.271 -2.386 3.994
2.262 -2.331 3.981
2.269 -2.292 3.99
2.262 -2.24 3.98
2.27 -2.204 3.993
2.26 -2.15 3.978
2.267 -2.113 3.989
2.264 -2.067 3.983
2.269 -2.029 3.991
2.257 -1.975 3.973
2.267 -1.942 3.988
2.257 -1.892 3.975
2.267 -1.859 3.987
2.256 -1.809 3.973
2.266 -1.777 3.987
2.256 -1.729 3.973
2.261 -1.693 3.98
2.253 -1.647 3.968
2.257 -1.611 3.974
2.254 -1.57 3.97
2.259 -1.535 3.977
2.252 -1.492 3.968
2.264 -1.461 3.983
2.251 -1.415 3.966
2.259 -1.382 3.977
2.251 -1.34 3.966
2.257 -1.307 3.975
2.249 -1.265 3.963
2.255 -1.232 3.972
2.246 -1.19 3.959
2.252 -1.157 3.967
2.248 -1.119 3.961
2.254 -1.087 3.97
2.249 -1.049 3.963
2.254 -1.016 3.971
2.249 -0.978 3.963
2.255 -0.945 3.972
2.242 -0.905 3.953
2.253 -0.874 3.968
2.247 -0.837 3.96
2.251 -0.804 3.965
2.244 -0.768 3.956
2.248 -0.735 3.962
2.241 -0.698 3.952
2.251 -0.667 3.965
2.244 -0.631 3.955
2.251 -0.599 3.965
2.243 -0.564 3.955
2.247 -0.531 3.96
2.238 -0.495 3.948
2.252 -0.465 3.968
2.243 -0.43 3.955
2.251 -0.398 3.966
2.241 -0.363 3.952
2.25 -0.331 3.964
2.24 -0.296 3.95
2.247 -0.264 3.96
2.237 -0.23 3.946
2.244 -0.198 3.956
2.239 -0.164 3.949
2.24 -0.132 3.951
2.235 -0.098 3.943
2.241 -0.066 3.952
2.236 -0.033 3.945
2.241 -0 3.952
2.236 0.033 3.944
2.241 0.066 3.951
2.235 0.098 3.943
2.245 0.132 3.958
2.239 0.164 3.949
2.248 0.198 3.962
2.242 0.231 3.953
2.251 0.265 3.965
2.243 0.297 3.955
2.249 0.331 3.963
2.241 0.363 3.952
2.25 0.398 3.965
2.243 0.43 3.955
2.252 0.465 3.967
2.244 0.497 3.956
2.253 0.532 3.968
2.243 0.563 3.954
2.251 0.599 3.966
2.244 0.631 3.956
2.254 0.668 3.97
2.243 0.699 3.954
2.25 0.735 3.965
2.243 0.767 3.955
2.252 0.805 3.967
2.243 0.836 3.954
2.249 0.873 3.963
2.244 0.906 3.956
2.253 0.944 3.968
2.242 0.975 3.953
2.253 1.015 3.968
2.237 1.043 3.947
2.248 1.084 3.961
2.243 1.117 3.954
2.247 1.155 3.96
2.236 1.185 3.945
2.245 1.226 3.958
2.24 1.26 3.95
2.249 1.302 3.962
2.236 1.331 3.945
2.245 1.374 3.957
2.238 1.407 3.948
2.246 1.45 3.959
2.238 1.482 3.948
2.246 1.526 3.959
2.237 1.558 3.946
2.246 1.603 3.959
2.233 1.632 3.941
2.244 1.68 3.956
2.236 1.713 3.944
2.241 1.756 3.951
2.232 1.79 3.94
2.237 1.834 3.946
2.232 1.871 3.94
2.236 1.915 3.945
2.232 1.953 3.939
2.234 1.997 3.943
2.233 2.038 3.941
2.239 2.086 3.949
2.228 2.119 3.934
0.39 0.347 1.383
0.387 0.351 1.379
0.377 0.348 1.365
0.368 0.346 1.354
0.363 0.347 1.346
0.358 0.348 1.339
0.358 0.356 1.34
0.36 0.365 1.343
0.358 0.369 1.34
0.348 0.364 1.326
0.347 0.369 1.324
0.344 0.373 1.32
0.338 0.372 1.311
0.336 0.377 1.309
0.33 0.376 1.301
0.328 0.38 1.297
0.32 0.377 1.287
0.319 0.382 1.285
0.312 0.379 1.276
0.31 0.384 1.273
0.309 0.388 1.271
0.302 0.386 1.262
0.301 0.39 1.26
0.295 0.389 1.252
0.293 0.392 1.249
0.291 0.396 1.246
0.286 0.395 1.239
0.284 0.399 1.236
0.282 0.402 1.234
0.275 0.399 1.225
0.278 0.409 1.228
0.271 0.406 1.219
0.269 0.408 1.215
0.264 0.406 1.208
0.262 0.41 1.206
0.26 0.414 1.204
0.258 0.417 1.2
0.252 0.413 1.192
0.25 0.417 1.19
0.247 0.419 1.186
0.245 0.421 1.183
0.24 0.418 1.175
0.237 0.42 1.172
0.235 0.423 1.169
0.233 0.427 1.166
0.228 0.423 1.159
0.226 0.426 1.156
0.223 0.428 1.152
0.222 0.432 1.15
0.219 0.433 1.146
0.217 0.436 1.143
0.211 0.431 1.136
0.209 0.434 1.133
0.208 0.438 1.131
0.202 0.431 1.123
0.203 0.441 1.124
0.2 0.444 1.121
0.198 0.446 1.117
0.193 0.441 1.11
0.191 0.443 1.107
0.189 0.447 1.105
0.187 0.449 1.102
0.184 0.451 1.099
0.182 0.453 1.095
0.178 0.449 1.089
0.175 0.451 1.086
0.173 0.452 1.082
0.17 0.454 1.079
0.168 0.455 1.076
0.166 0.457 1.072
0.164 0.46 1.07
0.161 0.462 1.067
0.157 0.458 1.061
0.155 0.458 1.057
0.152 0.46 1.054
0.15 0.461 1.051
0.148 0.465 1.048
0.145 0.465 1.044
0.143 0.469 1.042
0.141 0.468 1.038
0.138 0.47 1.034
0.136 0.471 1.031
0.133 0.473 1.028
0.131 0.474 1.024
0.129 0.476 1.021
0.126 0.478 1.018
0.124 0.477 1.014
0.121 0.479 1.011
0.118 0.474 1.006
0.116 0.483 1.004
0.114 0.481 1
0.111 0.482 0.997
0.108 0.479 0.993
0.107 0.489 0.991
0.104 0.487 0.987
0.101 0.487 0.983
0.099 0.491 0.98
0.095 0.481 0.975
0.094 0.491 0.973
0.091 0.485 0.969
0.089 0.492 0.966
0.087 0.495 0.963
0.084 0.498 0.96
0.081 0.495 0.956
0.079 0.491 0.952
0.077 0.502 0.949
0.074 0.499 0.945
0.071 0.499 0.942
0.069 0.496 0.938
0.066 0.498 0.935
0.064 0.496 0.931
0.061 0.505 0.928
0.059 0.507 0.924
0.056 0.509 0.921
0.054 0.507 0.917
0.051 0.506 0.914
0.048 0.504 0.91
0.046 0.509 0.907
0.043 0.517 0.903
0.041 0.508 0.899
0.038 0.508 0.896
0.037 -0.571 0.896
0.04 -0.572 0.9
0.043 -0.572 0.904
0.046 -0.581 0.908
0.049 -0.58 0.913
0.052 -0.579 0.917
0.055 -0.58 0.921
0.058 -0.58 0.925
0.061 -0.579 0.929
0.064 -0.578 0.933
0.067 -0.588 0.938
0.07 -0.587 0.942
0.073 -0.588 0.946
0.076 -0.586 0.95
0.08 -0.595 0.956
0.082 -0.585 0.959
0.086 -0.593 0.964
0.089 -0.594 0.968
0.092 -0.594 0.973
0.095 -0.591 0.977
0.099 -0.599 0.982
0.101 -0.589 0.985
0.105 -0.597 0.991
0.108 -0.595 0.995
0.123 -0.692 1.016
0.114 -0.597 1.004
0.4 -2.715 1.407
0.414 -2.712 1.427
0.431 -2.724 1.45
0.446 -2.727 1.471
0.461 -2.731 1.493
0.476 -2.733 1.514
0.493 -2.744 1.538
0.51 -2.756 1.562
0.525 -2.757 1.583
0.541 -2.758 1.605
0.558 -2.769 1.63
0.574 -2.77 1.652
0.591 -2.78 1.677
0.609 -2.789 1.701
0.625 -2.79 1.724
0.644 -2.801 1.75
0.662 -2.809 1.775
0.678 -2.808 1.798
0.696 -2.815 1.823
0.714 -2.823 1.85
0.733 -2.831 1.876
0.749 -2.828 1.899
0.771 -2.845 1.929
0.789 -2.849 1.955
0.808 -2.855 1.982
0.827 -2.858 2.008
0.848 -2.872 2.038
0.867 -2.875 2.065
0.889 -2.887 2.096
0.908 -2.888 2.122
0.929 -2.898 2.153
0.949 -2.9 2.18
0.97 -2.908 2.211
0.99 -2.91 2.238
1.015 -2.925 2.273
1.037 -2.932 2.304
1.06 -2.94 2.337
1.084 -2.949 2.37
1.106 -2.955 2.402
1.13 -2.963 2.435
1.154 -2.97 2.469
1.178 -2.976 2.502
1.206 -2.994 2.543
1.231 -3 2.577
1.254 -3.002 2.61
1.282 -3.015 2.65
1.31 -3.025 2.688
1.338 -3.036 2.728
1.366 -3.047 2.768
1.392 -3.049 2.804
1.424 -3.065 2.849
1.453 -3.075 2.891
1.482 -3.083 2.932
1.512 -3.091 2.974
1.545 -3.103 3.019
1.578 -3.115 3.066
1.611 -3.128 3.113
1.644 -3.137 3.16
1.681 -3.153 3.211
1.713 -3.16 3.257
1.751 -3.174 3.31
1.788 -3.187 3.363
1.826 -3.2 3.416
1.865 -3.214 3.472
1.906 -3.228 3.528
1.948 -3.245 3.588
1.988 -3.254 3.644
2.032 -3.27 3.706
2.076 -3.284 3.768
2.122 -3.3 3.832
2.166 -3.311 3.895
2.217 -3.332 3.967
2.242 -3.31 4.002
2.231 -3.237 3.987
2.239 -3.192 3.998
2.229 -3.122 3.984
2.237 -3.077 3.995
2.228 -3.01 3.982
2.232 -2.963 3.988
2.226 -2.901 3.979
2.236 -2.862 3.993
2.222 -2.793 3.974
2.233 -2.756 3.989
2.224 -2.695 3.977
2.229 -2.652 3.984
2.221 -2.593 3.973
2.23 -2.556 3.986
2.22 -2.496 3.972
2.228 -2.458 3.983
2.22 -2.402 3.971
2.232 -2.369 3.988
2.225 -2.316 3.978
2.227 -2.273 3.981
2.22 -2.221 3.971
2.227 -2.184 3.981
2.219 -2.133 3.97
2.23 -2.1 3.985
2.218 -2.046 3.968
2.228 -2.012 3.982
2.219 -1.962 3.97
2.225 -1.925 3.978
2.216 -1.877 3.966
2.226 -1.844 3.98
2.212 -1.792 3.96
2.224 -1.761 3.976
2.214 -1.714 3.962
2.222 -1.681 3.974
2.217 -1.638 3.967
2.225 -1.604 3.977
2.21 -1.555 3.957
2.222 -1.525 3.974
2.21 -1.478 3.957
2.217 -1.445 3.966
2.209 -1.403 3.956
2.222 -1.374 3.973
2.208 -1.328 3.954
2.214 -1.295 3.963
2.211 -1.256 3.958
2.216 -1.223 3.966
2.207 -1.182 3.953
2.219 -1.152 3.969
2.209 -1.111 3.956
2.215 -1.079 3.964
2.204 -1.038 3.949
2.215 -1.008 3.964
2.209 -0.97 3.956
2.214 -0.937 3.962
2.208 -0.9 3.954
2.214 -0.868 3.962
2.202 -0.829 3.945
2.211 -0.798 3.959
2.205 -0.762 3.95
2.209 -0.729 3.956
2.201 -0.693 3.945
2.206 -0.661 3.951
2.203 -0.626 3.947
2.206 -0.594 3.952
2.199 -0.558 3.941
2.207 -0.527 3.953
2.199 -0.492 3.942
2.207 -0.46 3.952
2.204 -0.426 3.948
2.211 -0.395 3.958
2.202 -0.36 3.946
2.208 -0.328 3.954
2.2 -0.294 3.943
2.207 -0.262 3.952
2.198 -0.228 3.94
2.21 -0.197 3.956
2.2 -0.163 3.942
2.206 -0.131 3.951
2.196 -0.098 3.937
2.202 -0.065 3.945
2.197 -0.033 3.939
2.202 -0 3.946
2.197 0.033 3.939
2.202 0.065 3.945
2.196 0.098 3.938
2.206 0.131 3.951
2.2 0.163 3.942
2.209 0.197 3.956
2.203 0.229 3.947
2.212 0.263 3.96
2.201 0.294 3.945
2.215 0.329 3.964
2.202 0.36 3.946
2.212 0.395 3.959
2.201 0.426 3.945
2.211 0.461 3.958
2.205 0.493 3.95
2.21 0.527 3.957
2.206 0.56 3.951
2.213 0.595 3.961
2.207 0.627 3.952
2.211 0.662 3.958
2.201 0.693 3.945
2.214 0.731 3.963
2.205 0.762 3.95
2.213 0.799 3.961
2.203 0.829 3.947
2.21 0.867 3.957
2.206 0.899 3.951
2.211 0.936 3.958
2.203 0.968 3.947
2.208 1.005 3.955
2.198 1.035 3.94
2.209 1.076 3.956
2.198 1.106 3.94
2.209 1.147 3.955
2.197 1.177 3.939
2.206 1.218 3.952
2.201 1.25 3.944
2.205 1.289 3.949
2.198 1.322 3.94
2.207 1.364 3.952
2.2 1.397 3.943
2.208 1.44 3.954
2.2 1.472 3.943
2.208 1.515 3.954
2.197 1.545 3.938
2.204 1.589 3.948
2.196 1.621 3.937
2.202 1.665 3.945
2.193 1.697 3.933
2.204 1.745 3.948
2.195 1.778 3.936
2.199 1.822 3.942
2.191 1.855 3.93
2.2 1.904 3.943
2.191 1.937 3.93
2.198 1.985 3.94
2.191 2.02 3.93
2.202 2.073 3.945
0.395 0.349 1.399
0.386 0.348 1.388
0.381 0.349 1.379
0.364 0.339 1.357
0.358 0.34 1.348
0.359 0.347 1.348
0.355 0.349 1.343
0.351 0.351 1.337
0.354 0.362 1.342
0.354 0.369 1.342
0.345 0.365 1.329
0.342 0.368 1.325
0.34 0.373 1.322
0.334 0.373 1.314
0.328 0.372 1.306
0.33 0.381 1.308
0.324 0.379 1.299
0.322 0.384 1.296
0.315 0.382 1.287
0.314 0.386 1.285
0.312 0.391 1.282
0.305 0.388 1.273
0.299 0.386 1.264
0.298 0.392 1.263
0.292 0.389 1.255
0.29 0.392 1.251
0.288 0.397 1.249
0.286 0.401 1.247
0.281 0.399 1.239
0.279 0.402 1.236
0.276 0.405 1.232
0.27 0.402 1.224
0.268 0.406 1.221
0.266 0.409 1.218
0.26 0.405 1.21
0.259 0.41 1.208
0.257 0.414 1.206
0.254 0.416 1.202
0.253 0.421 1.2
0.247 0.417 1.192
0.245 0.419 1.188
0.238 0.413 1.179
0.237 0.417 1.177
0.235 0.42 1.174
0.232 0.423 1.171
0.227 0.42 1.164
0.228 0.429 1.165
0.223 0.425 1.157
