# .PCD v0.7 - Point Cloud Data file format
VERSION 0.7
FIELDS x y z
SIZE 4 4 4
TYPE F F F
COUNT 1 1 1
WIDTH 2500
HEIGHT 1
VIEWPOINT 0 0 0 1 0 0 0
POINTS 2500
DATA ascii
5.391 -0.855 2.998
5.384 -0.803 2.995
3.866 -0.537 2.384
3.787 -0.49 2.352
0 0 0
5.368 -0.599 2.989
5.381 -0.55 2.994
5.37 -0.499 2.99
5.37 -0.449 2.99
5.367 -0.398 2.989
5.378 -0.349 2.993
5.363 -0.298 2.987
5.375 -0.249 2.992
5.367 -0.199 2.989
5.371 -0.149 2.99
5.361 -0.099 2.986
5.355 -0.05 2.984
5.353 -0 2.983
5.365 0.05 2.988
5.356 0.099 2.984
5.348 0.149 2.981
5.35 0.198 2.982
5.365 0.249 2.988
5.494 0.306 3.04
5.355 0.348 2.984
5.344 0.397 2.979
5.365 0.448 2.988
5.367 0.498 2.989
5.364 0.548 2.987
5.361 0.598 2.986
5.361 0.648 2.986
4.058 0.526 2.461
3.919 0.544 2.405
3.901 0.578 2.398
3.895 0.614 2.396
3.886 0.649 2.392
3.885 0.686 2.392
3.912 0.728 2.402
5.336 1.049 2.976
5.329 1.099 2.973
5.326 1.15 2.972
1.892 0.414 1.589
5.321 1.252 2.97
5.315 1.302 2.967
5.314 1.354 2.967
5.305 1.403 2.963
2.067 0.553 1.66
2.058 0.57 1.656
1.722 0.49 1.52
4.896 1.488 2.799
4.211 1.318 2.523
1.719 0.539 1.519
1.702 0.55 1.513
3.617 1.238 2.284
2.213 0.768 1.718
1.534 0.538 1.445
3.32 1.235 2.164
3.013 1.15 2.04
2.504 0.976 1.835
2.092 0.831 1.669
1.589 0.64 1.467
2.407 1.012 1.796
1.681 0.713 1.504
1.801 0.786 1.552
2.409 1.09 1.797
1.872 0.859 1.581
1.802 0.844 1.553
1.792 0.859 1.549
1.787 0.876 1.547
1.858 0.933 1.575
1.936 0.996 1.607
2.226 1.177 1.723
2.223 1.201 1.722
2.269 1.253 1.741
2.297 1.295 1.752
2.245 1.292 1.731
2.193 1.287 1.71
2.15 1.287 1.693
2.102 1.282 1.674
2.055 1.277 1.655
2.016 1.277 1.639
1.972 1.272 1.621
1.934 1.271 1.606
1.895 1.268 1.59
1.859 1.267 1.576
1.821 1.264 1.561
1.79 1.265 1.548
1.751 1.259 1.532
1.72 1.258 1.52
1.689 1.258 1.507
1.657 1.256 1.495
1.626 1.253 1.482
1.601 1.255 1.472
1.569 1.252 1.459
1.538 1.248 1.446
1.514 1.249 1.437
1.483 1.244 1.424
1.459 1.244 1.415
1.435 1.244 1.405
1.405 1.239 1.393
1.389 1.245 1.386
1.359 1.238 1.374
1.336 1.238 1.365
1.307 1.23 1.353
1.291 1.235 1.347
1.268 1.234 1.338
1.246 1.231 1.329
1.223 1.229 1.32
1.201 1.226 1.311
1.186 1.231 1.305
1.163 1.227 1.295
1.144 1.226 1.288
1.128 1.229 1.281
1.106 1.225 1.273
1.085 1.221 1.264
1.069 1.223 1.258
1.054 1.225 1.251
1.034 1.221 1.243
1.018 1.222 1.237
0.998 1.217 1.229
0.981 1.217 1.222
0.967 1.219 1.216
0.946 1.212 1.208
0.931 1.213 1.202
0.916 1.213 1.196
0.902 1.214 1.19
0.887 1.214 1.184
0.867 1.207 1.176
0.85 1.203 1.169
0.644 0.896 1.086
0.575 0.801 1.059
0.566 0.802 1.055
0.555 0.799 1.051
0.545 0.796 1.046
0.533 0.79 1.042
0.522 0.788 1.037
0.512 0.785 1.033
0.502 0.782 1.029
0.491 0.777 1.025
0.484 0.779 1.022
0.47 0.767 1.016
0.459 0.762 1.012
0.449 0.758 1.008
0.441 0.756 1.004
0.434 0.758 1.002
0.424 0.753 0.998
0.414 0.748 0.994
0.405 0.743 0.99
0.399 0.746 0.988
0.39 0.742 0.984
0.38 0.736 0.98
0.371 0.731 0.976
0.366 0.735 0.974
0.356 0.728 0.97
0.348 0.724 0.967
0.342 0.727 0.965
0.334 0.721 0.961
0.328 0.724 0.959
0.319 0.718 0.956
0.311 0.712 0.952
0.305 0.713 0.95
0.297 0.709 0.947
0.291 0.71 0.944
0.282 0.702 0.941
0.276 0.702 0.938
0.269 0.697 0.935
0.262 0.695 0.933
0.256 0.695 0.93
0.251 0.7 0.928
0.243 0.69 0.925
0.236 0.686 0.922
0.23 0.683 0.919
0.224 0.682 0.917
0.219 0.687 0.915
0.212 0.68 0.912
0.205 0.675 0.91
0.2 0.675 0.907
0.194 0.679 0.905
0.188 0.676 0.903
0.182 0.674 0.9
0.177 0.675 0.898
0.17 0.667 0.896
0.165 0.669 0.893
0.158 0.659 0.891
0.154 0.665 0.889
0.148 0.657 0.886
0.142 0.656 0.884
0.137 0.657 0.882
0.131 0.657 0.88
0.126 0.649 0.878
0.12 0.652 0.875
0.115 0.651 0.873
0.11 0.65 0.871
0.104 0.649 0.869
0.099 0.651 0.867
0.094 0.642 0.865
0.089 0.641 0.863
0.083 0.644 0.861
0.083 -2 0.861
0.099 -2.006 0.868
0.115 -2.016 0.875
0.144 -2.5 0.886
0.164 -2.515 0.895
0.184 -2.513 0.903
0.205 -2.514 0.911
0.225 -2.512 0.92
0.245 -2.511 0.928
0.266 -2.516 0.937
0.286 -2.514 0.945
0.306 -2.502 0.953
0.327 -2.51 0.962
0.347 -2.509 0.97
0.368 -2.513 0.979
0.389 -2.51 0.987
0.409 -2.51 0.995
0.429 -2.507 1.004
0.45 -2.504 1.012
0.471 -2.507 1.021
0.491 -2.502 1.029
0.513 -2.509 1.038
0.533 -2.502 1.046
0.554 -2.504 1.055
0.575 -2.505 1.064
0.596 -2.503 1.072
0.619 -2.511 1.082
0.644 -2.526 1.092
0.664 -2.521 1.1
0.687 -2.525 1.11
0.706 -2.516 1.118
0.728 -2.516 1.127
0.75 -2.516 1.136
0.773 -2.519 1.145
0.794 -2.515 1.154
0.815 -2.512 1.163
0.839 -2.516 1.172
0.862 -2.519 1.182
0.884 -2.517 1.191
0.909 -2.522 1.201
0.93 -2.516 1.21
0.957 -2.527 1.221
0.977 -2.519 1.229
1.005 -2.532 1.241
1.024 -2.518 1.248
1.051 -2.528 1.26
1.073 -2.523 1.269
1.098 -2.525 1.279
1.126 -2.532 1.29
1.155 -2.543 1.302
1.175 -2.531 1.31
1.2 -2.532 1.321
1.224 -2.53 1.331
1.249 -2.53 1.341
1.273 -2.525 1.351
1.3 -2.528 1.362
1.329 -2.533 1.374
1.351 -2.526 1.383
1.378 -2.527 1.394
1.405 -2.527 1.405
1.436 -2.534 1.418
1.461 -2.531 1.428
1.489 -2.53 1.44
1.518 -2.533 1.452
1.554 -2.545 1.466
1.582 -2.544 1.478
1.608 -2.539 1.489
1.662 -2.58 1.511
1.783 -2.725 1.561
1.82 -2.733 1.576
1.845 -2.721 1.586
1.878 -2.721 1.6
1.914 -2.725 1.615
1.946 -2.723 1.628
1.977 -2.718 1.641
2.009 -2.715 1.654
2.045 -2.716 1.669
2.078 -2.713 1.682
2.111 -2.708 1.696
2.149 -2.71 1.711
2.182 -2.706 1.725
2.215 -2.699 1.739
2.254 -2.7 1.755
2.29 -2.698 1.77
2.329 -2.698 1.786
2.368 -2.696 1.801
2.401 -2.688 1.815
2.44 -2.686 1.831
2.479 -2.683 1.847
2.525 -2.687 1.866
2.564 -2.683 1.882
2.605 -2.68 1.899
2.645 -2.676 1.916
2.692 -2.678 1.935
2.733 -2.673 1.952
2.78 -2.673 1.971
2.821 -2.666 1.988
2.861 -2.658 2.004
2.915 -2.662 2.027
2.955 -2.653 2.043
2.88 -2.538 2.012
2.785 -2.409 1.973
2.878 -2.447 2.011
2.918 -2.438 2.028
2.784 -2.282 1.973
2.926 -2.359 2.031
2.91 -2.304 2.025
2.919 -2.269 2.028
3.076 -2.352 2.093
2.943 -2.206 2.038
3.031 -2.232 2.075
3.134 -2.268 2.117
3.113 -2.21 2.108
3.418 -2.387 2.234
3.554 -2.437 2.29
3.862 -2.603 2.416
3.517 -2.321 2.274
3.97 -2.576 2.461
3.604 -2.288 2.31
3.318 -2.061 2.193
4.21 -2.576 2.56
4.285 -2.571 2.591
4.371 -2.57 2.626
4.45 -2.564 2.659
4.535 -2.56 2.694
4.624 -2.556 2.73
4.712 -2.551 2.766
4.803 -2.545 2.804
4.898 -2.539 2.843
5.002 -2.537 2.886
5.098 -2.529 2.925
5.198 -2.521 2.966
5.316 -2.519 3.015
5.392 -2.496 3.046
5.506 -2.489 3.093
5.526 -2.438 3.101
5.519 -2.375 3.098
5.519 -2.316 3.098
5.512 -2.254 3.096
5.508 -2.193 3.094
5.5 -2.132 3.091
5.498 -2.074 3.09
5.487 -2.012 3.085
5.493 -1.957 3.088
5.484 -1.898 3.084
5.475 -1.839 3.08
5.472 -1.782 3.079
5.463 -1.723 3.075
5.465 -1.669 3.076
5.46 -1.613 3.074
5.458 -1.557 3.073
5.455 -1.502 3.072
5.442 -1.445 3.067
3.394 -0.86 2.224
3.41 -0.831 2.23
3.435 -0.804 2.241
3.489 -0.783 2.263
3.595 -0.773 2.307
3.693 -0.759 2.347
5.494 -1.084 3.088
5.378 -1.01 3.04
5.369 -0.957 3.037
5.373 -0.906 3.038
5.374 -0.855 3.039
5.37 -0.803 3.037
3.754 -0.523 2.372
3.776 -0.49 2.381
4.049 -0.489 2.493
5.365 -0.6 3.035
5.371 -0.551 3.038
5.364 -0.5 3.035
5.38 -0.451 3.041
5.363 -0.399 3.034
5.377 -0.35 3.04
5.36 -0.299 3.033
5.377 -0.25 3.04
5.356 -0.199 3.031
5.383 -0.15 3.042
5.362 -0.1 3.034
5.38 -0.05 3.041
5.36 -0 3.033
5.373 0.05 3.038
5.363 0.1 3.034
5.376 0.15 3.04
5.359 0.199 3.033
5.379 0.25 3.041
5.495 0.307 3.088
5.332 0.347 3.021
5.339 0.397 3.024
5.353 0.448 3.03
5.357 0.499 3.032
5.352 0.549 3.03
5.347 0.598 3.028
5.348 0.649 3.028
4.049 0.527 2.493
3.903 0.544 2.433
3.882 0.577 2.425
3.873 0.613 2.421
3.878 0.65 2.423
3.87 0.685 2.42
3.889 0.726 2.427
5.321 1.05 3.017
5.32 1.101 3.016
5.32 1.152 3.016
1.888 0.415 1.604
5.31 1.253 3.012
5.309 1.305 3.012
5.307 1.356 3.011
5.296 1.406 3.007
5.029 1.383 2.897
2.057 0.572 1.674
1.712 0.489 1.532
1.771 0.523 1.556
4.155 1.304 2.537
1.715 0.539 1.533
1.7 0.551 1.527
3.603 1.237 2.31
2.21 0.77 1.737
1.52 0.535 1.452
3.311 1.236 2.19
2.655 1.012 1.92
2.588 1.013 1.892
2.08 0.829 1.683
1.586 0.64 1.48
2.354 0.992 1.796
1.661 0.707 1.511
1.793 0.785 1.565
2.409 1.094 1.819
2.53 1.178 1.868
1.798 0.845 1.567
1.783 0.857 1.561
1.785 0.878 1.562
1.843 0.928 1.586
2.082 1.078 1.684
2.217 1.176 1.739
2.218 1.202 1.74
2.281 1.264 1.766
2.289 1.295 1.769
2.239 1.293 1.749
2.193 1.291 1.73
2.144 1.287 1.71
2.096 1.283 1.69
2.057 1.282 1.673
2.01 1.277 1.654
1.972 1.277 1.639
1.928 1.271 1.621
1.897 1.274 1.608
1.853 1.267 1.59
1.822 1.269 1.577
1.785 1.265 1.562
1.746 1.259 1.545
1.715 1.259 1.533
1.683 1.257 1.52
1.652 1.256 1.507
1.627 1.258 1.496
1.588 1.249 1.481
1.564 1.252 1.471
1.533 1.248 1.458
1.509 1.249 1.448
1.478 1.244 1.435
1.454 1.244 1.426
1.43 1.244 1.416
1.408 1.245 1.406
1.377 1.238 1.394
1.354 1.238 1.384
1.332 1.238 1.375
1.31 1.237 1.366
1.286 1.235 1.356
1.264 1.234 1.347
1.242 1.231 1.338
1.219 1.229 1.329
1.204 1.233 1.322
1.181 1.23 1.313
1.157 1.224 1.303
1.141 1.226 1.296
1.119 1.222 1.287
1.103 1.225 1.281
1.083 1.222 1.273
1.066 1.223 1.266
1.052 1.227 1.26
1.03 1.221 1.251
1.009 1.215 1.242
0.993 1.215 1.236
0.979 1.218 1.23
0.963 1.218 1.223
0.943 1.212 1.215
0.928 1.213 1.209
0.913 1.213 1.203
0.898 1.214 1.197
0.879 1.207 1.189
0.865 1.207 1.183
0.842 1.195 1.174
0.632 0.88 1.087
0.579 0.811 1.065
0.564 0.801 1.059
0.553 0.799 1.055
0.543 0.795 1.05
0.531 0.79 1.046
0.52 0.787 1.041
0.51 0.784 1.037
0.5 0.781 1.033
0.49 0.777 1.029
0.479 0.772 1.024
0.468 0.766 1.02
0.458 0.762 1.015
0.453 0.768 1.013
0.439 0.755 1.008
0.433 0.759 1.005
0.423 0.753 1.001
0.413 0.748 0.997
0.403 0.743 0.993
0.397 0.746 0.991
0.388 0.741 0.987
0.379 0.737 0.983
0.371 0.733 0.98
0.36 0.724 0.975
0.355 0.729 0.973
0.349 0.731 0.971
0.337 0.717 0.966
0.333 0.722 0.964
0.327 0.725 0.962
0.318 0.717 0.958
0.312 0.72 0.956
0.304 0.715 0.952
0.295 0.707 0.949
0.29 0.711 0.946
0.282 0.703 0.943
0.276 0.704 0.941
0.268 0.697 0.937
0.262 0.697 0.935
0.256 0.7 0.933
0.248 0.69 0.929
0.242 0.69 0.927
0.235 0.686 0.924
0.229 0.683 0.921
0.223 0.682 0.919
0.218 0.687 0.917
0.211 0.681 0.914
0.204 0.675 0.911
0.199 0.675 0.909
0.192 0.671 0.906
0.188 0.676 0.904
0.182 0.674 0.902
0.175 0.667 0.899
0.17 0.667 0.897
0.164 0.669 0.895
0.159 0.667 0.892
0.153 0.666 0.89
0.148 0.666 0.888
0.141 0.654 0.885
0.136 0.656 0.883
0.131 0.656 0.881
0.125 0.657 0.879
0.12 0.653 0.876
0.114 0.65 0.874
0.109 0.651 0.872
0.104 0.648 0.87
0.099 0.65 0.868
0.093 0.644 0.865
0.088 0.641 0.863
0.083 0.644 0.861
0.083 -1.997 0.861
0.099 -2.005 0.868
0.115 -2.013 0.875
0.143 -2.505 0.887
0.164 -2.515 0.895
0.184 -2.512 0.904
0.204 -2.511 0.912
0.225 -2.51 0.92
0.245 -2.511 0.929
0.265 -2.504 0.937
0.285 -2.509 0.946
0.306 -2.513 0.954
0.327 -2.513 0.963
0.346 -2.502 0.971
0.367 -2.506 0.98
0.388 -2.509 0.988
0.408 -2.507 0.997
0.429 -2.509 1.005
0.45 -2.51 1.014
0.47 -2.506 1.022
0.491 -2.505 1.031
0.51 -2.498 1.039
0.533 -2.507 1.049
0.552 -2.5 1.057
0.574 -2.501 1.066
0.595 -2.502 1.074
0.618 -2.51 1.084
0.643 -2.528 1.094
0.664 -2.523 1.103
0.685 -2.521 1.112
0.703 -2.509 1.119
0.727 -2.515 1.129
0.751 -2.524 1.139
0.772 -2.521 1.148
0.794 -2.518 1.157
0.817 -2.523 1.167
0.837 -2.513 1.175
0.862 -2.521 1.185
0.884 -2.519 1.194
0.907 -2.521 1.204
0.928 -2.516 1.213
0.953 -2.521 1.223
0.977 -2.523 1.233
1.001 -2.524 1.243
1.028 -2.534 1.254
1.049 -2.527 1.263
1.074 -2.528 1.273
1.1 -2.533 1.284
1.126 -2.537 1.295
1.158 -2.556 1.309
1.177 -2.542 1.316
1.201 -2.538 1.326
1.224 -2.535 1.336
1.247 -2.529 1.345
1.274 -2.532 1.357
1.302 -2.536 1.368
1.325 -2.531 1.378
1.352 -2.531 1.389
1.38 -2.534 1.401
1.409 -2.539 1.413
1.431 -2.529 1.422
1.465 -2.542 1.436
1.495 -2.546 1.449
1.525 -2.549 1.461
1.555 -2.551 1.473
1.583 -2.55 1.485
1.61 -2.546 1.496
1.735 -2.703 1.548
1.786 -2.734 1.569
1.817 -2.733 1.582
1.848 -2.73 1.595
1.879 -2.727 1.608
1.906 -2.718 1.62
1.943 -2.722 1.635
1.975 -2.719 1.648
2.006 -2.714 1.661
2.044 -2.718 1.677
2.075 -2.713 1.69
2.107 -2.708 1.703
2.146 -2.71 1.719
2.179 -2.706 1.733
2.218 -2.708 1.749
2.251 -2.701 1.763
2.287 -2.698 1.778
2.326 -2.698 1.794
2.364 -2.696 1.81
2.398 -2.688 1.824
2.442 -2.692 1.842
2.481 -2.69 1.858
2.521 -2.687 1.875
2.561 -2.683 1.892
2.608 -2.687 1.911
2.641 -2.676 1.925
2.682 -2.671 1.942
2.729 -2.672 1.961
2.77 -2.667 1.978
2.817 -2.666 1.998
2.829 -2.631 2.003
2.91 -2.662 2.037
2.957 -2.658 2.056
2.998 -2.65 2.074
2.743 -2.375 1.967
2.808 -2.39 1.994
2.828 -2.365 2.003
2.783 -2.285 1.984
2.913 -2.352 2.038
2.898 -2.297 2.032
2.923 -2.276 2.042
3.075 -2.355 2.105
2.939 -2.206 2.049
2.953 -2.176 2.054
3.178 -2.304 2.148
3.149 -2.24 2.136
3.71 -2.6 2.369
3.457 -2.373 2.264
3.848 -2.598 2.427
3.413 -2.254 2.246
3.675 -2.384 2.355
3.369 -2.138 2.228
3.416 -2.127 2.247
4.207 -2.578 2.576
4.279 -2.571 2.606
4.356 -2.565 2.638
4.442 -2.563 2.674
4.529 -2.56 2.71
4.618 -2.557 2.747
4.706 -2.551 2.783
4.796 -2.545 2.821
4.89 -2.539 2.86
4.988 -2.534 2.9
5.086 -2.526 2.941
5.19 -2.521 2.984
5.306 -2.519 3.033
5.379 -2.494 3.063
5.507 -2.493 3.116
5.518 -2.438 3.121
5.514 -2.377 3.119
5.513 -2.317 3.119
5.507 -2.255 3.116
5.497 -2.192 3.112
5.498 -2.135 3.113
5.492 -2.075 3.11
5.482 -2.013 3.106
5.487 -1.958 3.108
5.471 -1.896 3.101
5.477 -1.842 3.104
5.468 -1.783 3.1
5.474 -1.729 3.102
5.46 -1.67 3.097
5.463 -1.616 3.098
5.449 -1.557 3.092
5.448 -1.503 3.092
5.442 -1.447 3.089
3.432 -0.871 2.254
3.406 -0.831 2.243
3.43 -0.804 2.253
3.48 -0.782 2.274
3.588 -0.772 2.319
3.695 -0.76 2.363
5.504 -1.088 3.115
5.376 -1.011 3.062
5.402 -0.964 3.073
5.383 -0.909 3.065
5.37 -0.856 3.059
5.414 -0.811 3.078
3.782 -0.527 2.399
3.776 -0.491 2.397
5.386 -0.654 3.066
5.47 -0.613 3.101
5.409 -0.555 3.076
5.526 -0.516 3.124
5.493 -0.461 3.11
5.65 -0.422 3.176
5.508 -0.359 3.117
5.742 -0.321 3.214
5.46 -0.254 3.097
5.556 -0.207 3.137
5.412 -0.151 3.077
5.489 -0.102 3.109
5.347 -0.05 3.05
5.432 -0 3.085
5.339 0.05 3.047
5.389 0.1 3.067
5.341 0.149 3.047
5.347 0.199 3.05
5.352 0.249 3.052
5.347 0.299 3.05
5.333 0.348 3.044
5.326 0.397 3.041
5.352 0.449 3.052
5.354 0.499 3.053
5.354 0.55 3.053
5.341 0.599 3.047
5.34 0.649 3.047
4.071 0.53 2.52
3.902 0.545 2.449
3.875 0.577 2.438
3.854 0.61 2.429
3.852 0.647 2.428
3.854 0.683 2.429
3.864 0.722 2.433
5.322 1.051 3.039
5.311 1.101 3.035
5.312 1.152 3.035
1.874 0.412 1.606
5.305 1.254 3.032
5.3 1.304 3.03
5.299 1.356 3.03
5.296 1.408 3.029
4.976 1.371 2.896
2.051 0.571 1.68
1.715 0.49 1.54
1.768 0.523 1.562
4.124 1.297 2.542
1.702 0.536 1.535
1.697 0.551 1.532
3.596 1.236 2.322
2.199 0.767 1.741
1.52 0.536 1.459
1.521 0.551 1.459
2.576 0.983 1.898
2.665 1.045 1.935
2.089 0.834 1.695
1.585 0.641 1.486
2.026 0.85 1.669
1.657 0.706 1.516
1.785 0.783 1.569
2.408 1.095 1.828
2.049 0.948 1.679
1.796 0.846 1.574
1.787 0.861 1.57
1.78 0.877 1.567
1.834 0.925 1.589
2.208 1.148 1.745
2.215 1.177 1.748
2.213 1.201 1.747
2.287 1.269 1.778
2.284 1.295 1.777
2.243 1.297 1.76
2.181 1.286 1.734
2.133 1.282 1.714
2.1 1.287 1.7
2.046 1.277 1.677
2.007 1.277 1.661
1.969 1.277 1.646
1.925 1.271 1.627
1.886 1.268 1.611
1.85 1.267 1.596
1.82 1.269 1.584
1.782 1.265 1.568
1.743 1.259 1.552
1.712 1.258 1.539
1.68 1.257 1.525
1.65 1.256 1.513
1.625 1.258 1.502
1.593 1.255 1.489
1.562 1.252 1.476
1.53 1.247 1.463
1.506 1.249 1.453
1.476 1.244 1.441
1.452 1.244 1.431
1.429 1.245 1.421
1.405 1.245 1.411
1.375 1.238 1.399
1.352 1.238 1.389
1.33 1.238 1.38
1.307 1.236 1.37
1.284 1.235 1.361
1.262 1.234 1.352
1.24 1.231 1.342
1.218 1.229 1.333
1.202 1.234 1.327
1.18 1.231 1.318
1.157 1.226 1.308
1.139 1.226 1.3
1.117 1.222 1.291
1.101 1.225 1.285
1.08 1.221 1.276
1.065 1.224 1.27
1.049 1.225 1.263
1.027 1.219 1.254
1.007 1.215 1.246
0.992 1.215 1.239
0.977 1.218 1.233
0.962 1.219 1.227
0.942 1.212 1.219
0.927 1.213 1.212
0.911 1.212 1.206
0.896 1.213 1.2
0.877 1.207 1.192
0.863 1.207 1.186
0.832 1.18 1.173
0.636 0.888 1.091
0.573 0.801 1.065
0.564 0.802 1.061
0.553 0.8 1.057
0.542 0.796 1.052
0.53 0.79 1.047
0.519 0.787 1.043
0.509 0.784 1.039
0.499 0.78 1.034
0.488 0.776 1.03
0.481 0.778 1.027
0.468 0.768 1.022
0.457 0.762 1.017
0.447 0.758 1.013
0.438 0.756 1.009
0.432 0.758 1.007
0.422 0.754 1.003
0.412 0.748 0.998
0.403 0.744 0.995
0.397 0.746 0.992
0.387 0.74 0.988
0.378 0.736 0.984
0.372 0.739 0.982
0.364 0.735 0.978
0.355 0.73 0.975
0.345 0.721 0.97
0.34 0.725 0.968
0.331 0.72 0.965
0.326 0.725 0.963
0.318 0.718 0.959
0.312 0.72 0.957
0.304 0.715 0.953
0.297 0.714 0.951
0.286 0.699 0.946
0.282 0.705 0.944
0.273 0.695 0.941
0.268 0.701 0.939
0.261 0.698 0.936
0.255 0.696 0.933
0.248 0.691 0.93
0.242 0.69 0.927
0.235 0.687 0.925
0.23 0.693 0.923
0.223 0.683 0.92
0.216 0.677 0.917
0.211 0.68 0.915
0.206 0.684 0.913
0.198 0.675 0.909
0.192 0.671 0.907
0.187 0.676 0.905
0.181 0.673 0.902
0.175 0.667 0.9
0.169 0.667 0.897
0.164 0.669 0.895
0.159 0.669 0.893
0.153 0.665 0.891
0.147 0.657 0.888
0.141 0.654 0.886
0.136 0.655 0.883
0.13 0.656 0.881
0.125 0.649 0.879
0.12 0.653 0.877
0.114 0.649 0.875
0.109 0.65 0.872
0.104 0.648 0.87
0.098 0.651 0.868
0.093 0.634 0.866
0.088 0.641 0.864
0.083 0.644 0.861
0.082 -2.005 0.862
0.098 -2.005 0.869
0.115 -2.022 0.876
0.143 -2.505 0.888
0.163 -2.516 0.896
0.183 -2.512 0.905
0.203 -2.512 0.914
0.224 -2.51 0.922
0.244 -2.506 0.931
0.264 -2.507 0.939
0.285 -2.512 0.948
0.305 -2.51 0.957
0.324 -2.501 0.965
0.345 -2.508 0.974
0.366 -2.512 0.983
0.386 -2.505 0.991
0.406 -2.502 1
0.428 -2.513 1.009
0.448 -2.509 1.017
0.467 -2.5 1.026
0.49 -2.512 1.035
0.509 -2.501 1.043
0.53 -2.504 1.052
0.552 -2.509 1.062
0.572 -2.504 1.07
0.594 -2.507 1.079
0.617 -2.515 1.089
0.642 -2.532 1.1
0.661 -2.52 1.108
0.683 -2.524 1.117
0.703 -2.518 1.126
0.727 -2.524 1.136
0.747 -2.518 1.144
0.77 -2.521 1.154
0.792 -2.524 1.164
0.814 -2.523 1.173
0.835 -2.516 1.182
0.858 -2.518 1.191
0.883 -2.525 1.202
0.905 -2.523 1.211
0.927 -2.522 1.221
0.95 -2.522 1.231
0.975 -2.525 1.241
0.998 -2.524 1.251
1.02 -2.522 1.26
1.046 -2.527 1.271
1.07 -2.527 1.281
1.092 -2.524 1.291
1.122 -2.537 1.303
1.156 -2.559 1.318
1.176 -2.549 1.327
1.197 -2.54 1.336
1.22 -2.535 1.345
1.246 -2.535 1.356
1.271 -2.534 1.367
1.299 -2.54 1.379
1.327 -2.543 1.39
1.351 -2.539 1.401
1.38 -2.543 1.413
1.41 -2.549 1.426
1.435 -2.546 1.437
1.468 -2.556 1.451
1.493 -2.551 1.461
1.527 -2.561 1.475
1.553 -2.558 1.487
1.606 -2.598 1.509
1.658 -2.637 1.531
1.747 -2.732 1.569
1.775 -2.726 1.581
1.806 -2.725 1.594
1.841 -2.729 1.609
1.873 -2.727 1.622
1.9 -2.717 1.634
1.937 -2.723 1.649
1.968 -2.719 1.663
2.005 -2.722 1.678
2.031 -2.71 1.69
2.068 -2.713 1.705
2.1 -2.708 1.719
2.139 -2.71 1.735
2.172 -2.706 1.749
2.204 -2.699 1.763
2.244 -2.701 1.78
2.279 -2.698 1.795
2.318 -2.698 1.811
2.356 -2.696 1.828
2.389 -2.688 1.842
2.428 -2.685 1.858
2.472 -2.689 1.877
2.513 -2.687 1.894
2.552 -2.683 1.911
2.594 -2.681 1.928
2.633 -2.676 1.945
2.674 -2.672 1.962
2.72 -2.672 1.982
2.768 -2.673 2.002
2.808 -2.666 2.019
2.77 -2.584 2.003
2.894 -2.656 2.056
2.879 -2.595 2.049
2.85 -2.523 2.037
2.744 -2.383 1.992
2.869 -2.451 2.045
2.856 -2.397 2.04
2.815 -2.32 2.022
2.93 -2.374 2.071
2.936 -2.336 2.074
2.912 -2.275 2.063
3.037 -2.332 2.117
2.937 -2.212 2.074
2.926 -2.164 2.07
3.132 -2.277 2.157
3.114 -2.222 2.149
3.706 -2.606 2.401
3.409 -2.347 2.274
3.814 -2.583 2.446
3.334 -2.207 2.242
3.346 -2.173 2.248
3.26 -2.075 2.211
4.114 -2.58 2.574
4.192 -2.578 2.607
4.27 -2.574 2.64
4.347 -2.568 2.673
4.417 -2.557 2.702
4.514 -2.56 2.744
4.604 -2.557 2.782
4.692 -2.551 2.819
4.784 -2.546 2.858
4.873 -2.539 2.896
4.972 -2.534 2.938
5.078 -2.531 2.983
5.172 -2.52 3.023
5.287 -2.518 3.072
5.363 -2.495 3.104
5.482 -2.49 3.155
5.513 -2.444 3.168
5.5 -2.378 3.162
5.501 -2.319 3.163
5.497 -2.258 3.161
5.495 -2.199 3.16
5.482 -2.135 3.155
5.483 -2.078 3.155
5.475 -2.017 3.152
5.464 -1.956 3.147
5.464 -1.9 3.147
5.462 -1.843 3.146
5.458 -1.786 3.144
5.448 -1.727 3.14
5.45 -1.672 3.141
5.444 -1.615 3.139
5.44 -1.56 3.137
5.434 -1.504 3.134
5.431 -1.449 3.133
5.428 -1.394 3.132
3.395 -0.831 2.269
3.414 -0.802 2.276
3.465 -0.781 2.298
3.569 -0.771 2.342
3.677 -0.759 2.388
5.486 -1.088 3.156
5.368 -1.013 3.106
5.375 -0.962 3.109
5.353 -0.907 3.1
5.358 -0.857 3.102
5.365 -0.807 3.105
3.735 -0.522 2.413
3.788 -0.494 2.435
5.362 -0.654 3.104
5.375 -0.604 3.109
5.36 -0.552 3.103
5.392 -0.505 3.117
5.346 -0.45 3.097
5.368 -0.402 3.106
5.348 -0.35 3.098
5.364 -0.301 3.105
5.337 -0.249 3.093
5.336 -0.199 3.093
5.342 -0.15 3.095
5.333 -0.1 3.091
5.34 -0.05 3.094
5.335 -0 3.092
5.33 0.05 3.09
5.326 0.099 3.089
5.33 0.149 3.09
5.326 0.199 3.088
5.328 0.249 3.089
5.326 0.299 3.089
5.323 0.348 3.087
5.322 0.398 3.087
5.341 0.45 3.095
5.344 0.5 3.096
5.331 0.549 3.091
5.338 0.6 3.093
5.336 0.65 3.093
5.319 0.699 3.085
3.892 0.545 2.48
3.864 0.577 2.468
3.848 0.611 2.461
3.84 0.647 2.457
3.838 0.683 2.457
3.861 0.724 2.466
5.304 1.051 3.079
5.305 1.103 3.079
5.303 1.154 3.079
1.866 0.412 1.619
1.87 0.43 1.621
1.994 0.48 1.674
1.989 0.497 1.671
5.287 1.41 3.072
4.928 1.362 2.92
2.037 0.569 1.692
1.709 0.49 1.553
1.764 0.524 1.576
1.759 0.54 1.574
1.701 0.538 1.549
1.695 0.552 1.547
3.575 1.233 2.345
2.191 0.767 1.757
1.517 0.537 1.471
1.518 0.552 1.472
2.547 0.975 1.909
2.658 1.046 1.955
2.082 0.834 1.711
1.578 0.64 1.497
1.782 0.746 1.584
1.659 0.709 1.531
1.785 0.785 1.585
2.404 1.097 1.848
1.935 0.896 1.649
1.791 0.846 1.588
1.781 0.86 1.583
1.781 0.88 1.583
1.539 0.772 1.481
2.201 1.148 1.762
2.193 1.168 1.758
2.213 1.205 1.767
2.29 1.275 1.799
2.283 1.298 1.797
2.228 1.292 1.773
1.676 0.979 1.539
1.815 1.087 1.598
2.085 1.282 1.712
2.047 1.282 1.696
2 1.277 1.676
1.963 1.277 1.66
1.919 1.271 1.642
1.88 1.268 1.625
1.843 1.266 1.61
1.814 1.269 1.597
1.775 1.264 1.581
1.746 1.265 1.568
1.707 1.259 1.552
1.675 1.257 1.538
1.645 1.256 1.526
1.619 1.258 1.515
1.589 1.256 1.502
1.557 1.252 1.488
1.525 1.247 1.475
1.502 1.249 1.465
1.471 1.244 1.452
1.447 1.244 1.441
1.423 1.244 1.431
1.392 1.237 1.418
1.37 1.238 1.409
1.348 1.238 1.399
1.325 1.237 1.39
1.303 1.236 1.38
1.28 1.235 1.371
1.258 1.234 1.361
1.235 1.231 1.352
1.214 1.229 1.342
1.198 1.233 1.336
1.176 1.23 1.326
1.151 1.223 1.316
1.135 1.226 1.309
1.113 1.222 1.3
1.097 1.225 1.293
1.076 1.221 1.284
1.062 1.225 1.278
1.045 1.225 1.271
1.025 1.221 1.263
1.003 1.213 1.253
0.989 1.216 1.247
0.972 1.215 1.24
0.959 1.219 1.234
0.938 1.212 1.226
0.924 1.213 1.219
0.908 1.212 1.213
0.893 1.213 1.206
0.879 1.214 1.2
0.859 1.206 1.192
0.82 1.166 1.175
0.627 0.877 1.093
0.571 0.801 1.069
0.562 0.803 1.066
0.546 0.791 1.059
0.54 0.795 1.056
0.528 0.79 1.051
0.517 0.787 1.047
0.507 0.784 1.043
0.496 0.779 1.038
0.486 0.775 1.033
0.475 0.771 1.029
0.466 0.768 1.025
0.456 0.763 1.021
0.45 0.768 1.018
0.44 0.764 1.014
0.43 0.758 1.01
0.421 0.754 1.006
0.411 0.748 1.002
0.401 0.743 0.998
0.391 0.737 0.993
0.386 0.742 0.991
0.377 0.736 0.987
0.368 0.732 0.983
0.359 0.726 0.98
0.353 0.729 0.977
0.347 0.73 0.975
0.335 0.716 0.97
0.33 0.72 0.967
0.322 0.715 0.964
0.316 0.717 0.961
0.31 0.72 0.959
0.303 0.715 0.956
0.294 0.707 0.952
0.288 0.711 0.95
0.28 0.702 0.946
0.272 0.696 0.943
0.267 0.699 0.94
0.261 0.699 0.938
0.254 0.695 0.935
0.247 0.691 0.932
0.241 0.691 0.929
0.234 0.687 0.927
0.228 0.687 0.924
0.222 0.684 0.921
0.217 0.689 0.919
0.21 0.68 0.916
0.203 0.673 0.913
0.198 0.675 0.911
0.192 0.679 0.909
0.186 0.675 0.906
0.18 0.672 0.904
0.174 0.666 0.901
0.168 0.666 0.899
0.163 0.668 0.896
0.158 0.668 0.894
0.152 0.665 0.892
0.146 0.657 0.889
0.141 0.664 0.887
0.135 0.654 0.884
0.13 0.656 0.882
0.125 0.657 0.88
0.119 0.652 0.878
0.114 0.651 0.875
0.108 0.65 0.873
0.103 0.649 0.871
0.098 0.65 0.869
0.093 0.646 0.866
0.087 0.642 0.864
0.082 0.644 0.862
0.082 -1.999 0.863
0.098 -2.008 0.87
0.114 -2.013 0.877
0.142 -2.505 0.889
0.162 -2.513 0.898
0.183 -2.524 0.906
0.202 -2.509 0.915
0.223 -2.507 0.924
0.243 -2.509 0.932
0.263 -2.507 0.941
0.284 -2.512 0.95
0.303 -2.506 0.959
0.325 -2.52 0.968
0.343 -2.502 0.976
0.365 -2.512 0.985
0.384 -2.502 0.994
0.405 -2.506 1.003
0.427 -2.515 1.012
0.447 -2.512 1.021
0.467 -2.509 1.03
0.488 -2.509 1.039
0.508 -2.506 1.047
0.53 -2.513 1.057
0.551 -2.514 1.066
0.571 -2.507 1.075
0.593 -2.511 1.084
0.614 -2.51 1.093
0.639 -2.528 1.104
0.66 -2.527 1.113
0.679 -2.517 1.121
0.702 -2.521 1.131
0.723 -2.521 1.141
0.746 -2.524 1.15
0.767 -2.521 1.16
0.789 -2.521 1.169
0.812 -2.523 1.179
0.833 -2.518 1.188
0.856 -2.521 1.198
0.88 -2.525 1.208
0.904 -2.53 1.219
0.924 -2.522 1.228
0.949 -2.529 1.239
0.973 -2.53 1.249
0.998 -2.535 1.26
1.019 -2.527 1.268
1.046 -2.536 1.28
1.069 -2.534 1.29
1.097 -2.544 1.302
1.123 -2.55 1.314
1.153 -2.561 1.327
1.173 -2.55 1.335
1.193 -2.54 1.344
1.219 -2.54 1.355
1.245 -2.543 1.367
1.271 -2.543 1.378
1.298 -2.546 1.389
1.323 -2.545 1.401
1.353 -2.552 1.414
1.379 -2.551 1.425
1.407 -2.552 1.437
1.437 -2.557 1.45
1.472 -2.572 1.465
1.498 -2.568 1.476
1.547 -2.607 1.498
1.574 -2.603 1.509
1.666 -2.711 1.549
1.699 -2.713 1.563
1.738 -2.728 1.58
1.769 -2.727 1.594
1.806 -2.734 1.61
1.831 -2.722 1.62
1.867 -2.728 1.636
1.898 -2.725 1.65
1.93 -2.723 1.664
1.962 -2.719 1.677
1.999 -2.723 1.693
2.025 -2.711 1.705
2.062 -2.713 1.72
2.094 -2.708 1.734
2.132 -2.711 1.751
2.164 -2.705 1.765
2.204 -2.708 1.782
2.237 -2.702 1.796
2.272 -2.698 1.811
2.311 -2.698 1.828
2.349 -2.697 1.845
2.382 -2.688 1.859
2.426 -2.693 1.878
2.465 -2.69 1.895
2.505 -2.687 1.912
2.544 -2.683 1.929
2.59 -2.687 1.949
2.624 -2.676 1.964
2.672 -2.678 1.985
2.712 -2.673 2.002
2.759 -2.673 2.022
2.799 -2.666 2.04
2.81 -2.631 2.045
2.808 -2.583 2.044
2.775 -2.507 2.029
2.804 -2.49 2.042
2.812 -2.453 2.045
2.806 -2.404 2.043
2.803 -2.359 2.041
2.827 -2.338 2.052
2.941 -2.391 2.101
2.918 -2.329 2.091
2.907 -2.278 2.087
2.964 -2.282 2.111
2.941 -2.222 2.101
2.919 -2.165 2.092
3.094 -2.256 2.168
3.138 -2.247 2.187
3.694 -2.606 2.428
3.379 -2.333 2.291
3.561 -2.416 2.37
3.338 -2.218 2.273
3.277 -2.134 2.247
3.308 -2.113 2.26
4.111 -2.586 2.608
4.181 -2.579 2.638
4.256 -2.574 2.671
4.323 -2.562 2.7
4.391 -2.55 2.73
4.501 -2.56 2.777
4.588 -2.557 2.815
4.681 -2.554 2.855
4.768 -2.546 2.893
4.867 -2.543 2.936
4.958 -2.535 2.975
5.06 -2.53 3.019
5.158 -2.521 3.062
5.267 -2.516 3.109
5.35 -2.497 3.145
5.465 -2.49 3.195
5.498 -2.445 3.209
5.49 -2.381 3.206
5.489 -2.321 3.205
5.482 -2.259 3.202
5.48 -2.2 3.201
5.474 -2.139 3.198
5.465 -2.078 3.195
5.458 -2.017 3.191
5.464 -1.963 3.194
5.449 -1.9 3.188
5.45 -1.845 3.188
5.441 -1.786 3.184
5.435 -1.728 3.182
5.435 -1.673 3.182
5.437 -1.618 3.182
5.433 -1.563 3.181
5.43 -1.507 3.179
5.418 -1.45 3.174
5.429 -1.399 3.179
3.392 -0.833 2.297
3.405 -0.803 2.302
3.456 -0.782 2.324
3.569 -0.773 2.373
3.681 -0.762 2.422
5.476 -1.09 3.2
5.355 -1.013 3.147
5.347 -0.96 3.144
5.345 -0.908 3.143
5.345 -0.857 3.143
5.348 -0.807 3.144
5.341 -0.755 3.141
5.341 -0.704 3.141
5.343 -0.653 3.142
5.345 -0.603 3.143
5.336 -0.551 3.139
5.326 -0.5 3.135
5.335 -0.451 3.139
5.335 -0.4 3.138
5.332 -0.35 3.137
5.331 -0.3 3.136
5.325 -0.25 3.134
5.325 -0.2 3.134
5.328 -0.15 3.135
5.33 -0.1 3.136
5.322 -0.05 3.133
5.323 -0 3.133
5.323 0.05 3.133
5.325 0.1 3.134
5.313 0.149 3.129
5.316 0.199 3.13
5.312 0.249 3.128
5.313 0.299 3.129
5.306 0.348 3.126
5.306 0.398 3.126
5.331 0.45 3.137
5.32 0.499 3.132
5.327 0.55 3.135
5.321 0.6 3.132
5.324 0.651 3.134
5.316 0.7 3.13
3.883 0.545 2.509
3.85 0.577 2.495
3.834 0.611 2.488
3.829 0.647 2.486
3.833 0.684 2.488
3.855 0.725 2.497
5.298 1.054 3.122
5.288 1.103 3.118
5.287 1.154 3.118
1.871 0.414 1.638
1.869 0.432 1.637
5.282 1.308 3.115
1.983 0.497 1.686
5.271 1.41 3.111
4.9 1.358 2.95
2.034 0.57 1.708
1.697 0.488 1.563
1.768 0.527 1.593
1.775 0.547 1.596
1.706 0.541 1.566
1.69 0.553 1.559
3.57 1.235 2.374
2.172 0.762 1.768
1.522 0.54 1.487
1.516 0.553 1.484
2.52 0.967 1.919
2.632 1.039 1.967
2.071 0.832 1.724
1.573 0.64 1.509
1.695 0.71 1.561
1.653 0.709 1.543
1.798 0.794 1.606
2.404 1.101 1.869
1.877 0.871 1.641
1.791 0.849 1.603
1.779 0.863 1.598
1.776 0.88 1.596
1.49 0.749 1.473
2.178 1.139 1.771
2.116 1.13 1.744
2.204 1.204 1.782
2.3 1.285 1.824
2.276 1.298 1.813
2.221 1.292 1.789
1.614 0.944 1.526
1.733 1.039 1.578
2.08 1.283 1.728
2.032 1.277 1.707
1.994 1.277 1.691
1.956 1.277 1.675
1.913 1.271 1.656
1.874 1.268 1.639
1.838 1.267 1.623
1.808 1.269 1.61
1.77 1.265 1.594
1.739 1.265 1.581
1.701 1.258 1.564
1.676 1.263 1.553
1.639 1.256 1.537
1.614 1.258 1.527
1.583 1.255 1.513
1.551 1.251 1.499
1.521 1.248 1.486
1.497 1.249 1.476
1.466 1.244 1.462
1.443 1.244 1.452
1.419 1.244 1.442
1.396 1.245 1.432
1.366 1.238 1.419
1.343 1.238 1.409
1.321 1.238 1.4
1.299 1.236 1.39
1.27 1.229 1.377
1.254 1.234 1.371
1.232 1.231 1.361
1.21 1.229 1.351
1.193 1.232 1.344
1.172 1.23 1.335
1.15 1.227 1.325
1.131 1.226 1.317
1.11 1.222 1.308
1.094 1.225 1.301
1.073 1.221 1.292
1.057 1.223 1.285
1.036 1.217 1.276
1.02 1.219 1.269
1.001 1.215 1.261
0.984 1.214 1.253
0.969 1.215 1.247
0.955 1.218 1.241
0.935 1.211 1.232
0.92 1.212 1.226
0.905 1.212 1.219
0.889 1.211 1.212
0.876 1.213 1.207
0.857 1.207 1.199
0.813 1.159 1.179
0.624 0.875 1.097
0.568 0.801 1.073
0.559 0.801 1.069
0.548 0.798 1.065
0.538 0.795 1.06
0.526 0.79 1.055
0.516 0.787 1.051
0.506 0.784 1.046
0.495 0.779 1.042
0.484 0.775 1.037
0.474 0.771 1.033
0.464 0.766 1.028
0.454 0.763 1.024
0.445 0.759 1.02
0.435 0.756 1.016
0.429 0.758 1.013
0.419 0.753 1.009
0.409 0.748 1.005
0.4 0.743 1
0.394 0.746 0.998
0.385 0.742 0.994
0.376 0.736 0.99
0.366 0.731 0.986
0.361 0.735 0.984
0.352 0.729 0.98
0.343 0.723 0.976
0.337 0.725 0.973
0.329 0.72 0.97
0.323 0.723 0.967
0.315 0.717 0.964
0.309 0.72 0.961
0.301 0.715 0.958
0.296 0.717 0.955
0.287 0.711 0.952
0.278 0.7 0.948
0.272 0.698 0.945
0.265 0.698 0.942
0.259 0.695 0.939
0.251 0.688 0.936
0.246 0.691 0.934
0.24 0.691 0.931
0.233 0.688 0.928
0.227 0.686 0.926
0.221 0.685 0.923
0.214 0.679 0.92
0.209 0.68 0.918
0.202 0.673 0.915
0.197 0.677 0.913
0.192 0.679 0.91
0.185 0.675 0.908
0.179 0.671 0.905
0.174 0.675 0.903
0.168 0.668 0.9
0.163 0.669 0.898
0.157 0.667 0.895
0.151 0.666 0.893
0.145 0.657 0.89
0.141 0.665 0.888
0.134 0.654 0.885
0.129 0.656 0.883
0.124 0.65 0.881
0.118 0.652 0.879
0.113 0.65 0.876
0.108 0.65 0.874
0.103 0.649 0.872
0.097 0.651 0.869
0.092 0.645 0.867
0.087 0.643 0.865
0.082 0.643 0.863
0.081 -1.996 0.863
0.097 -1.999 0.87
0.114 -2.022 0.878
0.141 -2.498 0.89
0.162 -2.516 0.899
0.181 -2.507 0.908
0.202 -2.512 0.916
0.222 -2.51 0.925
0.242 -2.509 0.934
0.263 -2.517 0.943
0.283 -2.515 0.952
0.303 -2.515 0.961
0.322 -2.508 0.97
0.342 -2.502 0.979
0.362 -2.503 0.988
0.383 -2.502 0.996
0.405 -2.516 1.006
0.425 -2.515 1.015
0.445 -2.512 1.024
0.465 -2.509 1.033
0.487 -2.512 1.042
0.507 -2.509 1.051
0.527 -2.507 1.06
0.548 -2.509 1.07
0.568 -2.504 1.078
0.592 -2.516 1.089
0.613 -2.519 1.098
0.638 -2.535 1.109
0.656 -2.521 1.117
0.678 -2.521 1.127
0.701 -2.527 1.137
0.723 -2.528 1.147
0.744 -2.527 1.156
0.768 -2.533 1.167
0.788 -2.527 1.176
0.811 -2.529 1.186
0.83 -2.518 1.194
0.855 -2.529 1.205
0.878 -2.528 1.215
0.901 -2.53 1.225
0.924 -2.532 1.236
0.947 -2.532 1.246
0.97 -2.532 1.256
0.998 -2.543 1.268
1.018 -2.536 1.277
1.041 -2.533 1.287
1.069 -2.543 1.3
1.092 -2.541 1.31
1.122 -2.554 1.323
1.151 -2.565 1.336
1.171 -2.556 1.345
1.194 -2.551 1.355
1.22 -2.552 1.366
1.244 -2.55 1.377
1.269 -2.548 1.388
1.296 -2.551 1.4
1.323 -2.553 1.412
1.353 -2.56 1.425
1.376 -2.554 1.435
1.415 -2.577 1.453
1.442 -2.577 1.465
1.493 -2.619 1.487
1.513 -2.606 1.496
1.603 -2.715 1.536
1.633 -2.715 1.549
1.675 -2.735 1.568
1.707 -2.737 1.582
1.733 -2.728 1.593
1.764 -2.727 1.607
1.795 -2.725 1.62
1.826 -2.724 1.634
1.861 -2.728 1.65
1.892 -2.725 1.663
1.919 -2.715 1.675
1.956 -2.719 1.692
1.986 -2.714 1.705
2.018 -2.71 1.719
2.056 -2.714 1.736
2.087 -2.708 1.75
2.125 -2.711 1.766
2.159 -2.706 1.781
2.196 -2.707 1.798
2.229 -2.701 1.812
2.265 -2.698 1.828
2.304 -2.698 1.845
2.342 -2.697 1.862
2.375 -2.689 1.877
2.419 -2.693 1.896
2.457 -2.69 1.913
2.496 -2.687 1.931
2.536 -2.683 1.948
2.577 -2.681 1.966
2.616 -2.676 1.983
2.656 -2.671 2.001
2.703 -2.673 2.022
2.75 -2.673 2.043
2.789 -2.666 2.06
2.837 -2.666 2.081
2.823 -2.606 2.075
2.864 -2.598 2.093
2.846 -2.536 2.085
3.001 -2.631 2.154
2.854 -2.454 2.088
2.848 -2.406 2.086
3.021 -2.511 2.162
3.102 -2.534 2.198
2.952 -2.365 2.132
2.901 -2.281 2.109
2.953 -2.281 2.132
2.993 -2.271 2.15
2.918 -2.172 2.117
3.072 -2.247 2.185
3.305 -2.377 2.288
3.681 -2.605 2.454
3.355 -2.325 2.31
3.416 -2.323 2.337
3.323 -2.215 2.296
3.234 -2.112 2.257
3.399 -2.18 2.33
4.09 -2.582 2.635
4.166 -2.578 2.668
4.235 -2.569 2.699
4.307 -2.561 2.731
4.364 -2.542 2.756
4.487 -2.561 2.81
4.572 -2.556 2.848
4.659 -2.55 2.886
4.75 -2.545 2.927
4.851 -2.543 2.971
4.942 -2.535 3.011
5.041 -2.529 3.055
5.142 -2.521 3.1
5.25 -2.516 3.147
5.336 -2.498 3.185
5.447 -2.49 3.234
5.48 -2.445 3.249
5.484 -2.386 3.251
5.473 -2.322 3.246
5.467 -2.26 3.243
5.463 -2.2 3.241
5.464 -2.142 3.242
5.458 -2.082 3.239
5.448 -2.02 3.235
5.439 -1.96 3.231
5.436 -1.902 3.23
5.432 -1.845 3.228
5.428 -1.787 3.226
5.434 -1.733 3.229
5.423 -1.674 3.224
5.42 -1.619 3.222
5.416 -1.563 3.221
5.412 -1.507 3.219
5.408 -1.452 3.217
5.405 -1.397 3.216
3.374 -0.831 2.318
3.393 -0.803 2.327
3.451 -0.783 2.352
3.557 -0.773 2.399
3.667 -0.762 2.448
5.477 -1.093 3.247
5.339 -1.014 3.187
5.339 -0.962 3.187
5.33 -0.909 3.183
5.326 -0.857 3.181
5.338 -0.808 3.186
5.33 -0.755 3.183
5.331 -0.705 3.183
5.326 -0.653 3.181
5.326 -0.603 3.181
5.32 -0.551 3.178
5.325 -0.502 3.181
5.319 -0.451 3.178
5.324 -0.401 3.18
5.324 -0.351 3.18
5.31 -0.3 3.174
5.319 -0.25 3.178
5.314 -0.2 3.176
5.321 -0.15 3.179
5.306 -0.1 3.172
5.314 -0.05 3.176
5.307 -0 3.172
5.308 0.05 3.173
5.298 0.1 3.168
5.309 0.15 3.173
5.297 0.199 3.168
5.298 0.249 3.169
5.302 0.299 3.17
5.3 0.349 3.169
5.287 0.398 3.164
5.309 0.45 3.173
5.313 0.5 3.175
5.312 0.551 3.175
5.309 0.601 3.173
5.307 0.651 3.172
5.306 0.701 3.172
3.874 0.546 2.539
3.841 0.578 2.525
3.823 0.611 2.517
3.82 0.647 2.515
3.837 0.687 2.523
3.864 0.729 2.535
1.967 0.382 1.697
5.28 1.105 3.161
5.28 1.156 3.161
5.28 1.208 3.161
1.871 0.434 1.654
5.267 1.309 3.155
5.266 1.361 3.154
5.259 1.411 3.151
4.876 1.356 2.982
2.037 0.573 1.728
1.699 0.49 1.578
1.774 0.531 1.611
1.77 0.547 1.609
1.696 0.54 1.577
1.693 0.556 1.576
3.55 1.232 2.396
2.167 0.763 1.785
1.515 0.54 1.497
1.52 0.557 1.499
2.515 0.968 1.939
2.582 1.022 1.968
2.061 0.831 1.738
1.569 0.641 1.521
1.655 0.695 1.558
1.646 0.709 1.555
1.796 0.796 1.621
2.404 1.104 1.89
1.841 0.857 1.641
1.784 0.848 1.616
1.77 0.861 1.61
1.753 0.872 1.602
1.441 0.725 1.464
2.1 1.1 1.755
2.039 1.09 1.728
2.201 1.206 1.8
2.295 1.287 1.842
2.261 1.294 1.826
1.821 1.054 1.632
1.553 0.91 1.513
2.032 1.232 1.725
2.073 1.283 1.743
2.027 1.278 1.723
1.987 1.277 1.706
1.95 1.277 1.689
1.906 1.271 1.67
1.869 1.27 1.653
1.832 1.267 1.637
1.802 1.269 1.624
1.765 1.265 1.607
1.726 1.259 1.59
1.695 1.258 1.576
1.664 1.257 1.563
1.634 1.256 1.55
1.602 1.252 1.535
1.578 1.255 1.525
1.547 1.252 1.511
1.516 1.248 1.497
1.485 1.243 1.484
1.462 1.244 1.473
1.438 1.244 1.463
1.414 1.244 1.452
1.383 1.237 1.439
1.361 1.238 1.429
1.339 1.238 1.419
1.316 1.237 1.409
1.294 1.236 1.399
1.266 1.229 1.387
1.25 1.234 1.38
1.228 1.231 1.37
1.205 1.229 1.36
1.183 1.226 1.35
1.168 1.23 1.343
1.145 1.226 1.334
1.127 1.226 1.326
1.111 1.229 1.319
1.09 1.225 1.309
1.07 1.222 1.3
1.053 1.223 1.293
1.032 1.217 1.284
1.017 1.219 1.277
0.996 1.213 1.267
0.982 1.215 1.261
0.966 1.215 1.254
0.952 1.218 1.248
0.932 1.211 1.239
0.917 1.212 1.233
0.901 1.211 1.225
0.887 1.213 1.219
0.873 1.213 1.213
0.854 1.207 1.205
0.795 1.136 1.179
0.615 0.866 1.099
0.566 0.8 1.077
0.558 0.802 1.074
0.546 0.797 1.069
0.535 0.794 1.064
0.524 0.79 1.059
0.51 0.779 1.053
0.504 0.784 1.05
0.493 0.779 1.045
0.484 0.777 1.041
0.472 0.771 1.036
0.462 0.766 1.031
0.452 0.762 1.027
0.447 0.768 1.025
0.437 0.763 1.02
0.427 0.759 1.016
0.417 0.753 1.012
0.408 0.748 1.008
0.398 0.743 1.003
0.389 0.737 0.999
0.383 0.742 0.997
0.374 0.736 0.993
0.365 0.731 0.989
0.36 0.734 0.986
0.351 0.729 0.982
0.345 0.731 0.98
0.336 0.724 0.976
0.328 0.721 0.972
0.322 0.724 0.97
0.314 0.717 0.966
0.308 0.72 0.963
0.298 0.707 0.959
0.292 0.709 0.956
0.283 0.699 0.952
0.277 0.699 0.95
0.27 0.697 0.947
0.264 0.698 0.944
0.259 0.7 0.942
0.252 0.696 0.939
0.245 0.691 0.936
0.239 0.692 0.933
0.232 0.687 0.93
0.226 0.687 0.927
0.221 0.687 0.925
0.215 0.689 0.922
0.208 0.682 0.919
0.203 0.683 0.917
0.196 0.678 0.914
0.191 0.678 0.912
0.184 0.674 0.909
0.18 0.681 0.907
0.174 0.675 0.904
0.167 0.668 0.901
0.162 0.668 0.899
0.156 0.667 0.896
0.151 0.666 0.894
0.145 0.666 0.892
0.14 0.665 0.889
0.134 0.656 0.887
0.128 0.653 0.884
0.123 0.658 0.882
0.118 0.661 0.88
0.113 0.65 0.877
0.107 0.65 0.875
0.102 0.65 0.872
0.097 0.651 0.87
0.092 0.644 0.868
0.086 0.642 0.866
0.081 0.642 0.863
0.081 -1.999 0.864
0.097 -2.005 0.871
0.113 -2.012 0.878
0.141 -2.498 0.89
0.161 -2.516 0.899
0.181 -2.512 0.908
0.201 -2.512 0.917
0.221 -2.507 0.926
0.241 -2.506 0.935
0.262 -2.51 0.944
0.282 -2.515 0.953
0.302 -2.515 0.962
0.322 -2.513 0.971
0.343 -2.515 0.98
0.362 -2.508 0.989
0.383 -2.509 0.998
0.403 -2.509 1.007
0.423 -2.506 1.016
0.444 -2.509 1.026
0.465 -2.514 1.035
0.485 -2.505 1.044
0.506 -2.511 1.053
0.526 -2.504 1.062
0.547 -2.509 1.072
0.568 -2.507 1.081
0.589 -2.508 1.09
0.612 -2.519 1.101
0.637 -2.535 1.112
0.656 -2.527 1.12
0.677 -2.524 1.13
0.699 -2.524 1.139
0.719 -2.521 1.149
0.744 -2.531 1.159
0.764 -2.525 1.168
0.789 -2.536 1.18
0.808 -2.524 1.188
0.83 -2.525 1.198
0.851 -2.519 1.207
0.876 -2.528 1.218
0.902 -2.539 1.23
0.924 -2.537 1.24
0.946 -2.534 1.25
0.97 -2.535 1.26
0.995 -2.54 1.271
1.019 -2.542 1.282
1.045 -2.548 1.294
1.067 -2.542 1.304
1.092 -2.547 1.315
1.12 -2.554 1.327
1.152 -2.573 1.342
1.173 -2.565 1.351
1.196 -2.56 1.361
1.222 -2.561 1.373
1.246 -2.56 1.384
1.272 -2.56 1.395
1.298 -2.561 1.407
1.328 -2.568 1.42
1.359 -2.577 1.434
1.384 -2.574 1.445
1.429 -2.608 1.465
1.458 -2.612 1.478
1.544 -2.72 1.517
1.569 -2.711 1.528
1.615 -2.741 1.548
1.646 -2.742 1.562
1.673 -2.737 1.574
1.704 -2.737 1.588
1.73 -2.728 1.6
1.761 -2.728 1.614
1.791 -2.725 1.627
1.827 -2.73 1.643
1.853 -2.721 1.655
1.889 -2.725 1.671
1.921 -2.723 1.685
1.952 -2.719 1.699
1.982 -2.713 1.712
2.02 -2.718 1.729
2.051 -2.713 1.743
2.084 -2.708 1.758
2.116 -2.704 1.772
2.16 -2.713 1.791
2.187 -2.7 1.804
2.228 -2.704 1.822
2.261 -2.698 1.837
2.299 -2.698 1.854
2.331 -2.689 1.868
2.37 -2.688 1.885
2.414 -2.693 1.905
2.453 -2.69 1.922
2.491 -2.686 1.94
2.532 -2.683 1.957
2.571 -2.68 1.975
2.611 -2.676 1.993
2.658 -2.678 2.014
2.698 -2.673 2.032
2.738 -2.667 2.05
2.785 -2.666 2.071
2.824 -2.658 2.088
2.878 -2.662 2.112
2.924 -2.659 2.133
2.971 -2.655 2.154
3.017 -2.651 2.174
2.861 -2.465 2.104
3.063 -2.597 2.195
3.094 -2.578 2.209
3.051 -2.496 2.19
2.914 -2.338 2.128
2.898 -2.282 2.121
2.956 -2.287 2.147
3.024 -2.299 2.177
2.966 -2.212 2.152
3.037 -2.225 2.183
3.576 -2.582 2.424
3.676 -2.606 2.468
3.361 -2.333 2.328
3.33 -2.267 2.314
3.319 -2.216 2.309
3.304 -2.163 2.303
4.012 -2.587 2.618
4.083 -2.581 2.65
4.165 -2.582 2.687
4.229 -2.57 2.715
4.3 -2.561 2.747
4.397 -2.566 2.79
4.471 -2.556 2.823
4.564 -2.556 2.865
4.65 -2.549 2.903
4.743 -2.546 2.945
4.836 -2.539 2.986
4.934 -2.535 3.03
5.038 -2.531 3.076
5.131 -2.52 3.118
5.241 -2.516 3.167
5.322 -2.496 3.203
5.438 -2.49 3.255
5.474 -2.446 3.271
5.474 -2.386 3.271
5.464 -2.322 3.267
5.463 -2.262 3.266
5.462 -2.203 3.266
5.454 -2.142 3.262
5.449 -2.082 3.26
5.438 -2.02 3.255
5.441 -1.964 3.256
5.44 -1.907 3.256
5.44 -1.85 3.256
5.431 -1.791 3.252
5.428 -1.734 3.251
5.421 -1.677 3.248
5.426 -1.623 3.25
5.416 -1.565 3.245
5.408 -1.509 3.242
5.41 -1.455 3.242
5.403 -1.399 3.24
3.376 -0.833 2.334
3.395 -0.805 2.343
3.443 -0.783 2.364
3.552 -0.773 2.413
5.381 -1.128 3.23
5.466 -1.093 3.268
5.331 -1.014 3.207
5.334 -0.963 3.208
5.329 -0.91 3.206
5.33 -0.859 3.207
5.325 -0.807 3.205
5.327 -0.756 3.205
5.321 -0.705 3.203
5.321 -0.654 3.203
5.314 -0.602 3.2
5.322 -0.553 3.203
5.315 -0.501 3.2
5.311 -0.451 3.198
5.312 -0.401 3.199
5.318 -0.351 3.202
5.308 -0.3 3.197
5.313 -0.25 3.199
5.304 -0.2 3.195
5.307 -0.15 3.197
5.305 -0.1 3.196
5.3 -0.05 3.194
5.297 -0 3.192
5.3 0.05 3.193
5.297 0.1 3.192
5.299 0.15 3.193
5.296 0.199 3.191
5.295 0.249 3.191
5.292 0.299 3.19
5.299 0.35 3.193
5.288 0.399 3.188
5.307 0.45 3.197
5.308 0.501 3.197
5.306 0.551 3.196
5.302 0.601 3.194
5.302 0.651 3.195
5.294 0.701 3.191
3.864 0.545 2.552
3.836 0.578 2.54
3.831 0.614 2.538
3.817 0.648 2.531
3.848 0.69 2.545
3.861 0.73 2.551
1.971 0.384 1.707
5.269 1.104 3.18
5.27 1.156 3.18
5.271 1.208 3.18
1.857 0.431 1.656
5.257 1.309 3.174
5.263 1.362 3.177
1.965 0.514 1.705
4.867 1.355 3
4.707 1.358 2.929
1.688 0.488 1.581
1.782 0.534 1.623
1.76 0.545 1.613
1.694 0.54 1.584
1.689 0.555 1.581
1.677 0.568 1.576
2.151 0.758 1.788
1.526 0.545 1.508
1.514 0.556 1.503
2.512 0.969 1.949
2.483 0.983 1.936
2.058 0.831 1.746
1.573 0.644 1.53
1.636 0.688 1.558
1.644 0.709 1.561
1.793 0.796 1.628
2.418 1.113 1.907
1.829 0.852 1.644
1.779 0.847 1.621
1.769 0.862 1.617
1.61 0.799 1.546
1.438 0.725 1.469
2.078 1.09 1.755
2.013 1.078 1.726
2.194 1.204 1.807
2.308 1.297 1.858
2.256 1.293 1.834
1.646 0.95 1.562
1.569 0.922 1.528
2.116 1.287 1.772
2.069 1.283 1.751
2.022 1.277 1.73
1.984 1.277 1.713
1.947 1.277 1.696
1.903 1.271 1.677
1.865 1.268 1.66
1.829 1.267 1.644
1.799 1.269 1.63
1.762 1.265 1.614
1.724 1.26 1.597
1.692 1.258 1.583
1.669 1.264 1.573
1.631 1.256 1.555
1.606 1.258 1.544
1.575 1.255 1.53
1.543 1.251 1.516
1.513 1.248 1.503
1.489 1.249 1.492
1.459 1.244 1.479
1.435 1.244 1.468
1.412 1.244 1.458
1.381 1.237 1.444
1.359 1.238 1.434
1.337 1.238 1.424
1.314 1.238 1.414
1.291 1.236 1.404
1.269 1.235 1.394
1.248 1.234 1.384
1.225 1.231 1.374
1.203 1.229 1.365
1.181 1.226 1.355
1.166 1.23 1.348
1.143 1.226 1.338
1.125 1.226 1.33
1.104 1.222 1.32
1.088 1.225 1.313
1.067 1.221 1.304
1.052 1.223 1.297
1.031 1.217 1.287
1.015 1.219 1.28
0.995 1.215 1.272
0.979 1.214 1.264
0.965 1.217 1.258
0.95 1.218 1.252
0.93 1.211 1.243
0.915 1.212 1.236
0.9 1.212 1.229
0.886 1.213 1.223
0.865 1.204 1.214
0.852 1.206 1.208
0.781 1.116 1.176
0.608 0.856 1.099
0.569 0.808 1.082
0.556 0.8 1.075
0.544 0.796 1.07
0.534 0.794 1.066
0.523 0.79 1.061
0.512 0.786 1.056
0.503 0.785 1.052
0.492 0.779 1.047
0.482 0.775 1.042
0.472 0.771 1.038
0.461 0.766 1.033
0.456 0.772 1.031
0.441 0.758 1.024
0.436 0.763 1.022
0.423 0.75 1.016
0.417 0.753 1.013
0.407 0.748 1.009
0.401 0.751 1.006
0.388 0.738 1.001
0.383 0.742 0.998
0.374 0.736 0.994
0.365 0.732 0.99
0.359 0.735 0.988
0.35 0.728 0.983
0.344 0.729 0.981
0.335 0.725 0.977
0.326 0.718 0.973
0.321 0.723 0.971
0.313 0.716 0.967
0.308 0.72 0.965
0.299 0.714 0.961
0.292 0.709 0.958
0.285 0.709 0.955
0.277 0.7 0.951
0.27 0.697 0.948
0.264 0.697 0.945
0.257 0.694 0.942
0.252 0.696 0.94
0.244 0.691 0.936
0.238 0.691 0.934
0.232 0.686 0.931
0.226 0.686 0.928
0.22 0.686 0.926
0.213 0.679 0.922
0.208 0.682 0.92
0.202 0.683 0.918
0.196 0.68 0.915
0.19 0.679 0.912
0.184 0.674 0.91
0.178 0.672 0.907
0.173 0.674 0.905
0.167 0.667 0.902
0.161 0.667 0.899
0.156 0.665 0.897
0.15 0.665 0.894
0.144 0.655 0.892
0.139 0.654 0.889
0.134 0.657 0.887
0.128 0.653 0.885
0.123 0.658 0.882
0.117 0.651 0.88
0.112 0.65 0.877
0.107 0.641 0.875
0.102 0.651 0.873
0.096 0.64 0.87
0.091 0.644 0.868
0.086 0.642 0.866
0.081 0.641 0.864
0.081 -1.999 0.864
0.097 -2.005 0.871
0.113 -2.015 0.879
0.14 -2.503 0.891
0.161 -2.516 0.901
0.181 -2.521 0.91
0.201 -2.515 0.919
0.22 -2.507 0.928
0.241 -2.516 0.937
0.26 -2.51 0.946
0.28 -2.502 0.955
0.301 -2.512 0.964
0.321 -2.51 0.973
0.341 -2.511 0.983
0.361 -2.505 0.992
0.381 -2.504 1.001
0.402 -2.515 1.011
0.422 -2.512 1.02
0.442 -2.509 1.029
0.464 -2.514 1.038
0.484 -2.513 1.048
0.505 -2.514 1.057
0.525 -2.51 1.066
0.547 -2.516 1.076
0.569 -2.523 1.086
0.587 -2.508 1.095
0.609 -2.515 1.105
0.635 -2.535 1.116
0.654 -2.527 1.125
0.675 -2.524 1.135
0.697 -2.529 1.145
0.719 -2.53 1.155
0.739 -2.521 1.164
0.762 -2.528 1.174
0.784 -2.529 1.185
0.809 -2.538 1.196
0.827 -2.522 1.204
0.851 -2.528 1.215
0.874 -2.53 1.225
0.898 -2.537 1.236
0.921 -2.537 1.247
0.945 -2.541 1.258
0.968 -2.541 1.268
0.992 -2.543 1.279
1.017 -2.545 1.29
1.042 -2.55 1.302
1.066 -2.551 1.313
1.09 -2.55 1.324
1.121 -2.567 1.338
1.15 -2.578 1.351
1.17 -2.568 1.36
1.195 -2.567 1.371
1.218 -2.562 1.382
1.247 -2.571 1.395
1.271 -2.568 1.406
1.304 -2.581 1.421
1.326 -2.574 1.431
1.372 -2.613 1.452
1.399 -2.613 1.464
1.482 -2.721 1.502
1.512 -2.724 1.516
1.549 -2.738 1.532
1.578 -2.738 1.546
1.61 -2.743 1.561
1.642 -2.745 1.575
1.667 -2.736 1.586
1.698 -2.737 1.6
1.728 -2.735 1.614
1.755 -2.727 1.626
1.79 -2.732 1.642
1.816 -2.723 1.654
1.847 -2.721 1.668
1.882 -2.725 1.684
1.913 -2.72 1.698
1.945 -2.719 1.713
1.982 -2.723 1.73
2.007 -2.709 1.741
2.039 -2.705 1.756
2.077 -2.708 1.773
2.114 -2.71 1.79
2.147 -2.706 1.805
2.179 -2.699 1.819
2.217 -2.7 1.837
2.253 -2.698 1.853
2.286 -2.691 1.868
2.33 -2.697 1.888
2.362 -2.688 1.903
2.406 -2.693 1.923
2.444 -2.689 1.94
2.484 -2.687 1.958
2.523 -2.683 1.976
2.563 -2.68 1.994
2.602 -2.675 2.012
2.649 -2.678 2.033
2.689 -2.673 2.052
2.735 -2.673 2.073
2.775 -2.666 2.091
2.822 -2.664 2.112
2.868 -2.662 2.133
2.913 -2.658 2.153
2.96 -2.655 2.175
3.006 -2.65 2.196
2.988 -2.587 2.188
3.011 -2.561 2.198
3.074 -2.57 2.227
3.056 -2.509 2.219
2.86 -2.301 2.129
2.889 -2.283 2.142
2.954 -2.294 2.172
2.99 -2.28 2.189
3.039 -2.276 2.211
3.057 -2.247 2.219
3.607 -2.613 2.469
3.67 -2.61 2.498
3.387 -2.359 2.369
3.281 -2.24 2.321
3.23 -2.162 2.298
3.905 -2.575 2.605
3.999 -2.587 2.648
4.06 -2.575 2.675
4.148 -2.58 2.716
4.221 -2.574 2.749
4.304 -2.572 2.787
4.381 -2.566 2.822
4.453 -2.554 2.855
4.547 -2.554 2.897
4.634 -2.549 2.937
4.732 -2.548 2.982
4.819 -2.539 3.021
4.916 -2.534 3.065
5.016 -2.529 3.111
5.114 -2.52 3.155
5.217 -2.512 3.202
5.307 -2.497 3.243
5.415 -2.488 3.292
5.464 -2.45 3.315
