# .PCD v0.7 - Point Cloud Data file format
VERSION 0.7
FIELDS x y z
SIZE 4 4 4
TYPE F F F
COUNT 1 1 1
WIDTH 2500
HEIGHT 1
VIEWPOINT 0 0 0 1 0 0 0
POINTS 2500
DATA ascii
3.588 -1.602 1.236
3.62 -1.579 1.24
3.659 -1.559 1.244
2.969 -1.227 1.165
3.729 -1.515 1.252
3.756 -1.488 1.255
2.901 -1.112 1.157
3.852 -1.451 1.266
3.948 -1.45 1.277
3.834 -1.369 1.264
3.85 -1.338 1.266
3.826 -1.293 1.263
3.798 -1.247 1.26
3.292 -1.045 1.202
3.746 -1.158 1.254
3.65 -1.093 1.243
3.703 -1.075 1.249
3.686 -1.036 1.247
3.658 -0.994 1.244
3.642 -0.956 1.242
3.591 -0.91 1.236
2.635 -0.637 1.127
2.638 -0.614 1.127
2.662 -0.596 1.13
2.693 -0.579 1.134
2.727 -0.563 1.138
2.748 -0.543 1.14
2.788 -0.527 1.145
2.823 -0.509 1.148
2.846 -0.488 1.151
2.888 -0.47 1.156
2.917 -0.45 1.159
2.95 -0.429 1.163
2.982 -0.408 1.167
3.024 -0.388 1.172
3.054 -0.365 1.175
3.092 -0.344 1.179
3.142 -0.322 1.185
3.244 -0.305 1.197
3.227 -0.276 1.195
3.242 -0.249 1.197
3.27 -0.223 1.2
3.27 -0.195 1.2
3.328 -0.17 1.206
3.359 -0.143 1.21
4.22 -0.145 1.309
4.11 -0.106 1.296
4.188 -0.072 1.305
4.216 -0.036 1.308
4.164 -0 1.302
4.146 0.036 1.3
4.135 0.071 1.299
3.558 0.091 1.233
4.095 0.141 1.294
4.139 0.178 1.299
4.017 0.207 1.285
4.172 0.251 1.303
3.982 0.273 1.281
4.189 0.324 1.305
4.219 0.363 1.308
4.292 0.407 1.317
4.294 0.444 1.317
4.319 0.484 1.32
4.109 0.496 1.296
4.236 0.549 1.31
4.164 0.575 1.302
4.255 0.626 1.312
4.139 0.645 1.299
4.549 0.75 1.346
4.483 0.778 1.339
4.552 0.831 1.347
4.471 0.856 1.337
4.562 0.915 1.348
4.534 0.949 1.344
4.578 1 1.349
4.191 0.952 1.305
4.646 1.099 1.357
4.485 1.101 1.339
4.599 1.172 1.352
4.516 1.192 1.342
4.701 1.285 1.364
0.71 0.177 0.906
0.725 0.187 0.908
0.724 0.193 0.908
0.723 0.199 0.908
0.72 0.204 0.908
0.739 0.216 0.91
1.463 0.474 0.993
1.46 0.486 0.992
1.457 0.498 0.992
1.452 0.51 0.992
1.447 0.522 0.991
1.453 0.538 0.992
1.457 0.553 0.992
1.508 0.589 0.998
1.632 0.656 1.012
1.623 0.668 1.011
1.544 0.649 1.002
1.527 0.656 1
1.595 0.703 1.008
1.596 0.72 1.008
1.589 0.733 1.007
1.584 0.746 1.007
1.568 0.755 1.005
1.563 0.768 1.004
1.556 0.781 1.003
1.55 0.794 1.003
1.543 0.807 1.002
1.537 0.82 1.001
1.529 0.833 1
1.521 0.845 0.999
1.513 0.857 0.998
1.504 0.868 0.997
1.495 0.88 0.996
1.496 0.897 0.996
1.487 0.909 0.995
1.478 0.92 0.994
1.468 0.931 0.993
1.466 0.948 0.993
1.458 0.96 0.992
1.456 0.976 0.992
1.459 0.996 0.992
2.309 1.648 1.09
2.137 1.548 1.07
1.995 1.467 1.054
1.427 1.046 0.989
1.736 1.313 1.024
1.458 1.109 0.992
1.325 1.019 0.977
1.364 1.071 0.981
1.403 1.123 0.986
1.335 1.084 0.978
1.275 1.05 0.971
1.217 1.015 0.965
1.167 0.988 0.959
1.119 0.96 0.953
1.078 0.938 0.949
1.033 0.911 0.944
0.999 0.892 0.94
0.961 0.87 0.935
0.926 0.849 0.931
0.894 0.831 0.928
0.864 0.814 0.924
0.837 0.799 0.921
0.813 0.787 0.918
0.791 0.776 0.916
0.764 0.759 0.913
0.738 0.743 0.91
0.713 0.727 0.907
0.696 0.719 0.905
0.679 0.711 0.903
0.657 0.696 0.9
0.536 0.556 0.887
0.524 0.551 0.885
0.519 0.554 0.885
0.516 0.56 0.884
0.512 0.565 0.884
0.55 0.629 0.888
0.541 0.628 0.887
0.531 0.625 0.886
0.516 0.614 0.884
0.505 0.61 0.883
0.49 0.598 0.881
0.477 0.59 0.88
0.468 0.586 0.879
0.457 0.58 0.877
0.447 0.576 0.876
0.437 0.571 0.875
0.423 0.557 0.874
0.418 0.561 0.873
0.409 0.556 0.872
0.399 0.55 0.871
0.39 0.545 0.87
0.381 0.539 0.869
0.373 0.534 0.868
0.364 0.527 0.867
0.359 0.531 0.866
0.35 0.524 0.865
0.342 0.518 0.864
0.334 0.512 0.863
0.329 0.514 0.863
0.321 0.508 0.862
0.313 0.501 0.861
0.305 0.494 0.86
0.3 0.495 0.86
0.293 0.49 0.859
0.289 0.491 0.858
0.281 0.484 0.857
0.276 0.484 0.857
0.268 0.475 0.856
0.264 0.477 0.855
0.257 0.468 0.855
0.253 0.469 0.854
0.245 0.461 0.853
0.241 0.462 0.853
0.234 0.454 0.852
0.231 0.455 0.852
0.224 0.448 0.851
0.222 0.457 0.851
0.216 0.449 0.85
0.21 0.441 0.849
0.206 0.442 0.849
0.202 0.442 0.848
0.198 0.44 0.848
0.188 0.415 0.847
0.182 0.403 0.846
0.178 0.404 0.846
0.175 0.404 0.845
0.17 0.399 0.845
0.167 0.402 0.844
0.163 0.397 0.844
0.158 0.392 0.843
0.155 0.396 0.843
0.152 0.394 0.843
0.147 0.39 0.842
0.143 0.384 0.842
0.14 0.386 0.841
0.137 0.389 0.841
0.133 0.385 0.84
0.131 0.397 0.84
0.128 0.402 0.84
0.124 0.4 0.839
0.121 0.397 0.839
0.117 0.391 0.839
0.114 0.404 0.838
0.111 0.407 0.838
0.107 0.413 0.837
0.104 0.423 0.837
0.1 0.431 0.837
0.097 0.437 0.836
0.096 -1.188 0.837
0.106 -1.178 0.838
0.116 -1.17 0.839
0.127 -1.169 0.841
0.136 -1.16 0.842
0.146 -1.159 0.843
0.156 -1.15 0.844
0.166 -1.15 0.845
0.175 -1.139 0.847
0.185 -1.138 0.848
0.194 -1.129 0.849
0.204 -1.128 0.85
0.214 -1.127 0.851
0.223 -1.119 0.852
0.232 -1.117 0.854
0.242 -1.116 0.855
0.251 -1.106 0.856
0.259 -1.095 0.857
0.268 -1.093 0.858
0.277 -1.091 0.859
0.285 -1.08 0.86
0.294 -1.078 0.861
0.304 -1.075 0.862
0.313 -1.072 0.863
0.32 -1.061 0.864
0.328 -1.055 0.865
0.338 -1.054 0.866
0.346 -1.048 0.867
0.355 -1.047 0.869
0.364 -1.045 0.87
0.37 -1.028 0.87
0.381 -1.035 0.872
0.39 -1.031 0.873
0.396 -1.02 0.874
0.405 -1.018 0.875
0.414 -1.016 0.876
0.42 -1.003 0.876
0.429 -1 0.878
0.437 -0.998 0.879
0.446 -0.995 0.88
0.452 -0.984 0.88
0.461 -0.982 0.881
0.469 -0.978 0.882
0.478 -0.976 0.884
0.483 -0.965 0.884
0.492 -0.963 0.885
0.501 -0.96 0.886
0.51 -0.958 0.887
0.515 -0.948 0.888
0.525 -0.947 0.889
0.534 -0.945 0.89
0.543 -0.943 0.892
0.548 -0.934 0.892
0.557 -0.932 0.893
0.566 -0.928 0.894
0.57 -0.916 0.895
0.581 -0.919 0.896
0.588 -0.913 0.897
0.596 -0.908 0.898
0.603 -0.903 0.899
0.613 -0.902 0.9
0.619 -0.894 0.901
0.63 -0.896 0.902
0.633 -0.882 0.902
0.645 -0.885 0.904
0.653 -0.881 0.905
0.658 -0.872 0.906
0.669 -0.872 0.907
0.674 -0.863 0.908
0.684 -0.861 0.909
0.69 -0.854 0.909
0.697 -0.848 0.91
0.704 -0.843 0.911
0.717 -0.846 0.913
0.723 -0.839 0.914
0.736 -0.839 0.915
0.743 -0.834 0.916
0.75 -0.828 0.917
0.757 -0.821 0.918
0.764 -0.816 0.918
0.771 -0.81 0.919
0.778 -0.804 0.92
0.79 -0.805 0.922
0.797 -0.798 0.923
0.804 -0.792 0.923
0.817 -0.793 0.925
0.824 -0.786 0.926
0.831 -0.78 0.927
0.837 -0.773 0.928
0.85 -0.772 0.929
0.857 -0.767 0.93
0.864 -0.76 0.931
0.872 -0.755 0.932
0.885 -0.754 0.933
0.89 -0.746 0.934
0.896 -0.738 0.935
0.909 -0.737 0.936
0.916 -0.731 0.937
0.929 -0.73 0.939
0.936 -0.722 0.939
0.941 -0.714 0.94
0.955 -0.713 0.942
0.959 -0.704 0.942
0.966 -0.697 0.943
0.978 -0.694 0.945
0.984 -0.686 0.945
0.997 -0.684 0.947
1.003 -0.676 0.948
1.016 -0.673 0.949
1.029 -0.67 0.951
1.034 -0.661 0.951
1.046 -0.658 0.953
1.052 -0.649 0.954
1.066 -0.646 0.955
1.07 -0.637 0.956
1.084 -0.634 0.958
1.09 -0.625 0.958
1.103 -0.622 0.96
1.116 -0.617 0.961
1.123 -0.609 0.962
1.134 -0.603 0.964
1.146 -0.598 0.965
1.146 -0.586 0.965
3.308 -1.757 1.229
3.337 -1.736 1.233
3.359 -1.711 1.236
3.405 -1.698 1.241
3.443 -1.681 1.246
3.474 -1.66 1.25
3.505 -1.638 1.253
3.546 -1.621 1.258
3.575 -1.597 1.262
3.615 -1.578 1.267
3.653 -1.558 1.271
2.969 -1.228 1.188
3.716 -1.51 1.279
3.756 -1.489 1.284
2.908 -1.116 1.181
4.033 -1.522 1.318
4.109 -1.511 1.327
3.865 -1.382 1.297
3.84 -1.336 1.294
3.818 -1.291 1.292
3.793 -1.246 1.289
3.405 -1.083 1.241
3.744 -1.159 1.283
3.54 -1.061 1.258
3.699 -1.075 1.277
3.672 -1.033 1.274
3.654 -0.994 1.272
3.628 -0.953 1.269
3.602 -0.913 1.265
2.621 -0.634 1.145
2.627 -0.612 1.146
2.659 -0.596 1.15
2.691 -0.58 1.154
2.715 -0.561 1.157
2.756 -0.545 1.162
2.779 -0.525 1.165
2.809 -0.506 1.168
2.844 -0.488 1.173
2.876 -0.469 1.177
2.915 -0.45 1.181
2.947 -0.429 1.185
2.979 -0.408 1.189
3.022 -0.388 1.194
3.05 -0.365 1.198
3.089 -0.344 1.203
3.132 -0.321 1.208
3.242 -0.305 1.221
3.225 -0.276 1.219
3.238 -0.249 1.221
3.265 -0.223 1.224
3.264 -0.195 1.224
3.315 -0.17 1.23
3.355 -0.143 1.235
4.296 -0.148 1.35
4.174 -0.108 1.335
4.221 -0.073 1.341
4.345 -0.037 1.356
4.239 -0 1.343
4.34 0.037 1.355
4.245 0.073 1.344
3.668 0.094 1.273
4.264 0.147 1.346
4.227 0.182 1.342
4.056 0.209 1.321
4.235 0.255 1.343
4.166 0.287 1.334
4.31 0.334 1.352
4.303 0.371 1.351
4.358 0.413 1.358
4.374 0.453 1.36
4.403 0.494 1.363
4.344 0.525 1.356
4.732 0.615 1.403
4.675 0.648 1.396
4.826 0.712 1.415
4.699 0.734 1.399
4.727 0.781 1.403
4.633 0.806 1.391
4.756 0.87 1.406
4.669 0.895 1.396
4.828 0.97 1.415
4.694 0.984 1.399
4.693 1.027 1.399
4.638 1.056 1.392
4.788 1.135 1.41
4.658 1.146 1.394
4.709 1.202 1.401
4.671 1.235 1.396
4.783 1.309 1.41
0.725 0.182 0.914
0.722 0.187 0.913
0.723 0.193 0.913
0.719 0.198 0.913
0.719 0.204 0.913
0.739 0.217 0.915
1.451 0.47 1.002
1.466 0.489 1.004
1.455 0.498 1.003
1.457 0.513 1.003
1.453 0.525 1.003
1.454 0.539 1.003
1.458 0.554 1.003
1.56 0.611 1.016
1.626 0.654 1.024
1.622 0.668 1.023
1.549 0.652 1.014
1.529 0.658 1.012
1.593 0.703 1.02
1.594 0.72 1.02
1.588 0.733 1.019
1.574 0.742 1.017
1.568 0.755 1.017
1.562 0.769 1.016
1.555 0.782 1.015
1.541 0.79 1.013
1.534 0.803 1.013
1.527 0.815 1.012
1.52 0.828 1.011
1.513 0.84 1.01
1.512 0.857 1.01
1.503 0.868 1.009
1.494 0.88 1.008
1.487 0.892 1.007
1.486 0.909 1.007
1.478 0.921 1.006
1.466 0.931 1.004
1.466 0.949 1.004
1.457 0.96 1.003
1.447 0.97 1.002
1.45 0.991 1.002
2.313 1.652 1.108
2.144 1.554 1.087
1.993 1.467 1.069
1.418 1.04 0.998
1.756 1.33 1.04
1.472 1.123 1.005
1.323 1.019 0.987
1.353 1.063 0.991
1.407 1.128 0.997
1.334 1.084 0.988
1.272 1.048 0.981
1.223 1.022 0.975
1.166 0.988 0.968
1.118 0.96 0.962
1.077 0.938 0.957
1.031 0.909 0.951
0.997 0.892 0.947
0.96 0.87 0.942
0.932 0.857 0.939
0.892 0.83 0.934
0.867 0.818 0.931
0.836 0.799 0.927
0.812 0.787 0.924
0.788 0.774 0.922
0.763 0.759 0.918
0.738 0.743 0.915
0.713 0.727 0.912
0.695 0.719 0.91
0.672 0.704 0.907
0.657 0.698 0.905
0.556 0.582 0.893
0.528 0.556 0.89
0.519 0.555 0.889
0.513 0.557 0.888
0.508 0.561 0.887
0.529 0.6 0.89
0.541 0.628 0.891
0.531 0.626 0.89
0.516 0.615 0.888
0.504 0.609 0.887
0.488 0.597 0.885
0.476 0.59 0.883
0.466 0.585 0.882
0.457 0.581 0.881
0.446 0.576 0.88
0.437 0.571 0.879
0.427 0.566 0.877
0.417 0.56 0.876
0.403 0.547 0.874
0.399 0.55 0.874
0.39 0.545 0.873
0.38 0.539 0.872
0.373 0.535 0.871
0.362 0.526 0.869
0.354 0.522 0.868
0.35 0.524 0.868
0.342 0.518 0.867
0.333 0.512 0.866
0.329 0.514 0.865
0.321 0.508 0.864
0.312 0.501 0.863
0.308 0.502 0.863
0.3 0.496 0.862
0.293 0.49 0.861
0.285 0.483 0.86
0.281 0.485 0.86
0.276 0.484 0.859
0.268 0.476 0.858
0.261 0.468 0.857
0.256 0.468 0.856
0.252 0.469 0.856
0.245 0.462 0.855
0.241 0.462 0.855
0.237 0.463 0.854
0.23 0.455 0.853
0.224 0.448 0.853
0.22 0.449 0.852
0.216 0.449 0.852
0.212 0.449 0.851
0.206 0.442 0.85
0.202 0.443 0.85
0.195 0.432 0.849
0.19 0.425 0.848
0.181 0.402 0.847
0.178 0.406 0.847
0.174 0.404 0.846
0.169 0.396 0.846
0.165 0.393 0.845
0.162 0.396 0.845
0.158 0.392 0.844
0.155 0.396 0.844
0.152 0.397 0.844
0.147 0.389 0.843
0.143 0.384 0.843
0.14 0.385 0.842
0.137 0.389 0.842
0.133 0.386 0.841
0.13 0.392 0.841
0.127 0.399 0.841
0.124 0.4 0.84
0.121 0.406 0.84
0.117 0.393 0.839
0.113 0.396 0.839
0.11 0.406 0.839
0.107 0.411 0.838
0.103 0.414 0.838
0.1 0.421 0.837
0.096 0.435 0.837
0.096 -1.178 0.837
0.106 -1.177 0.839
0.116 -1.17 0.84
0.126 -1.169 0.841
0.137 -1.169 0.842
0.146 -1.159 0.844
0.156 -1.15 0.845
0.166 -1.151 0.846
0.175 -1.139 0.847
0.184 -1.13 0.848
0.195 -1.138 0.85
0.204 -1.128 0.851
0.213 -1.12 0.852
0.223 -1.119 0.853
0.232 -1.118 0.854
0.241 -1.106 0.855
0.25 -1.106 0.857
0.258 -1.095 0.858
0.268 -1.093 0.859
0.276 -1.083 0.86
0.285 -1.08 0.861
0.294 -1.077 0.862
0.303 -1.074 0.863
0.311 -1.063 0.864
0.32 -1.061 0.865
0.329 -1.058 0.867
0.336 -1.046 0.867
0.346 -1.048 0.869
0.355 -1.046 0.87
0.362 -1.037 0.871
0.372 -1.037 0.872
0.381 -1.035 0.873
0.387 -1.023 0.874
0.399 -1.03 0.875
0.405 -1.018 0.876
0.414 -1.016 0.877
0.419 -1.002 0.878
0.428 -1 0.879
0.437 -0.998 0.88
0.446 -0.994 0.881
0.451 -0.984 0.882
0.463 -0.99 0.883
0.469 -0.978 0.884
0.478 -0.977 0.885
0.483 -0.966 0.886
0.492 -0.964 0.887
0.501 -0.961 0.888
0.51 -0.958 0.889
0.515 -0.947 0.89
0.524 -0.947 0.891
0.534 -0.946 0.892
0.543 -0.945 0.894
0.552 -0.942 0.895
0.558 -0.933 0.895
0.566 -0.929 0.896
0.57 -0.917 0.897
0.581 -0.92 0.898
0.588 -0.913 0.899
0.596 -0.909 0.9
0.604 -0.904 0.901
0.614 -0.903 0.902
0.619 -0.894 0.903
0.626 -0.888 0.904
0.638 -0.891 0.905
0.639 -0.876 0.906
0.653 -0.881 0.907
0.658 -0.872 0.908
0.665 -0.866 0.909
0.674 -0.864 0.91
0.683 -0.861 0.911
0.69 -0.855 0.912
0.696 -0.848 0.913
0.703 -0.842 0.914
0.716 -0.845 0.915
0.723 -0.839 0.916
0.73 -0.832 0.917
0.742 -0.834 0.919
0.743 -0.82 0.919
0.757 -0.822 0.92
0.763 -0.816 0.921
0.77 -0.81 0.922
0.777 -0.803 0.923
0.79 -0.805 0.925
0.804 -0.806 0.926
0.804 -0.792 0.926
0.817 -0.793 0.928
0.824 -0.786 0.929
0.83 -0.78 0.93
0.837 -0.773 0.93
0.849 -0.772 0.932
0.856 -0.766 0.933
0.87 -0.766 0.935
0.872 -0.755 0.935
0.883 -0.753 0.936
0.89 -0.746 0.937
0.902 -0.745 0.939
0.909 -0.738 0.94
0.916 -0.731 0.94
0.922 -0.724 0.941
0.935 -0.722 0.943
0.941 -0.714 0.943
0.954 -0.713 0.945
0.959 -0.704 0.946
0.966 -0.697 0.947
0.977 -0.694 0.948
0.983 -0.686 0.949
0.996 -0.684 0.95
1.002 -0.676 0.951
1.015 -0.673 0.953
1.028 -0.67 0.955
1.033 -0.661 0.955
1.045 -0.658 0.957
1.051 -0.649 0.957
1.065 -0.646 0.959
1.071 -0.638 0.96
1.084 -0.634 0.961
1.097 -0.631 0.963
1.102 -0.621 0.964
1.116 -0.618 0.966
1.121 -0.609 0.966
1.134 -0.604 0.968
1.146 -0.599 0.969
1.148 -0.588 0.97
3.307 -1.757 1.241
3.336 -1.736 1.245
3.361 -1.713 1.248
3.401 -1.697 1.253
3.441 -1.681 1.258
3.472 -1.66 1.262
3.511 -1.642 1.267
3.543 -1.62 1.271
3.573 -1.597 1.275
3.613 -1.578 1.28
3.643 -1.554 1.283
2.962 -1.226 1.198
3.722 -1.514 1.293
3.754 -1.489 1.297
3.035 -1.167 1.207
4.242 -1.604 1.359
4.299 -1.584 1.366
3.868 -1.384 1.312
3.837 -1.335 1.308
3.815 -1.291 1.305
3.783 -1.243 1.301
3.486 -1.11 1.264
3.733 -1.156 1.295
0 0 0
3.697 -1.075 1.29
3.672 -1.033 1.287
3.652 -0.994 1.284
3.627 -0.953 1.281
3.594 -0.912 1.277
2.624 -0.635 1.155
2.627 -0.612 1.156
2.658 -0.596 1.159
2.691 -0.58 1.164
2.713 -0.561 1.166
2.746 -0.543 1.171
2.777 -0.525 1.175
2.809 -0.507 1.179
2.843 -0.488 1.183
2.873 -0.468 1.187
2.914 -0.45 1.192
2.946 -0.429 1.196
2.98 -0.408 1.2
3.01 -0.387 1.204
3.05 -0.366 1.209
3.09 -0.344 1.214
3.139 -0.322 1.22
3.239 -0.305 1.233
3.223 -0.276 1.231
3.236 -0.249 1.232
3.265 -0.223 1.236
3.254 -0.195 1.234
3.316 -0.17 1.242
3.352 -0.143 1.247
4.405 -0.152 1.379
4.187 -0.108 1.352
4.391 -0.076 1.377
4.477 -0.039 1.388
4.436 -0 1.383
4.233 0.036 1.358
4.428 0.076 1.382
3.918 0.101 1.318
4.358 0.15 1.373
4 0.172 1.328
4.052 0.209 1.335
3.957 0.238 1.323
4.148 0.286 1.347
4.139 0.321 1.346
4.359 0.376 1.373
4.331 0.411 1.37
4.417 0.458 1.381
4.407 0.495 1.379
4.804 0.583 1.429
4.965 0.646 1.45
4.81 0.668 1.43
5.004 0.739 1.454
4.958 0.776 1.449
4.998 0.827 1.454
4.909 0.855 1.443
4.975 0.911 1.451
4.857 0.933 1.436
4.91 0.987 1.443
4.711 0.989 1.418
4.764 1.043 1.424
4.805 1.096 1.43
4.936 1.171 1.446
4.897 1.206 1.441
4.96 1.268 1.449
4.876 1.291 1.439
5 1.371 1.454
0.737 0.185 0.918
0.721 0.187 0.916
0.718 0.192 0.915
0.717 0.197 0.915
0.712 0.202 0.915
0.723 0.211 0.916
1.453 0.471 1.008
1.471 0.491 1.01
1.455 0.499 1.008
1.462 0.515 1.009
1.453 0.525 1.008
1.458 0.541 1.009
1.464 0.557 1.009
1.615 0.634 1.028
1.626 0.654 1.03
1.613 0.665 1.028
1.551 0.653 1.02
1.533 0.66 1.018
1.592 0.703 1.025
1.585 0.716 1.025
1.578 0.729 1.024
1.574 0.742 1.023
1.568 0.756 1.022
1.554 0.765 1.021
1.547 0.777 1.02
1.54 0.79 1.019
1.533 0.803 1.018
1.526 0.815 1.017
1.519 0.828 1.016
1.52 0.846 1.016
1.511 0.857 1.015
1.505 0.87 1.014
1.495 0.881 1.013
1.486 0.892 1.012
1.485 0.909 1.012
1.476 0.921 1.011
1.466 0.932 1.01
1.458 0.944 1.009
1.456 0.96 1.008
1.446 0.97 1.007
1.451 0.992 1.008
2.309 1.65 1.116
2.144 1.555 1.095
1.997 1.47 1.076
1.41 1.035 1.003
1.753 1.328 1.046
1.493 1.14 1.013
1.325 1.021 0.992
1.343 1.055 0.994
1.407 1.129 1.002
1.333 1.084 0.993
1.28 1.056 0.986
1.222 1.022 0.979
1.173 0.994 0.973
1.124 0.966 0.967
1.076 0.937 0.96
1.03 0.909 0.955
0.997 0.892 0.951
0.964 0.875 0.946
0.931 0.857 0.942
0.898 0.837 0.938
0.866 0.818 0.934
0.843 0.807 0.931
0.812 0.787 0.927
0.788 0.774 0.924
0.761 0.758 0.921
0.736 0.742 0.918
0.719 0.735 0.916
0.694 0.719 0.913
0.677 0.711 0.91
0.658 0.699 0.908
0.579 0.612 0.898
0.522 0.55 0.891
0.516 0.552 0.89
0.517 0.563 0.89
0.511 0.565 0.889
0.526 0.596 0.891
0.546 0.635 0.894
0.53 0.625 0.892
0.515 0.615 0.89
0.504 0.609 0.889
0.488 0.597 0.887
0.475 0.589 0.885
0.466 0.585 0.884
0.456 0.58 0.883
0.447 0.576 0.881
0.436 0.571 0.88
0.426 0.565 0.879
0.418 0.561 0.878
0.407 0.554 0.876
0.398 0.549 0.875
0.391 0.547 0.874
0.38 0.539 0.873
0.372 0.534 0.872
0.363 0.527 0.871
0.358 0.53 0.87
0.35 0.524 0.869
0.341 0.518 0.868
0.333 0.512 0.867
0.329 0.514 0.867
0.32 0.507 0.865
0.313 0.502 0.865
0.308 0.503 0.864
0.3 0.495 0.863
0.292 0.49 0.862
0.288 0.49 0.861
0.28 0.484 0.86
0.276 0.485 0.86
0.268 0.476 0.859
0.26 0.468 0.858
0.256 0.468 0.857
0.252 0.469 0.857
0.245 0.462 0.856
0.241 0.462 0.855
0.237 0.463 0.855
0.23 0.455 0.854
0.224 0.448 0.853
0.22 0.449 0.853
0.216 0.45 0.852
0.209 0.441 0.852
0.206 0.442 0.851
0.202 0.443 0.851
0.197 0.441 0.85
0.191 0.431 0.849
0.182 0.408 0.848
0.179 0.409 0.848
0.175 0.408 0.847
0.169 0.398 0.846
0.166 0.402 0.846
0.162 0.398 0.846
0.158 0.391 0.845
0.154 0.394 0.845
0.151 0.393 0.844
0.147 0.389 0.844
0.144 0.392 0.843
0.139 0.382 0.843
0.137 0.39 0.842
0.133 0.387 0.842
0.13 0.391 0.842
0.127 0.397 0.841
0.124 0.401 0.841
0.12 0.397 0.84
0.117 0.402 0.84
0.113 0.396 0.839
0.11 0.407 0.839
0.107 0.409 0.839
0.103 0.413 0.838
0.1 0.421 0.838
0.096 0.425 0.837
0.096 -1.188 0.838
0.106 -1.177 0.839
0.116 -1.17 0.841
0.126 -1.171 0.842
0.136 -1.16 0.843
0.146 -1.151 0.845
0.156 -1.15 0.846
0.166 -1.15 0.847
0.175 -1.139 0.849
0.185 -1.138 0.85
0.194 -1.129 0.851
0.203 -1.128 0.852
0.213 -1.121 0.854
0.222 -1.119 0.855
0.232 -1.118 0.856
0.24 -1.106 0.857
0.25 -1.106 0.859
0.258 -1.096 0.86
0.267 -1.093 0.861
0.275 -1.083 0.862
0.285 -1.08 0.863
0.292 -1.069 0.864
0.301 -1.064 0.865
0.31 -1.063 0.867
0.319 -1.061 0.868
0.328 -1.056 0.869
0.335 -1.046 0.87
0.345 -1.048 0.871
0.355 -1.047 0.872
0.362 -1.038 0.873
0.371 -1.037 0.875
0.378 -1.026 0.876
0.387 -1.023 0.877
0.395 -1.02 0.878
0.404 -1.018 0.879
0.413 -1.016 0.88
0.419 -1.003 0.881
0.428 -1 0.882
0.437 -0.998 0.883
0.445 -0.995 0.885
0.454 -0.993 0.886
0.463 -0.991 0.887
0.468 -0.979 0.888
0.474 -0.968 0.888
0.482 -0.965 0.889
0.491 -0.963 0.891
0.501 -0.962 0.892
0.509 -0.958 0.893
0.514 -0.947 0.894
0.524 -0.948 0.895
0.533 -0.946 0.896
0.538 -0.936 0.897
0.548 -0.935 0.898
0.557 -0.933 0.899
0.561 -0.921 0.9
0.57 -0.919 0.901
0.577 -0.914 0.902
0.584 -0.907 0.903
0.592 -0.903 0.904
0.603 -0.904 0.906
0.609 -0.896 0.906
0.614 -0.887 0.907
0.625 -0.888 0.908
0.632 -0.883 0.909
0.645 -0.887 0.911
0.647 -0.873 0.911
0.663 -0.881 0.913
0.666 -0.869 0.914
0.674 -0.865 0.915
0.683 -0.862 0.916
0.69 -0.856 0.917
0.696 -0.849 0.918
0.703 -0.843 0.919
0.716 -0.846 0.921
0.722 -0.839 0.921
0.729 -0.832 0.922
0.735 -0.826 0.923
0.749 -0.828 0.925
0.756 -0.822 0.926
0.762 -0.816 0.927
0.769 -0.809 0.928
0.782 -0.811 0.929
0.789 -0.805 0.93
0.796 -0.798 0.931
0.803 -0.792 0.932
0.81 -0.786 0.933
0.823 -0.787 0.935
0.83 -0.781 0.936
0.837 -0.774 0.937
0.848 -0.772 0.938
0.856 -0.767 0.939
0.862 -0.76 0.94
0.872 -0.756 0.941
0.883 -0.754 0.943
0.889 -0.746 0.944
0.895 -0.739 0.944
0.908 -0.737 0.946
0.915 -0.731 0.947
0.921 -0.724 0.948
0.934 -0.722 0.95
0.939 -0.714 0.95
0.953 -0.713 0.952
0.959 -0.705 0.953
0.97 -0.702 0.954
0.977 -0.694 0.955
0.983 -0.687 0.956
0.996 -0.684 0.958
1.001 -0.676 0.959
1.007 -0.668 0.959
1.02 -0.665 0.961
1.033 -0.662 0.963
1.039 -0.654 0.964
1.05 -0.649 0.965
1.064 -0.646 0.967
1.068 -0.637 0.968
1.081 -0.633 0.969
1.088 -0.625 0.97
1.102 -0.622 0.972
1.107 -0.613 0.973
1.119 -0.608 0.974
1.134 -0.604 0.976
1.137 -0.594 0.977
1.144 -0.586 0.978
3.302 -1.756 1.265
3.338 -1.739 1.27
3.348 -1.708 1.271
3.399 -1.698 1.278
3.429 -1.676 1.282
3.468 -1.659 1.287
3.497 -1.637 1.291
3.532 -1.617 1.296
3.57 -1.597 1.301
3.608 -1.578 1.306
3.64 -1.555 1.31
2.962 -1.227 1.22
3.71 -1.51 1.319
3.75 -1.489 1.325
3.182 -1.226 1.249
4.497 -1.704 1.424
4.557 -1.683 1.432
3.853 -1.38 1.338
3.834 -1.336 1.336
3.81 -1.29 1.333
3.774 -1.242 1.328
3.532 -1.126 1.296
3.728 -1.155 1.322
0 0 0
3.685 -1.072 1.316
3.667 -1.033 1.314
3.639 -0.991 1.31
3.623 -0.953 1.308
3.585 -0.91 1.303
2.612 -0.633 1.173
2.624 -0.612 1.175
2.656 -0.596 1.179
2.679 -0.578 1.182
2.712 -0.561 1.186
2.742 -0.543 1.19
2.774 -0.525 1.195
2.806 -0.507 1.199
2.831 -0.487 1.202
2.871 -0.469 1.208
2.903 -0.448 1.212
2.943 -0.429 1.217
2.976 -0.408 1.222
3.008 -0.387 1.226
3.038 -0.364 1.23
3.077 -0.343 1.235
3.128 -0.322 1.242
3.236 -0.305 1.256
3.22 -0.276 1.254
3.226 -0.249 1.255
3.253 -0.223 1.259
3.26 -0.195 1.259
3.302 -0.17 1.265
3.348 -0.143 1.271
4.377 -0.151 1.408
4.141 -0.107 1.377
4.236 -0.073 1.389
4.098 -0.035 1.371
4.108 -0 1.372
4.064 0.035 1.366
4.027 0.069 1.362
3.96 0.102 1.353
4.01 0.138 1.359
3.985 0.171 1.356
3.969 0.205 1.354
3.948 0.238 1.351
4.009 0.276 1.359
4.086 0.317 1.369
4.192 0.362 1.384
4.228 0.401 1.388
4.401 0.456 1.411
4.403 0.495 1.412
5.121 0.623 1.507
5.373 0.701 1.541
4.899 0.681 1.478
5.418 0.802 1.547
5.188 0.814 1.516
5.384 0.893 1.542
5.184 0.905 1.516
5.238 0.961 1.523
5.111 0.983 1.506
5.237 1.055 1.523
4.881 1.026 1.475
5.108 1.121 1.506
4.98 1.138 1.489
5.113 1.215 1.506
5.055 1.247 1.499
5.087 1.302 1.503
5.051 1.339 1.498
5.073 1.393 1.501
0.735 0.185 0.923
0.715 0.185 0.92
0.721 0.193 0.921
0.718 0.198 0.921
0.711 0.202 0.92
0.731 0.214 0.923
1.455 0.472 1.019
1.466 0.489 1.02
1.467 0.503 1.021
1.464 0.516 1.02
1.462 0.529 1.02
1.462 0.543 1.02
1.478 0.563 1.022
1.638 0.644 1.043
1.625 0.655 1.042
1.612 0.665 1.04
1.547 0.652 1.031
1.531 0.66 1.029
1.588 0.702 1.037
1.584 0.716 1.036
1.577 0.729 1.035
1.573 0.743 1.035
1.558 0.751 1.033
1.552 0.765 1.032
1.545 0.777 1.031
1.538 0.79 1.03
1.533 0.804 1.029
1.526 0.816 1.029
1.517 0.828 1.027
1.51 0.84 1.026
1.503 0.853 1.025
1.494 0.864 1.024
1.493 0.881 1.024
1.485 0.893 1.023
1.484 0.91 1.023
1.475 0.921 1.022
1.466 0.932 1.02
1.463 0.948 1.02
1.454 0.96 1.019
1.445 0.971 1.018
1.441 0.986 1.017
2.311 1.654 1.133
2.148 1.56 1.111
1.991 1.467 1.09
1.4 1.028 1.012
1.751 1.328 1.058
1.492 1.141 1.024
1.317 1.015 1.001
1.339 1.052 1.004
1.407 1.13 1.013
1.339 1.09 1.004
1.278 1.055 0.995
1.22 1.021 0.988
1.172 0.994 0.981
1.122 0.966 0.975
1.075 0.938 0.968
1.035 0.915 0.963
0.997 0.893 0.958
0.964 0.876 0.954
0.931 0.857 0.949
0.897 0.837 0.945
0.865 0.818 0.941
0.835 0.8 0.936
0.81 0.787 0.933
0.787 0.774 0.93
0.761 0.758 0.927
0.735 0.742 0.923
0.718 0.735 0.921
0.693 0.718 0.918
0.677 0.711 0.915
0.657 0.699 0.913
0.597 0.635 0.905
0.526 0.556 0.895
0.514 0.55 0.894
0.514 0.56 0.894
0.509 0.564 0.893
0.521 0.59 0.895
0.544 0.633 0.898
0.53 0.626 0.896
0.514 0.614 0.894
0.503 0.609 0.892
0.488 0.598 0.89
0.475 0.589 0.888
0.465 0.585 0.887
0.455 0.58 0.886
0.445 0.576 0.885
0.436 0.571 0.883
0.425 0.564 0.882
0.416 0.56 0.881
0.407 0.555 0.879
0.399 0.551 0.878
0.389 0.545 0.877
0.38 0.539 0.876
0.371 0.534 0.875
0.362 0.527 0.873
0.353 0.521 0.872
0.349 0.524 0.872
0.34 0.517 0.871
0.333 0.512 0.87
0.324 0.505 0.868
0.32 0.507 0.868
0.312 0.501 0.867
0.304 0.494 0.866
0.299 0.495 0.865
0.292 0.49 0.864
0.288 0.491 0.864
0.28 0.484 0.862
0.275 0.484 0.862
0.267 0.475 0.861
0.26 0.468 0.86
0.256 0.469 0.859
0.251 0.468 0.859
0.247 0.469 0.858
0.24 0.463 0.857
0.236 0.464 0.857
0.23 0.455 0.856
0.226 0.457 0.855
0.219 0.449 0.854
0.215 0.449 0.854
0.209 0.441 0.853
0.205 0.441 0.853
0.201 0.443 0.852
0.197 0.441 0.851
0.19 0.427 0.85
0.182 0.407 0.849
0.176 0.398 0.849
0.173 0.4 0.848
0.17 0.405 0.848
0.166 0.401 0.847
0.162 0.399 0.847
0.157 0.391 0.846
0.154 0.393 0.846
0.149 0.383 0.845
0.145 0.38 0.845
0.142 0.381 0.844
0.14 0.387 0.844
0.136 0.386 0.843
0.133 0.387 0.843
0.13 0.389 0.842
0.127 0.406 0.842
0.124 0.401 0.842
0.12 0.398 0.841
0.117 0.401 0.841
0.113 0.398 0.84
0.11 0.406 0.84
0.106 0.41 0.839
0.103 0.421 0.839
0.1 0.428 0.838
0.096 0.434 0.838
0.096 -1.188 0.839
0.106 -1.178 0.84
0.116 -1.178 0.842
0.126 -1.169 0.843
0.136 -1.16 0.844
0.146 -1.16 0.846
0.155 -1.15 0.847
0.165 -1.14 0.848
0.174 -1.139 0.85
0.184 -1.138 0.851
0.193 -1.129 0.852
0.203 -1.128 0.854
0.213 -1.127 0.855
0.222 -1.119 0.856
0.231 -1.118 0.858
0.24 -1.106 0.859
0.249 -1.106 0.86
0.258 -1.096 0.862
0.267 -1.094 0.863
0.276 -1.091 0.864
0.284 -1.079 0.865
0.293 -1.077 0.867
0.301 -1.065 0.868
0.312 -1.073 0.869
0.319 -1.061 0.87
0.327 -1.056 0.871
0.337 -1.056 0.873
0.345 -1.048 0.874
0.354 -1.046 0.875
0.362 -1.04 0.876
0.371 -1.037 0.877
0.38 -1.035 0.879
0.386 -1.023 0.88
0.395 -1.02 0.881
0.404 -1.018 0.882
0.413 -1.016 0.883
0.421 -1.013 0.885
0.427 -1 0.885
0.436 -0.998 0.887
0.445 -0.995 0.888
0.454 -0.994 0.889
0.459 -0.982 0.89
0.468 -0.979 0.891
0.477 -0.977 0.892
0.485 -0.974 0.894
0.49 -0.963 0.894
0.5 -0.962 0.896
0.504 -0.949 0.896
0.513 -0.947 0.898
0.524 -0.949 0.899
0.533 -0.947 0.9
0.538 -0.937 0.901
0.547 -0.936 0.902
0.552 -0.924 0.903
0.56 -0.921 0.904
0.57 -0.92 0.906
0.578 -0.916 0.907
0.585 -0.91 0.908
0.591 -0.903 0.909
0.598 -0.897 0.91
0.608 -0.897 0.911
0.614 -0.889 0.912
0.625 -0.89 0.913
0.632 -0.884 0.914
0.64 -0.88 0.915
0.647 -0.875 0.916
0.658 -0.875 0.918
0.666 -0.871 0.919
0.674 -0.866 0.92
0.682 -0.862 0.921
0.69 -0.857 0.922
0.696 -0.85 0.923
0.702 -0.843 0.924
0.714 -0.844 0.926
0.721 -0.839 0.927
0.728 -0.832 0.928
0.734 -0.826 0.929
0.748 -0.828 0.931
0.749 -0.814 0.931
0.761 -0.816 0.932
0.768 -0.81 0.933
0.775 -0.804 0.934
0.782 -0.797 0.935
0.795 -0.798 0.937
0.801 -0.791 0.938
0.815 -0.793 0.94
0.822 -0.787 0.941
0.828 -0.78 0.942
0.836 -0.774 0.943
0.842 -0.767 0.944
0.855 -0.767 0.946
0.86 -0.759 0.946
0.873 -0.758 0.948
0.882 -0.754 0.95
0.881 -0.739 0.949
0.901 -0.745 0.952
0.906 -0.737 0.953
0.914 -0.731 0.954
0.92 -0.724 0.955
0.932 -0.722 0.957
0.939 -0.715 0.958
0.944 -0.706 0.958
0.958 -0.705 0.96
0.969 -0.702 0.962
0.975 -0.694 0.963
0.981 -0.686 0.963
0.995 -0.684 0.965
1 -0.676 0.966
1.013 -0.673 0.968
1.019 -0.665 0.969
1.031 -0.661 0.97
1.037 -0.654 0.971
1.049 -0.649 0.973
1.062 -0.646 0.975
1.068 -0.638 0.976
1.079 -0.633 0.977
1.086 -0.625 0.978
1.1 -0.622 0.98
1.106 -0.613 0.981
1.119 -0.609 0.983
1.131 -0.604 0.985
1.144 -0.599 0.986
1.15 -0.59 0.987
3.301 -1.757 1.29
3.33 -1.737 1.294
3.324 -1.697 1.294
3.395 -1.698 1.304
3.432 -1.68 1.309
3.464 -1.659 1.313
3.495 -1.638 1.318
3.527 -1.616 1.322
3.566 -1.597 1.328
3.605 -1.578 1.333
3.628 -1.551 1.336
3.056 -1.269 1.256
3.704 -1.509 1.347
3.746 -1.489 1.353
3.276 -1.265 1.287
4.739 -1.8 1.493
4.901 -1.814 1.516
3.849 -1.38 1.368
3.821 -1.332 1.364
3.797 -1.287 1.36
3.762 -1.239 1.355
3.696 -1.181 1.346
3.723 -1.155 1.35
3.317 -0.995 1.293
3.682 -1.073 1.344
3.663 -1.033 1.341
3.637 -0.992 1.338
3.619 -0.953 1.335
3.595 -0.914 1.332
2.612 -0.634 1.193
2.612 -0.61 1.193
2.653 -0.596 1.199
2.677 -0.578 1.202
2.708 -0.561 1.207
2.741 -0.543 1.211
2.772 -0.525 1.216
2.802 -0.507 1.22
2.837 -0.488 1.225
2.867 -0.468 1.229
2.9 -0.448 1.234
2.93 -0.428 1.238
2.963 -0.407 1.243
2.995 -0.385 1.247
3.034 -0.364 1.253
3.076 -0.343 1.259
3.125 -0.322 1.265
3.224 -0.304 1.279
3.209 -0.275 1.277
3.221 -0.248 1.279
3.25 -0.223 1.283
3.24 -0.194 1.282
3.294 -0.169 1.289
3.343 -0.143 1.296
4.149 -0.143 1.41
4.129 -0.107 1.407
4.108 -0.071 1.404
4.094 -0.035 1.402
4.075 -0 1.399
4.057 0.035 1.397
3.962 0.068 1.383
3.985 0.103 1.387
4.004 0.138 1.389
3.982 0.171 1.386
3.966 0.205 1.384
3.942 0.238 1.381
3.997 0.276 1.388
4.06 0.315 1.397
4.149 0.358 1.41
4.215 0.401 1.419
4.379 0.455 1.442
4.391 0.494 1.444
5.448 0.664 1.593
5.558 0.726 1.608
5.097 0.71 1.543
5.568 0.826 1.61
5.484 0.862 1.598
5.495 0.913 1.599
5.461 0.955 1.595
5.266 0.968 1.567
5.369 1.035 1.582
5.387 1.087 1.584
5.052 1.064 1.537
5.378 1.183 1.583
5.24 1.199 1.563
5.432 1.294 1.59
5.191 1.283 1.557
5.111 1.31 1.545
5.097 1.353 1.543
5.068 1.393 1.539
0.693 0.173 0.923
0.723 0.188 0.927
0.719 0.192 0.926
0.715 0.197 0.926
0.713 0.203 0.926
0.72 0.211 0.927
1.44 0.468 1.028
1.468 0.491 1.032
1.468 0.504 1.032
1.46 0.515 1.031
1.462 0.53 1.031
1.459 0.542 1.031
1.535 0.587 1.042
1.627 0.641 1.054
1.615 0.651 1.053
1.61 0.665 1.052
1.553 0.655 1.044
1.525 0.658 1.04
1.579 0.699 1.048
1.583 0.716 1.048
1.577 0.73 1.047
1.563 0.739 1.045
1.557 0.752 1.045
1.552 0.766 1.044
1.546 0.779 1.043
1.54 0.792 1.042
1.533 0.805 1.041
1.526 0.817 1.04
1.518 0.83 1.039
1.508 0.84 1.038
1.501 0.853 1.037
1.494 0.865 1.036
1.492 0.881 1.035
1.476 0.888 1.033
1.475 0.905 1.033
1.465 0.916 1.032
1.464 0.932 1.031
1.455 0.944 1.03
1.453 0.96 1.03
1.443 0.971 1.029
1.441 0.987 1.028
2.312 1.657 1.151
2.146 1.561 1.128
1.991 1.469 1.106
1.392 1.023 1.021
1.758 1.335 1.073
1.513 1.159 1.038
1.321 1.02 1.011
1.327 1.043 1.012
1.407 1.131 1.023
1.339 1.092 1.014
1.277 1.056 1.005
1.224 1.026 0.998
1.17 0.994 0.99
1.122 0.966 0.983
1.08 0.943 0.977
1.034 0.915 0.971
1.001 0.899 0.966
0.963 0.876 0.961
0.923 0.85 0.955
0.89 0.831 0.951
0.865 0.819 0.947
0.84 0.807 0.944
0.816 0.794 0.94
0.786 0.774 0.936
0.761 0.759 0.932
0.741 0.75 0.93
0.717 0.735 0.926
0.693 0.719 0.923
0.675 0.71 0.92
0.658 0.701 0.918
0.615 0.66 0.912
0.521 0.55 0.899
0.516 0.553 0.898
0.516 0.563 0.898
0.507 0.561 0.897
0.523 0.594 0.899
0.539 0.628 0.901
0.529 0.626 0.9
0.519 0.622 0.898
0.497 0.601 0.895
0.487 0.598 0.894
0.474 0.589 0.892
0.465 0.585 0.891
0.454 0.58 0.889
0.446 0.577 0.888
0.435 0.57 0.886
0.426 0.566 0.885
0.416 0.56 0.884
0.407 0.555 0.883
0.397 0.55 0.881
0.388 0.545 0.88
0.379 0.539 0.879
0.37 0.533 0.877
0.362 0.528 0.876
0.357 0.53 0.876
0.349 0.524 0.874
0.34 0.518 0.873
0.332 0.512 0.872
0.328 0.514 0.871
0.319 0.507 0.87
0.311 0.501 0.869
0.303 0.493 0.868
0.299 0.496 0.867
0.291 0.49 0.866
0.287 0.491 0.866
0.279 0.484 0.865
0.272 0.476 0.864
0.267 0.475 0.863
0.262 0.476 0.862
0.255 0.469 0.861
0.251 0.469 0.861
0.246 0.469 0.86
0.24 0.463 0.859
0.233 0.454 0.858
0.229 0.454 0.857
0.225 0.457 0.857
0.219 0.449 0.856
0.215 0.449 0.855
0.211 0.45 0.855
0.205 0.441 0.854
0.199 0.434 0.853
0.195 0.434 0.853
0.19 0.432 0.852
0.181 0.406 0.851
0.177 0.405 0.85
0.173 0.403 0.85
0.169 0.399 0.849
0.166 0.401 0.849
0.161 0.393 0.848
0.158 0.401 0.848
0.153 0.392 0.847
0.151 0.397 0.846
0.146 0.389 0.846
0.142 0.381 0.845
0.139 0.386 0.845
0.135 0.383 0.844
0.133 0.389 0.844
0.13 0.393 0.843
0.126 0.395 0.843
0.123 0.402 0.843
0.12 0.405 0.842
0.116 0.392 0.842
0.112 0.392 0.841
0.11 0.406 0.841
0.106 0.41 0.84
0.103 0.421 0.84
0.099 0.419 0.839
0.096 0.432 0.839
0.095 -1.188 0.84
0.105 -1.179 0.841
0.115 -1.18 0.843
0.125 -1.171 0.844
0.135 -1.161 0.846
0.145 -1.16 0.847
0.155 -1.15 0.849
0.165 -1.15 0.85
0.174 -1.14 0.852
0.184 -1.139 0.853
0.193 -1.129 0.855
0.202 -1.128 0.856
0.211 -1.12 0.857
0.221 -1.118 0.859
0.231 -1.119 0.86
0.239 -1.107 0.862
0.249 -1.107 0.863
0.257 -1.097 0.864
0.266 -1.094 0.866
0.276 -1.092 0.867
0.283 -1.08 0.868
0.293 -1.078 0.87
0.302 -1.075 0.871
0.309 -1.064 0.872
0.318 -1.061 0.874
0.326 -1.054 0.875
0.337 -1.058 0.877
0.344 -1.049 0.878
0.353 -1.047 0.879
0.36 -1.035 0.88
0.37 -1.037 0.882
0.376 -1.025 0.883
0.385 -1.023 0.884
0.394 -1.02 0.885
0.403 -1.018 0.887
0.412 -1.016 0.888
0.418 -1.004 0.889
0.426 -1 0.89
0.435 -0.998 0.891
0.444 -0.995 0.893
0.449 -0.984 0.894
0.458 -0.982 0.895
0.467 -0.979 0.896
0.476 -0.977 0.898
0.481 -0.965 0.898
0.49 -0.964 0.9
0.499 -0.962 0.901
0.507 -0.959 0.903
0.512 -0.948 0.903
0.523 -0.949 0.905
0.532 -0.947 0.906
0.538 -0.939 0.907
0.547 -0.937 0.908
0.551 -0.925 0.909
0.56 -0.923 0.911
0.569 -0.922 0.912
0.575 -0.912 0.913
0.581 -0.904 0.914
0.592 -0.906 0.915
0.598 -0.9 0.916
0.605 -0.893 0.917
0.614 -0.892 0.919
0.621 -0.885 0.92
0.631 -0.885 0.921
0.64 -0.883 0.923
0.647 -0.876 0.924
0.658 -0.876 0.925
0.661 -0.866 0.926
0.673 -0.867 0.928
0.681 -0.863 0.929
0.688 -0.856 0.93
0.695 -0.851 0.931
0.701 -0.843 0.932
0.708 -0.838 0.933
0.72 -0.839 0.935
0.727 -0.833 0.936
0.734 -0.827 0.937
0.74 -0.82 0.938
0.753 -0.821 0.94
0.76 -0.816 0.941
0.767 -0.81 0.942
0.78 -0.811 0.944
0.786 -0.805 0.945
0.793 -0.798 0.946
0.8 -0.792 0.947
0.808 -0.787 0.948
0.821 -0.787 0.95
0.821 -0.773 0.95
0.834 -0.774 0.952
0.846 -0.773 0.954
0.854 -0.767 0.955
0.859 -0.76 0.956
0.867 -0.754 0.957
0.88 -0.753 0.959
0.886 -0.746 0.96
0.893 -0.74 0.961
0.899 -0.732 0.962
0.913 -0.732 0.964
0.918 -0.724 0.965
0.931 -0.722 0.967
0.936 -0.714 0.968
0.943 -0.707 0.969
0.956 -0.705 0.971
0.968 -0.702 0.973
0.973 -0.694 0.973
0.979 -0.686 0.974
0.994 -0.685 0.977
0.999 -0.676 0.977
1.011 -0.673 0.979
1.017 -0.665 0.98
1.03 -0.662 0.982
1.035 -0.654 0.983
1.047 -0.65 0.985
1.052 -0.641 0.985
1.065 -0.637 0.987
1.078 -0.633 0.989
1.083 -0.624 0.99
1.098 -0.622 0.992
1.104 -0.613 0.993
1.117 -0.609 0.995
1.129 -0.604 0.997
1.134 -0.594 0.998
1.142 -0.587 0.999
3.287 -1.753 1.326
3.326 -1.738 1.331
3.296 -1.685 1.327
3.39 -1.698 1.341
3.42 -1.677 1.346
3.45 -1.655 1.35
3.49 -1.638 1.356
3.52 -1.616 1.361
3.551 -1.593 1.366
3.589 -1.574 1.372
3.605 -1.544 1.374
3.239 -1.35 1.318
3.688 -1.505 1.387
3.74 -1.489 1.394
3.746 -1.455 1.395
2.881 -1.082 1.264
3.847 -1.419 1.411
3.843 -1.38 1.41
3.814 -1.332 1.406
3.791 -1.287 1.402
3.432 -1.129 1.348
3.735 -1.196 1.394
3.714 -1.154 1.39
3.247 -0.975 1.319
3.264 -0.949 1.322
3.649 -1.031 1.381
3.623 -0.99 1.377
3.605 -0.951 1.374
3.478 -0.885 1.355
2.607 -0.634 1.222
2.617 -0.612 1.224
2.641 -0.595 1.227
2.672 -0.578 1.232
2.703 -0.561 1.237
2.735 -0.543 1.242
2.767 -0.525 1.246
2.791 -0.505 1.25
2.823 -0.487 1.255
2.861 -0.468 1.261
2.895 -0.448 1.266
2.926 -0.428 1.271
2.96 -0.407 1.276
2.999 -0.387 1.282
3.029 -0.364 1.286
3.061 -0.342 1.291
3.11 -0.32 1.299
3.219 -0.304 1.315
3.203 -0.275 1.313
3.214 -0.248 1.314
3.244 -0.223 1.319
3.238 -0.194 1.318
3.281 -0.169 1.325
3.33 -0.143 1.332
4.129 -0.142 1.454
4.123 -0.107 1.453
4.091 -0.071 1.448
4.08 -0.035 1.446
4.061 -0 1.443
4.042 0.035 1.441
3.581 0.062 1.37
4.007 0.104 1.435
3.997 0.138 1.434
3.976 0.171 1.43
3.953 0.205 1.427
3.923 0.237 1.422
3.988 0.275 1.432
4.05 0.315 1.442
4.13 0.357 1.454
4.21 0.401 1.466
4.35 0.452 1.487
4.374 0.493 1.491
5.641 0.689 1.684
5.572 0.729 1.673
5.591 0.781 1.676
5.456 0.81 1.656
5.482 0.863 1.66
5.368 0.893 1.642
5.45 0.955 1.655
5.311 0.978 1.634
5.352 1.034 1.64
5.243 1.059 1.623
4.842 1.021 1.562
5.204 1.146 1.617
5.492 1.26 1.661
5.5 1.312 1.662
5.438 1.348 1.653
5.127 1.316 1.606
5.098 1.356 1.601
5.083 1.399 1.599
0.716 0.18 0.934
0.72 0.187 0.935
0.711 0.19 0.933
0.723 0.2 0.935
0.712 0.203 0.934
0.723 0.213 0.935
1.452 0.473 1.046
1.475 0.494 1.05
1.47 0.506 1.049
1.468 0.519 1.049
1.465 0.532 1.048
1.544 0.577 1.06
1.828 0.708 1.104
1.624 0.641 1.072
1.611 0.651 1.07
1.606 0.665 1.07
1.556 0.658 1.062
1.518 0.656 1.056
1.565 0.694 1.064
1.58 0.716 1.066
1.567 0.726 1.064
1.56 0.739 1.063
1.556 0.753 1.062
1.55 0.766 1.061
1.535 0.775 1.059
1.53 0.788 1.058
1.523 0.8 1.057
1.516 0.813 1.056
1.516 0.83 1.056
1.508 0.842 1.055
1.509 0.859 1.055
1.491 0.865 1.052
1.49 0.882 1.052
1.482 0.894 1.051
1.472 0.905 1.049
1.464 0.916 1.048
1.461 0.932 1.048
1.452 0.944 1.046
1.443 0.955 1.045
1.441 0.971 1.045
1.433 0.983 1.043
2.321 1.666 1.179
2.157 1.572 1.154
2 1.479 1.13
1.402 1.032 1.039
1.753 1.334 1.092
1.583 1.219 1.066
1.316 1.018 1.026
1.314 1.034 1.025
1.405 1.132 1.039
1.337 1.092 1.029
1.282 1.062 1.02
1.224 1.028 1.012
1.169 0.995 1.003
1.126 0.973 0.997
1.078 0.944 0.989
1.037 0.92 0.983
1 0.899 0.977
0.968 0.882 0.973
0.928 0.857 0.967
0.895 0.838 0.962
0.862 0.817 0.956
0.839 0.807 0.953
0.808 0.787 0.948
0.79 0.781 0.946
0.759 0.759 0.941
0.74 0.751 0.938
0.716 0.735 0.934
0.699 0.728 0.932
0.674 0.711 0.928
0.656 0.701 0.925
0.631 0.682 0.921
0.518 0.548 0.904
0.51 0.547 0.903
0.51 0.557 0.903
0.511 0.569 0.903
0.512 0.581 0.903
0.537 0.627 0.907
0.528 0.626 0.906
0.517 0.621 0.904
0.501 0.609 0.902
0.486 0.598 0.899
0.478 0.597 0.898
0.464 0.585 0.896
0.453 0.58 0.894
0.444 0.576 0.893
0.434 0.571 0.891
0.425 0.566 0.89
0.415 0.56 0.888
0.406 0.556 0.887
0.397 0.55 0.886
0.388 0.546 0.884
0.378 0.539 0.883
0.37 0.534 0.882
0.361 0.528 0.88
0.356 0.53 0.88
0.347 0.523 0.878
0.339 0.518 0.877
0.335 0.52 0.876
0.322 0.504 0.874
0.318 0.507 0.874
0.31 0.501 0.873
0.306 0.503 0.872
0.298 0.496 0.871
0.294 0.497 0.87
0.286 0.491 0.869
0.279 0.485 0.868
0.274 0.484 0.867
0.267 0.476 0.866
0.259 0.468 0.865
0.254 0.468 0.864
0.25 0.469 0.863
0.246 0.47 0.863
0.24 0.464 0.862
0.235 0.464 0.861
0.228 0.455 0.86
0.225 0.457 0.859
0.218 0.448 0.858
0.214 0.45 0.858
0.21 0.45 0.857
0.204 0.442 0.856
0.201 0.444 0.856
0.194 0.434 0.855
0.191 0.436 0.854
0.18 0.405 0.853
0.176 0.404 0.852
0.173 0.405 0.852
0.168 0.4 0.851
0.165 0.402 0.85
0.162 0.402 0.85
0.156 0.391 0.849
0.153 0.39 0.849
0.15 0.394 0.848
0.145 0.387 0.847
0.142 0.384 0.847
0.139 0.391 0.846
0.135 0.387 0.846
0.132 0.387 0.845
0.129 0.394 0.845
0.126 0.397 0.844
0.123 0.4 0.844
0.119 0.397 0.843
0.116 0.396 0.843
0.112 0.388 0.842
0.109 0.41 0.842
0.106 0.411 0.841
0.102 0.411 0.841
0.099 0.418 0.84
0.095 0.43 0.84
0.095 -1.18 0.84
0.105 -1.181 0.842
0.115 -1.18 0.844
0.125 -1.17 0.845
0.135 -1.17 0.847
0.145 -1.161 0.848
0.154 -1.15 0.85
0.164 -1.15 0.852
0.174 -1.14 0.853
0.183 -1.139 0.855
0.192 -1.131 0.856
0.202 -1.129 0.858
0.211 -1.119 0.859
0.221 -1.12 0.861
0.229 -1.109 0.862
0.239 -1.107 0.863
0.248 -1.107 0.865
0.257 -1.097 0.866
0.266 -1.094 0.868
0.274 -1.084 0.869
0.283 -1.08 0.87
0.292 -1.078 0.872
0.301 -1.075 0.873
0.309 -1.064 0.875
0.318 -1.063 0.876
0.327 -1.059 0.877
0.334 -1.048 0.879
0.344 -1.049 0.88
0.353 -1.048 0.882
0.362 -1.045 0.883
0.367 -1.03 0.884
0.378 -1.036 0.886
0.384 -1.023 0.887
0.393 -1.02 0.888
0.399 -1.009 0.889
0.408 -1.007 0.891
0.417 -1.003 0.892
0.426 -1.001 0.893
0.434 -0.998 0.895
0.443 -0.995 0.896
0.452 -0.993 0.897
0.457 -0.982 0.898
0.466 -0.98 0.9
0.472 -0.969 0.901
0.48 -0.966 0.902
0.489 -0.964 0.903
0.498 -0.962 0.905
0.503 -0.95 0.906
0.513 -0.95 0.907
0.522 -0.949 0.909
0.528 -0.94 0.91
0.537 -0.939 0.911
0.546 -0.937 0.913
0.55 -0.925 0.913
0.56 -0.924 0.915
0.569 -0.922 0.916
0.574 -0.912 0.917
0.581 -0.906 0.918
0.592 -0.908 0.92
0.598 -0.9 0.921
0.604 -0.894 0.922
0.61 -0.886 0.923
0.62 -0.885 0.924
0.63 -0.885 0.926
0.635 -0.875 0.927
0.642 -0.87 0.928
0.657 -0.876 0.93
0.662 -0.868 0.931
0.672 -0.867 0.933
0.675 -0.855 0.933
0.687 -0.857 0.935
0.693 -0.85 0.936
0.7 -0.844 0.937
0.707 -0.838 0.938
0.719 -0.839 0.94
0.725 -0.832 0.941
0.739 -0.835 0.943
0.739 -0.82 0.943
0.752 -0.821 0.945
0.759 -0.816 0.947
0.766 -0.81 0.948
0.779 -0.811 0.95
0.785 -0.805 0.951
0.794 -0.8 0.952
0.8 -0.793 0.953
0.807 -0.787 0.954
0.819 -0.787 0.956
0.826 -0.781 0.957
0.833 -0.774 0.958
0.839 -0.767 0.959
0.852 -0.767 0.961
0.859 -0.76 0.962
0.866 -0.754 0.964
0.871 -0.746 0.964
0.885 -0.746 0.967
0.891 -0.739 0.968
0.904 -0.738 0.97
0.911 -0.732 0.971
0.924 -0.73 0.973
0.931 -0.723 0.974
0.936 -0.715 0.975
0.949 -0.713 0.977
0.955 -0.705 0.978
0.961 -0.698 0.979
0.972 -0.694 0.98
0.979 -0.687 0.982
0.991 -0.684 0.984
0.997 -0.676 0.985
1.01 -0.673 0.987
1.015 -0.665 0.987
1.028 -0.662 0.99
1.033 -0.653 0.99
1.046 -0.65 0.992
1.06 -0.647 0.995
1.065 -0.638 0.995
1.078 -0.634 0.997
1.082 -0.625 0.998
1.097 -0.622 1
1.103 -0.613 1.001
1.115 -0.609 1.003
1.12 -0.599 1.004
1.133 -0.595 1.006
1.148 -0.591 1.009
3.283 -1.753 1.35
3.316 -1.734 1.355
3.266 -1.672 1.347
3.385 -1.697 1.366
3.416 -1.677 1.371
3.455 -1.66 1.377
3.478 -1.634 1.381
3.516 -1.616 1.387
3.549 -1.594 1.392
3.586 -1.574 1.398
3.581 -1.535 1.397
3.28 -1.369 1.349
3.675 -1.502 1.412
3.727 -1.486 1.42
3.755 -1.46 1.425
2.885 -1.085 1.286
3.817 -1.409 1.435
3.833 -1.378 1.437
3.76 -1.314 1.426
3.779 -1.285 1.429
3.242 -1.066 1.343
3.73 -1.196 1.421
3.455 -1.073 1.377
3.151 -0.946 1.328
3.153 -0.917 1.329
3.436 -0.97 1.374
3.324 -0.907 1.356
3.358 -0.885 1.361
3.242 -0.824 1.343
2.603 -0.633 1.241
2.613 -0.612 1.243
2.638 -0.595 1.247
2.669 -0.578 1.251
2.701 -0.561 1.257
2.723 -0.541 1.26
2.765 -0.526 1.267
2.796 -0.507 1.272
2.82 -0.487 1.276
2.85 -0.467 1.28
2.891 -0.448 1.287
2.913 -0.427 1.291
2.956 -0.407 1.297
2.987 -0.386 1.302
3.026 -0.365 1.309
3.067 -0.343 1.315
3.106 -0.32 1.321
3.214 -0.304 1.338
3.2 -0.275 1.336
3.204 -0.248 1.337
3.24 -0.223 1.343
3.235 -0.195 1.342
3.278 -0.169 1.349
3.318 -0.143 1.355
4.115 -0.142 1.482
4.119 -0.107 1.483
4.076 -0.07 1.476
4.074 -0.035 1.476
4.057 -0 1.473
4.039 0.035 1.47
3.508 0.06 1.385
4.002 0.104 1.464
3.983 0.138 1.461
3.961 0.171 1.458
3.949 0.205 1.456
3.913 0.237 1.45
3.973 0.275 1.46
4.051 0.315 1.472
4.131 0.358 1.485
4.205 0.401 1.497
4.344 0.452 1.519
4.373 0.494 1.524
5.775 0.706 1.747
5.579 0.731 1.716
5.412 0.757 1.689
5.312 0.79 1.674
5.362 0.845 1.681
5.333 0.888 1.677
5.312 0.932 1.674
5.283 0.974 1.669
5.261 1.017 1.665
5.237 1.059 1.662
4.787 1.01 1.59
5.197 1.145 1.655
5.318 1.221 1.675
5.493 1.312 1.702
5.436 1.348 1.693
5.125 1.317 1.644
5.106 1.36 1.641
5.074 1.398 1.636
0.69 0.173 0.935
0.719 0.187 0.94
0.724 0.195 0.941
0.718 0.199 0.94
0.717 0.205 0.94
0.706 0.207 0.938
1.471 0.48 1.06
1.482 0.497 1.062
1.467 0.506 1.06
1.463 0.518 1.059
1.471 0.535 1.06
1.482 0.553 1.062
1.867 0.725 1.123
1.615 0.638 1.083
1.61 0.651 1.082
1.606 0.666 1.082
1.569 0.665 1.076
1.52 0.658 1.068
1.558 0.691 1.074
1.571 0.713 1.076
1.573 0.73 1.077
1.56 0.74 1.074
1.554 0.753 1.074
1.543 0.763 1.072
1.542 0.779 1.072
1.528 0.788 1.069
1.522 0.801 1.068
1.516 0.814 1.067
1.508 0.826 1.066
1.5 0.838 1.065
1.491 0.85 1.063
1.489 0.865 1.063
1.481 0.877 1.062
1.472 0.889 1.06
1.47 0.905 1.06
1.462 0.916 1.059
1.46 0.933 1.058
1.451 0.944 1.057
1.442 0.955 1.056
1.44 0.972 1.055
1.431 0.983 1.054
2.24 1.608 1.183
2.155 1.572 1.169
1.955 1.445 1.137
1.421 1.049 1.052
1.586 1.201 1.078
1.59 1.226 1.079
1.312 1.016 1.035
1.307 1.03 1.034
1.402 1.131 1.049
1.336 1.092 1.039
1.281 1.063 1.03
1.222 1.028 1.02
1.173 1.001 1.013
1.125 0.973 1.005
1.077 0.944 0.997
1.037 0.921 0.991
0.998 0.899 0.985
0.966 0.882 0.979
0.927 0.857 0.973
0.893 0.837 0.968
0.862 0.819 0.963
0.839 0.808 0.959
0.813 0.794 0.955
0.789 0.781 0.951
0.758 0.759 0.946
0.739 0.75 0.943
0.715 0.735 0.939
0.697 0.727 0.937
0.674 0.711 0.933
0.657 0.703 0.93
0.631 0.683 0.926
0.526 0.559 0.909
0.511 0.549 0.907
0.507 0.553 0.906
0.512 0.572 0.907
0.513 0.583 0.907
0.532 0.621 0.91
0.528 0.626 0.91
0.512 0.615 0.907
0.501 0.609 0.905
0.486 0.598 0.903
0.478 0.597 0.902
0.468 0.593 0.9
0.453 0.581 0.898
0.443 0.576 0.896
0.434 0.572 0.895
0.424 0.565 0.893
0.414 0.56 0.891
0.406 0.556 0.89
0.396 0.55 0.889
0.387 0.545 0.887
0.378 0.539 0.886
0.368 0.531 0.884
0.36 0.527 0.883
0.352 0.522 0.881
0.347 0.524 0.881
0.339 0.518 0.879
0.334 0.52 0.879
0.322 0.505 0.877
0.318 0.507 0.876
0.31 0.501 0.875
0.305 0.503 0.874
0.297 0.495 0.873
0.293 0.496 0.872
0.286 0.491 0.871
0.278 0.484 0.87
0.274 0.485 0.869
0.266 0.475 0.868
0.259 0.468 0.867
0.257 0.478 0.866
0.25 0.469 0.865
0.246 0.47 0.865
0.239 0.462 0.863
0.235 0.464 0.863
0.228 0.455 0.862
0.224 0.457 0.861
0.218 0.45 0.86
0.214 0.449 0.859
0.21 0.451 0.859
0.204 0.443 0.858
0.2 0.443 0.857
0.196 0.442 0.857
0.188 0.428 0.855
0.18 0.406 0.854
0.176 0.404 0.853
0.172 0.403 0.853
0.169 0.404 0.852
0.165 0.402 0.852
0.161 0.4 0.851
0.156 0.392 0.85
0.153 0.392 0.85
0.149 0.392 0.849
0.145 0.386 0.848
0.143 0.394 0.848
0.138 0.382 0.847
0.135 0.384 0.847
0.131 0.382 0.846
0.129 0.394 0.846
0.126 0.4 0.845
0.122 0.398 0.845
0.119 0.399 0.844
0.115 0.398 0.844
0.112 0.389 0.843
0.109 0.399 0.843
0.105 0.407 0.842
0.102 0.419 0.842
0.098 0.418 0.841
0.095 0.43 0.84
0.095 -1.179 0.841
0.105 -1.18 0.843
0.115 -1.169 0.845
0.125 -1.17 0.846
0.134 -1.16 0.848
0.144 -1.16 0.849
0.154 -1.15 0.851
0.164 -1.149 0.853
0.173 -1.14 0.854
0.183 -1.138 0.856
0.192 -1.129 0.857
0.202 -1.129 0.859
0.211 -1.121 0.861
0.22 -1.119 0.862
0.229 -1.108 0.864
0.238 -1.106 0.865
0.246 -1.096 0.867
0.256 -1.096 0.868
0.265 -1.093 0.87
0.273 -1.083 0.871
0.282 -1.078 0.872
0.291 -1.077 0.874
0.301 -1.075 0.876
0.308 -1.063 0.877
0.317 -1.062 0.878
0.326 -1.059 0.88
0.333 -1.049 0.881
0.343 -1.048 0.883
0.352 -1.046 0.884
0.359 -1.036 0.885
0.369 -1.037 0.887
0.375 -1.025 0.888
0.384 -1.023 0.89
0.393 -1.02 0.891
0.402 -1.018 0.892
0.41 -1.015 0.894
0.416 -1.003 0.895
0.425 -1 0.896
0.433 -0.998 0.898
0.439 -0.987 0.899
0.451 -0.992 0.901
0.457 -0.983 0.902
0.465 -0.979 0.903
0.47 -0.968 0.904
0.479 -0.965 0.905
0.488 -0.964 0.907
0.493 -0.953 0.908
0.502 -0.95 0.909
0.511 -0.948 0.911
0.521 -0.949 0.912
0.527 -0.94 0.913
0.536 -0.938 0.915
0.545 -0.937 0.916
0.55 -0.925 0.917
0.558 -0.923 0.919
0.563 -0.913 0.919
0.573 -0.912 0.921
0.58 -0.906 0.922
0.586 -0.899 0.923
0.593 -0.893 0.924
0.603 -0.894 0.926
0.609 -0.886 0.927
0.619 -0.885 0.929
0.628 -0.883 0.93
0.634 -0.876 0.931
0.645 -0.876 0.933
0.65 -0.867 0.934
0.66 -0.866 0.936
0.671 -0.866 0.937
0.674 -0.855 0.938
0.681 -0.849 0.939
0.692 -0.85 0.941
0.699 -0.844 0.942
0.705 -0.837 0.943
0.712 -0.831 0.944
0.724 -0.832 0.946
0.731 -0.826 0.948
0.738 -0.82 0.949
0.75 -0.821 0.951
0.757 -0.815 0.952
0.765 -0.81 0.953
0.771 -0.803 0.954
0.778 -0.797 0.955
0.792 -0.799 0.958
0.799 -0.793 0.959
0.805 -0.787 0.96
0.818 -0.787 0.962
0.818 -0.773 0.962
0.831 -0.773 0.964
0.837 -0.766 0.965
0.851 -0.767 0.968
0.857 -0.76 0.969
0.865 -0.754 0.97
0.871 -0.747 0.971
0.877 -0.74 0.972
0.89 -0.739 0.974
0.896 -0.731 0.975
0.909 -0.73 0.977
0.916 -0.724 0.978
0.929 -0.722 0.981
0.934 -0.714 0.981
0.947 -0.712 0.984
0.954 -0.705 0.985
0.959 -0.697 0.986
