# .PCD v0.7 - Point Cloud Data file format
VERSION 0.7
FIELDS x y z
SIZE 4 4 4
TYPE F F F
COUNT 1 1 1
WIDTH 2494
HEIGHT 1
VIEWPOINT 0 0 0 1 0 0 0
POINTS 2494
DATA ascii
0.445 0.733 0.576
0.431 0.722 0.577
0.419 0.715 0.578
0.406 0.705 0.58
0.394 0.698 0.581
0.384 0.693 0.582
0.373 0.686 0.583
0.359 0.672 0.585
0.351 0.671 0.585
0.34 0.663 0.586
0.335 0.665 0.587
0.321 0.65 0.588
0.311 0.644 0.589
0.303 0.64 0.59
0.292 0.629 0.591
0.289 0.637 0.592
0.28 0.63 0.593
0.274 0.63 0.593
0.264 0.622 0.594
0.256 0.615 0.595
0.251 0.62 0.595
0.243 0.613 0.596
0.235 0.607 0.597
0.23 0.609 0.598
0.22 0.597 0.599
0.213 0.593 0.599
0.208 0.594 0.6
0.2 0.586 0.601
0.192 0.578 0.601
0.186 0.573 0.602
0.18 0.572 0.603
0.176 0.575 0.603
0.169 0.568 0.604
0.161 0.556 0.605
0.156 0.559 0.605
0.151 0.558 0.606
0.144 0.55 0.606
0.14 0.552 0.607
0.133 0.542 0.608
0.129 0.546 0.608
0.122 0.538 0.609
0.117 0.534 0.609
0.113 0.541 0.61
0.107 0.532 0.61
0.102 0.524 0.611
0.096 0.519 0.611
0.092 0.521 0.612
0.088 0.522 0.612
0.083 0.521 0.613
0.077 0.51 0.613
0.072 0.504 0.614
0.068 0.506 0.614
0.063 0.497 0.615
0.059 0.496 0.615
0.054 0.49 0.616
0.05 0.486 0.616
0.045 0.471 0.617
0.041 0.452 0.617
0.037 0.419 0.617
0.033 0.387 0.618
0.033 -0.375 0.618
0.037 -0.417 0.618
0.041 -0.45 0.617
0.045 -0.454 0.617
0.049 -0.465 0.616
0.053 -0.474 0.616
0.058 -0.478 0.616
0.062 -0.474 0.615
0.066 -0.472 0.615
0.07 -0.47 0.614
0.073 -0.466 0.614
0.077 -0.465 0.614
0.082 -0.47 0.613
0.086 -0.469 0.613
0.09 -0.464 0.612
0.095 -0.472 0.612
0.1 -0.479 0.611
0.103 -0.474 0.611
0.107 -0.471 0.611
0.112 -0.477 0.61
0.111 -0.446 0.61
0.117 -0.455 0.61
0.137 -0.537 0.608
0.15 -0.579 0.607
0.158 -0.594 0.606
0.168 -0.613 0.605
0.182 -0.649 0.603
0.194 -0.673 0.602
0.205 -0.692 0.601
0.221 -0.73 0.6
0.238 -0.77 0.598
0.258 -0.816 0.596
0.275 -0.85 0.594
0.309 -0.938 0.591
0.334 -0.991 0.589
0.362 -1.047 0.586
0.393 -1.114 0.583
0.431 -1.195 0.579
0.462 -1.251 0.576
0.365 -0.942 0.586
0.356 -0.891 0.587
0.379 -0.931 0.584
0.446 -1.08 0.578
0.48 -1.141 0.575
0.439 -1.011 0.579
0.445 -0.999 0.578
0.449 -0.986 0.578
0.463 -0.993 0.576
0.468 -0.982 0.576
0.53 -1.096 0.57
0.634 -1.295 0.56
0.696 -1.397 0.554
0.713 -1.4 0.552
0.725 -1.394 0.551
0.737 -1.388 0.55
0.749 -1.383 0.549
0.766 -1.384 0.547
0.773 -1.37 0.546
0.79 -1.372 0.545
0.802 -1.366 0.543
0.813 -1.358 0.542
0.826 -1.352 0.541
0.837 -1.345 0.54
0.849 -1.338 0.539
0.86 -1.331 0.538
0.872 -1.323 0.537
0.889 -1.324 0.535
0.901 -1.318 0.534
0.912 -1.309 0.533
0.924 -1.302 0.532
0.941 -1.302 0.53
0.952 -1.294 0.529
0.963 -1.286 0.528
0.974 -1.278 0.527
0.995 -1.283 0.525
1.05 -1.332 0.519
1.066 -1.329 0.518
1.059 -1.296 0.519
1.039 -1.248 0.521
1.023 -1.207 0.522
1.009 -1.168 0.523
0.992 -1.128 0.525
0.974 -1.088 0.527
0.959 -1.052 0.528
0.946 -1.019 0.53
0.933 -0.987 0.531
0.917 -0.952 0.532
0.909 -0.928 0.533
0.903 -0.905 0.534
0.897 -0.883 0.534
0.894 -0.865 0.535
0.895 -0.852 0.534
0.896 -0.837 0.534
0.896 -0.823 0.534
0.897 -0.81 0.534
0.906 -0.804 0.533
0.919 -0.802 0.532
0.927 -0.794 0.531
0.934 -0.787 0.531
0.941 -0.779 0.53
0.949 -0.773 0.529
0.964 -0.771 0.528
0.977 -0.768 0.527
0.99 -0.765 0.525
0.996 -0.756 0.525
1.01 -0.753 0.523
1.016 -0.744 0.523
1.033 -0.744 0.521
1.039 -0.734 0.521
1.051 -0.73 0.519
1.059 -0.722 0.519
1.069 -0.715 0.518
1.082 -0.711 0.516
1.089 -0.702 0.516
1.105 -0.699 0.514
1.116 -0.693 0.513
1.127 -0.687 0.512
1.14 -0.682 0.511
1.155 -0.677 0.509
1.166 -0.67 0.508
1.159 -0.653 0.509
1.155 -0.638 0.509
1.169 -0.633 0.508
1.185 -0.628 0.506
1.197 -0.622 0.505
1.211 -0.616 0.504
1.214 -0.605 0.504
1.225 -0.597 0.503
1.234 -0.589 0.502
1.253 -0.585 0.5
1.271 -0.58 0.498
1.29 -0.576 0.496
1.32 -0.576 0.493
1.345 -0.573 0.491
1.374 -0.572 0.488
1.389 -0.564 0.487
1.406 -0.557 0.485
1.43 -0.553 0.483
1.444 -0.544 0.481
1.46 -0.536 0.48
1.481 -0.529 0.478
1.496 -0.52 0.476
1.509 -0.511 0.475
1.533 -0.504 0.473
1.548 -0.495 0.471
1.572 -0.487 0.469
1.587 -0.477 0.467
1.609 -0.469 0.465
1.632 -0.461 0.463
1.653 -0.451 0.461
1.684 -0.444 0.458
1.705 -0.434 0.456
1.728 -0.425 0.454
1.746 -0.413 0.452
1.78 -0.405 0.449
1.802 -0.394 0.447
1.826 -0.383 0.444
1.85 -0.371 0.442
1.873 -0.359 0.44
1.896 -0.347 0.438
1.92 -0.334 0.435
1.943 -0.321 0.433
1.975 -0.309 0.43
2 -0.295 0.428
2.031 -0.282 0.425
2.063 -0.268 0.421
2.096 -0.254 0.418
2.118 -0.239 0.416
2.158 -0.224 0.412
2.18 -0.208 0.41
2.213 -0.192 0.407
2.245 -0.175 0.404
2.298 -0.159 0.399
2.329 -0.141 0.396
2.415 -0.125 0.387
2.571 -0.111 0.372
3.507 -0.122 0.282
3.497 -0.091 0.283
3.478 -0.06 0.284
3.468 -0.03 0.285
3.458 -0 0.286
3.438 0.03 0.288
3.427 0.06 0.289
3.429 0.089 0.289
3.665 0.127 0.266
3.695 0.161 0.263
3.674 0.192 0.265
3.709 0.226 0.262
3.69 0.257 0.264
3.843 0.301 0.249
3.827 0.333 0.251
3.882 0.372 0.245
3.861 0.404 0.247
3.903 0.443 0.243
3.846 0.47 0.249
3.635 0.476 0.269
3.634 0.509 0.269
3.724 0.554 0.261
3.718 0.586 0.261
3.733 0.622 0.26
3.71 0.651 0.262
3.746 0.691 0.258
3.728 0.722 0.26
3.76 0.762 0.257
3.734 0.79 0.26
3.772 0.833 0.256
3.739 0.86 0.259
3.777 0.903 0.256
3.786 0.94 0.255
3.881 1 0.245
3.564 0.951 0.276
3.548 0.979 0.278
3.768 1.076 0.256
3.807 1.123 0.253
3.772 1.148 0.256
3.817 1.199 0.252
3.783 1.224 0.255
3.819 1.273 0.251
3.795 1.302 0.254
3.83 1.351 0.25
3.798 1.377 0.253
3.845 1.432 0.249
3.814 1.458 0.252
3.849 1.51 0.248
3.831 1.542 0.25
3.869 1.597 0.247
3.831 1.62 0.25
3.881 1.681 0.245
3.857 1.711 0.248
3.886 1.764 0.245
3.869 1.797 0.247
3.898 1.852 0.244
3.878 1.884 0.246
3.914 1.944 0.242
3.887 1.973 0.245
4.116 2.136 0.223
4.026 2.133 0.231
4.067 2.201 0.227
2.135 1.171 0.414
2.121 1.187 0.416
2.146 1.226 0.413
2.225 1.297 0.406
2.202 1.309 0.408
2.211 1.341 0.407
3.841 2.39 0.249
3.593 2.279 0.273
3.333 2.153 0.298
3.106 2.044 0.32
3.062 2.053 0.325
3.044 2.079 0.326
2.993 2.083 0.331
2.952 2.092 0.335
2.842 2.051 0.346
2.708 1.989 0.359
2.587 1.934 0.371
2.482 1.888 0.381
2.371 1.835 0.392
2.276 1.793 0.401
2.189 1.755 0.409
2.096 1.709 0.418
2.007 1.664 0.427
1.93 1.628 0.434
1.914 1.643 0.436
1.906 1.665 0.437
1.891 1.681 0.438
1.87 1.692 0.44
1.593 1.462 0.467
1.535 1.432 0.472
1.585 1.506 0.468
1.838 1.782 0.443
1.835 1.81 0.444
1.827 1.834 0.444
1.81 1.849 0.446
1.801 1.871 0.447
1.79 1.893 0.448
1.755 1.888 0.451
1.712 1.873 0.455
1.404 1.557 0.485
0.76 0.84 0.548
0.724 0.813 0.551
0.785 0.901 0.545
0.936 1.101 0.53
0.729 0.863 0.551
0.748 0.903 0.549
1.051 1.31 0.519
1.038 1.316 0.521
0.948 1.22 0.529
0.889 1.162 0.535
0.88 1.171 0.536
0.872 1.181 0.537
0.865 1.194 0.537
0.857 1.204 0.538
0.851 1.218 0.539
0.842 1.228 0.54
0.836 1.242 0.54
0.832 1.26 0.541
0.824 1.271 0.541
0.745 1.168 0.549
0.522 0.819 0.571
0.461 0.731 0.576
0.448 0.723 0.578
0.445 0.731 0.578
0.432 0.724 0.579
0.42 0.716 0.58
0.409 0.711 0.582
0.396 0.7 0.583
0.385 0.694 0.584
0.374 0.686 0.585
0.361 0.675 0.586
0.35 0.667 0.587
0.341 0.663 0.588
0.33 0.654 0.589
0.319 0.646 0.59
0.314 0.649 0.591
0.302 0.637 0.592
0.298 0.642 0.592
0.286 0.63 0.593
0.283 0.638 0.594
0.274 0.63 0.595
0.264 0.622 0.596
0.256 0.615 0.596
0.251 0.617 0.597
0.243 0.614 0.598
0.235 0.607 0.598
0.23 0.609 0.599
0.221 0.6 0.6
0.213 0.593 0.6
0.208 0.594 0.601
0.2 0.585 0.602
0.192 0.577 0.602
0.187 0.579 0.603
0.18 0.572 0.604
0.176 0.575 0.604
0.168 0.567 0.605
0.161 0.556 0.606
0.156 0.557 0.606
0.151 0.559 0.606
0.144 0.55 0.607
0.139 0.549 0.608
0.133 0.543 0.608
0.128 0.544 0.609
0.122 0.538 0.609
0.118 0.542 0.61
0.113 0.539 0.61
0.107 0.532 0.611
0.102 0.524 0.611
0.096 0.519 0.612
0.092 0.521 0.612
0.086 0.511 0.613
0.082 0.511 0.613
0.077 0.511 0.614
0.073 0.507 0.614
0.068 0.504 0.615
0.063 0.498 0.615
0.059 0.494 0.615
0.054 0.492 0.616
0.05 0.487 0.616
0.045 0.464 0.617
0.041 0.453 0.617
0.037 0.429 0.618
0.033 0.389 0.618
0.033 -0.376 0.618
0.036 -0.416 0.618
0.04 -0.441 0.617
0.045 -0.455 0.617
0.049 -0.466 0.617
0.053 -0.475 0.616
0.058 -0.477 0.616
0.062 -0.473 0.616
0.066 -0.473 0.615
0.07 -0.47 0.615
0.073 -0.466 0.615
0.078 -0.474 0.614
0.082 -0.471 0.614
0.086 -0.47 0.613
0.09 -0.465 0.613
0.095 -0.472 0.613
0.1 -0.48 0.612
0.103 -0.474 0.612
0.107 -0.472 0.611
0.113 -0.483 0.611
0.111 -0.447 0.611
0.117 -0.456 0.611
0.137 -0.537 0.609
0.149 -0.574 0.608
0.159 -0.598 0.607
0.17 -0.62 0.606
0.182 -0.649 0.605
0.194 -0.673 0.604
0.208 -0.704 0.602
0.221 -0.73 0.601
0.237 -0.767 0.6
0.255 -0.804 0.598
0.277 -0.856 0.596
0.309 -0.935 0.593
0.338 -1.002 0.591
0.364 -1.055 0.589
0.393 -1.115 0.586
0.428 -1.186 0.583
0.459 -1.242 0.58
0.357 -0.92 0.589
0.355 -0.889 0.589
0.382 -0.938 0.587
0.445 -1.079 0.581
0.466 -1.104 0.579
0.437 -1.004 0.582
0.441 -0.99 0.582
0.45 -0.988 0.581
0.458 -0.982 0.58
0.471 -0.988 0.579
0.544 -1.126 0.572
0.639 -1.305 0.564
0.701 -1.407 0.558
0.713 -1.401 0.557
0.726 -1.395 0.556
0.738 -1.389 0.555
0.754 -1.391 0.554
0.762 -1.377 0.553
0.778 -1.379 0.551
0.79 -1.372 0.55
0.803 -1.366 0.549
0.814 -1.359 0.548
0.826 -1.352 0.547
0.838 -1.345 0.546
0.85 -1.339 0.545
0.861 -1.331 0.544
0.878 -1.333 0.542
0.89 -1.325 0.541
0.901 -1.318 0.54
0.913 -1.31 0.539
0.924 -1.302 0.538
0.941 -1.302 0.537
0.952 -1.294 0.536
0.964 -1.286 0.535
0.975 -1.278 0.534
0.996 -1.283 0.532
1.051 -1.332 0.527
1.065 -1.327 0.526
1.062 -1.299 0.526
1.039 -1.248 0.528
1.027 -1.211 0.529
1.011 -1.171 0.531
0.999 -1.136 0.532
0.981 -1.095 0.533
0.966 -1.059 0.535
0.946 -1.019 0.536
0.94 -0.995 0.537
0.928 -0.964 0.538
0.911 -0.929 0.54
0.905 -0.907 0.54
0.896 -0.882 0.541
0.896 -0.867 0.541
0.897 -0.852 0.541
0.903 -0.844 0.54
0.903 -0.829 0.54
0.905 -0.816 0.54
0.913 -0.81 0.539
0.923 -0.805 0.538
0.931 -0.798 0.538
0.936 -0.788 0.537
0.948 -0.785 0.536
0.961 -0.782 0.535
0.965 -0.772 0.535
0.979 -0.769 0.533
0.992 -0.766 0.532
0.998 -0.757 0.532
1.011 -0.754 0.531
1.018 -0.746 0.53
1.034 -0.744 0.528
1.038 -0.734 0.528
1.055 -0.732 0.527
1.067 -0.727 0.526
1.074 -0.719 0.525
1.083 -0.711 0.524
1.1 -0.709 0.523
1.106 -0.7 0.522
1.122 -0.697 0.521
1.133 -0.69 0.52
1.15 -0.688 0.518
1.161 -0.68 0.517
1.171 -0.673 0.516
1.159 -0.653 0.517
1.16 -0.64 0.517
1.181 -0.639 0.515
1.186 -0.629 0.515
1.199 -0.623 0.514
1.212 -0.616 0.513
1.224 -0.609 0.512
1.233 -0.601 0.511
1.239 -0.59 0.51
1.262 -0.589 0.508
1.283 -0.585 0.506
1.3 -0.58 0.505
1.328 -0.579 0.502
1.354 -0.577 0.5
1.376 -0.572 0.498
1.39 -0.564 0.497
1.407 -0.557 0.495
1.43 -0.553 0.493
1.443 -0.544 0.492
1.459 -0.535 0.49
1.472 -0.526 0.489
1.495 -0.52 0.487
1.517 -0.513 0.485
1.533 -0.504 0.484
1.548 -0.494 0.482
1.572 -0.487 0.48
1.587 -0.477 0.479
1.609 -0.469 0.477
1.632 -0.46 0.475
1.654 -0.451 0.473
1.685 -0.444 0.47
1.708 -0.435 0.468
1.728 -0.424 0.466
1.746 -0.413 0.465
1.772 -0.403 0.462
1.794 -0.392 0.461
1.826 -0.383 0.458
1.85 -0.371 0.455
1.874 -0.359 0.453
1.898 -0.347 0.451
1.921 -0.334 0.449
1.945 -0.321 0.447
1.977 -0.309 0.444
2 -0.295 0.442
2.033 -0.282 0.439
2.065 -0.269 0.436
2.097 -0.254 0.433
2.119 -0.239 0.431
2.149 -0.223 0.429
2.181 -0.208 0.426
2.215 -0.192 0.423
2.246 -0.175 0.42
2.289 -0.158 0.416
2.321 -0.141 0.413
2.383 -0.124 0.408
2.462 -0.106 0.401
2.668 -0.092 0.382
3.499 -0.091 0.308
3.479 -0.06 0.31
3.471 -0.03 0.31
3.461 -0 0.311
3.44 0.03 0.313
3.43 0.06 0.314
3.434 0.089 0.314
3.729 0.13 0.287
3.734 0.162 0.287
3.779 0.197 0.283
3.897 0.237 0.272
3.867 0.269 0.275
3.933 0.308 0.269
3.936 0.343 0.269
3.969 0.381 0.266
3.946 0.413 0.268
3.988 0.452 0.264
3.925 0.48 0.27
3.651 0.478 0.294
3.637 0.509 0.296
3.718 0.553 0.288
3.793 0.598 0.282
3.835 0.639 0.278
3.803 0.668 0.281
3.843 0.709 0.277
3.811 0.737 0.28
3.86 0.782 0.276
3.84 0.813 0.277
3.87 0.854 0.275
3.845 0.884 0.277
3.887 0.929 0.273
3.865 0.959 0.275
3.962 1.02 0.266
3.569 0.951 0.302
3.543 0.977 0.304
3.865 1.103 0.275
3.905 1.152 0.272
3.879 1.181 0.274
3.912 1.228 0.271
3.892 1.259 0.273
3.936 1.311 0.269
3.906 1.339 0.271
3.934 1.387 0.269
3.909 1.417 0.271
3.937 1.466 0.269
3.909 1.494 0.271
3.964 1.555 0.266
3.935 1.583 0.269
3.975 1.639 0.265
3.934 1.663 0.269
3.977 1.722 0.265
3.953 1.752 0.267
3.998 1.814 0.263
3.966 1.841 0.266
4.011 1.905 0.262
3.988 1.937 0.264
4.034 2.003 0.26
4.006 2.033 0.263
4.205 2.18 0.245
4.14 2.192 0.251
2.316 1.245 0.414
2.167 1.188 0.427
2.141 1.198 0.429
2.166 1.237 0.427
2.219 1.293 0.422
2.211 1.314 0.423
2.22 1.345 0.422
3.838 2.387 0.278
3.594 2.278 0.299
3.336 2.154 0.323
3.117 2.049 0.342
3.063 2.052 0.347
3.054 2.085 0.348
2.995 2.083 0.353
2.962 2.097 0.356
2.846 2.052 0.366
2.719 1.996 0.378
2.596 1.939 0.389
2.483 1.888 0.399
2.382 1.843 0.408
2.288 1.801 0.416
2.191 1.755 0.425
2.106 1.716 0.433
2.008 1.664 0.441
1.93 1.627 0.448
1.914 1.642 0.45
1.901 1.659 0.451
1.892 1.681 0.452
1.878 1.698 0.453
1.604 1.471 0.478
1.536 1.432 0.484
1.585 1.505 0.479
1.846 1.789 0.456
1.837 1.812 0.457
1.828 1.834 0.457
1.811 1.849 0.459
1.803 1.873 0.46
1.793 1.896 0.461
1.763 1.896 0.463
1.713 1.873 0.468
1.405 1.557 0.495
0.769 0.85 0.552
0.716 0.803 0.557
0.784 0.899 0.551
0.926 1.088 0.538
0.73 0.865 0.556
0.74 0.892 0.555
1.046 1.302 0.527
0.991 1.253 0.532
0.931 1.197 0.538
0.892 1.166 0.541
0.882 1.174 0.542
0.88 1.192 0.542
0.868 1.198 0.543
0.865 1.216 0.544
0.859 1.23 0.544
0.849 1.238 0.545
0.843 1.253 0.546
0.833 1.262 0.546
0.827 1.275 0.547
0.763 1.197 0.553
0.525 0.823 0.574
0.462 0.732 0.58
0.457 0.737 0.58
0.445 0.731 0.581
0.432 0.722 0.582
0.42 0.716 0.583
0.409 0.71 0.585
0.397 0.703 0.586
0.385 0.694 0.587
0.374 0.686 0.588
0.361 0.676 0.589
0.351 0.671 0.59
0.343 0.667 0.59
0.33 0.654 0.592
0.325 0.66 0.592
0.314 0.649 0.593
0.306 0.646 0.594
0.298 0.644 0.594
0.289 0.637 0.595
0.283 0.638 0.596
0.272 0.626 0.597
0.265 0.624 0.597
0.26 0.626 0.598
0.251 0.617 0.599
0.242 0.611 0.599
0.235 0.607 0.6
0.23 0.609 0.601
0.221 0.6 0.601
0.213 0.593 0.602
0.205 0.584 0.603
0.2 0.586 0.603
0.192 0.578 0.604
0.186 0.574 0.604
0.18 0.572 0.605
0.175 0.573 0.605
0.168 0.565 0.606
0.161 0.558 0.607
0.156 0.56 0.607
0.151 0.559 0.608
0.144 0.55 0.608
0.14 0.552 0.609
0.133 0.543 0.609
0.128 0.544 0.61
0.123 0.54 0.61
0.117 0.532 0.611
0.113 0.539 0.611
0.107 0.531 0.612
0.102 0.525 0.612
0.096 0.519 0.612
0.092 0.521 0.613
0.086 0.511 0.613
0.082 0.512 0.614
0.077 0.51 0.614
0.072 0.506 0.615
0.068 0.51 0.615
0.063 0.499 0.615
0.058 0.492 0.616
0.054 0.493 0.616
0.05 0.484 0.617
0.045 0.473 0.617
0.041 0.452 0.617
0.036 0.429 0.618
0.033 0.389 0.618
0.033 -0.384 0.618
0.036 -0.417 0.618
0.04 -0.442 0.618
0.045 -0.467 0.617
0.049 -0.466 0.617
0.053 -0.476 0.617
0.058 -0.477 0.616
0.062 -0.474 0.616
0.066 -0.473 0.616
0.069 -0.47 0.615
0.073 -0.467 0.615
0.078 -0.477 0.614
0.082 -0.47 0.614
0.086 -0.469 0.614
0.091 -0.474 0.613
0.095 -0.472 0.613
0.1 -0.48 0.613
0.103 -0.473 0.612
0.107 -0.472 0.612
0.113 -0.483 0.612
0.11 -0.438 0.612
0.12 -0.471 0.611
0.135 -0.53 0.61
0.151 -0.584 0.608
0.159 -0.598 0.608
0.17 -0.623 0.607
0.182 -0.649 0.606
0.194 -0.673 0.605
0.207 -0.702 0.604
0.222 -0.733 0.602
0.239 -0.774 0.601
0.258 -0.816 0.599
0.28 -0.866 0.597
0.31 -0.939 0.595
0.339 -1.004 0.592
0.364 -1.056 0.59
0.395 -1.12 0.588
0.431 -1.196 0.585
0.453 -1.226 0.583
0.358 -0.922 0.591
0.355 -0.889 0.591
0.385 -0.947 0.589
0.451 -1.094 0.583
0.463 -1.096 0.582
0.438 -1.006 0.584
0.442 -0.991 0.584
0.45 -0.988 0.583
0.459 -0.984 0.582
0.473 -0.993 0.581
0.556 -1.153 0.574
0.644 -1.315 0.567
0.702 -1.408 0.562
0.714 -1.402 0.561
0.731 -1.405 0.559
0.738 -1.39 0.559
0.75 -1.384 0.558
0.767 -1.386 0.556
0.779 -1.38 0.555
0.791 -1.373 0.554
0.803 -1.366 0.553
0.815 -1.36 0.552
0.827 -1.354 0.551
0.838 -1.346 0.55
0.85 -1.339 0.549
0.862 -1.331 0.548
0.879 -1.333 0.547
0.89 -1.325 0.546
0.902 -1.318 0.545
0.913 -1.31 0.544
0.925 -1.303 0.543
0.936 -1.294 0.542
0.953 -1.295 0.541
0.965 -1.287 0.54
0.976 -1.279 0.539
0.998 -1.285 0.537
1.057 -1.34 0.532
1.066 -1.328 0.531
1.062 -1.299 0.531
1.046 -1.256 0.533
1.035 -1.221 0.534
1.019 -1.18 0.535
1.001 -1.138 0.537
0.988 -1.103 0.538
0.971 -1.064 0.539
0.956 -1.029 0.54
0.941 -0.995 0.542
0.929 -0.965 0.543
0.919 -0.937 0.543
0.914 -0.916 0.544
0.905 -0.891 0.545
0.903 -0.873 0.545
0.903 -0.859 0.545
0.904 -0.845 0.545
0.904 -0.829 0.545
0.91 -0.821 0.544
0.925 -0.82 0.543
0.921 -0.803 0.543
0.93 -0.796 0.543
0.945 -0.796 0.541
0.954 -0.79 0.541
0.96 -0.781 0.54
0.97 -0.775 0.539
0.977 -0.768 0.539
0.992 -0.766 0.537
1.004 -0.762 0.536
1.013 -0.755 0.536
1.028 -0.753 0.534
1.034 -0.744 0.534
1.048 -0.741 0.533
1.057 -0.733 0.532
1.073 -0.731 0.531
1.08 -0.722 0.53
1.085 -0.712 0.529
1.102 -0.71 0.528
1.117 -0.706 0.527
1.125 -0.698 0.526
1.137 -0.693 0.525
1.157 -0.691 0.523
1.16 -0.68 0.523
1.168 -0.671 0.522
1.158 -0.652 0.523
1.161 -0.641 0.523
1.181 -0.639 0.521
1.196 -0.634 0.52
1.208 -0.627 0.519
1.214 -0.617 0.519
1.221 -0.608 0.518
1.229 -0.599 0.517
1.244 -0.593 0.516
1.271 -0.593 0.514
1.292 -0.59 0.512
1.303 -0.581 0.511
1.329 -0.579 0.509
1.355 -0.577 0.507
1.377 -0.573 0.505
1.402 -0.569 0.503
1.418 -0.562 0.501
1.431 -0.553 0.5
1.446 -0.544 0.499
1.46 -0.535 0.498
1.483 -0.53 0.496
1.505 -0.523 0.494
1.518 -0.513 0.493
1.533 -0.504 0.492
1.549 -0.494 0.49
1.572 -0.487 0.488
1.587 -0.477 0.487
1.611 -0.469 0.485
1.635 -0.461 0.483
1.654 -0.451 0.481
1.686 -0.445 0.479
1.707 -0.435 0.477
1.73 -0.425 0.475
1.748 -0.413 0.473
1.772 -0.403 0.471
1.794 -0.392 0.47
1.827 -0.383 0.467
1.842 -0.369 0.466
1.875 -0.359 0.463
1.898 -0.347 0.461
1.923 -0.334 0.459
1.946 -0.321 0.457
1.969 -0.308 0.455
2.002 -0.295 0.452
2.034 -0.282 0.449
2.066 -0.269 0.447
2.098 -0.254 0.444
2.12 -0.239 0.442
2.149 -0.223 0.44
2.183 -0.208 0.437
2.205 -0.191 0.435
2.238 -0.174 0.432
2.281 -0.158 0.428
2.312 -0.14 0.426
2.363 -0.123 0.422
2.405 -0.104 0.418
2.58 -0.089 0.403
3.481 -0.091 0.327
3.482 -0.06 0.327
3.462 -0.03 0.329
3.452 -0 0.33
3.442 0.03 0.33
3.421 0.059 0.332
3.43 0.089 0.331
3.652 0.127 0.313
3.752 0.163 0.304
3.923 0.205 0.29
4.03 0.245 0.281
3.991 0.278 0.284
4.071 0.319 0.277
4.04 0.352 0.28
4.067 0.39 0.278
4.053 0.424 0.279
4.078 0.463 0.277
3.976 0.486 0.285
3.65 0.478 0.313
3.644 0.509 0.313
3.704 0.551 0.308
3.823 0.602 0.298
3.936 0.656 0.289
3.909 0.686 0.291
3.943 0.727 0.288
3.911 0.757 0.291
3.95 0.8 0.287
3.925 0.83 0.29
3.972 0.876 0.286
3.947 0.907 0.288
3.975 0.95 0.285
3.957 0.982 0.287
4.054 1.044 0.279
3.57 0.951 0.32
3.547 0.978 0.322
3.961 1.13 0.287
4.008 1.182 0.283
3.982 1.212 0.285
4.012 1.259 0.282
3.99 1.29 0.284
4.034 1.343 0.28
4.002 1.372 0.283
4.036 1.423 0.28
4.006 1.451 0.283
4.065 1.513 0.278
4.03 1.54 0.281
4.078 1.599 0.277
4.03 1.621 0.281
4.072 1.679 0.277
4.047 1.71 0.279
4.105 1.777 0.274
4.066 1.802 0.278
4.151 1.884 0.271
4.075 1.892 0.277
4.316 2.05 0.257
4.29 2.084 0.259
4.313 2.142 0.257
4.285 2.175 0.259
4.315 2.237 0.257
4.256 2.253 0.262
2.309 1.241 0.426
2.222 1.218 0.433
2.163 1.209 0.438
2.173 1.24 0.438
2.221 1.294 0.434
2.217 1.317 0.434
2.22 1.345 0.434
3.84 2.388 0.297
3.616 2.291 0.316
3.347 2.16 0.338
3.122 2.052 0.357
3.065 2.053 0.362
3.048 2.08 0.364
3.005 2.088 0.367
2.956 2.092 0.371
2.856 2.058 0.38
2.72 1.996 0.391
2.598 1.94 0.402
2.494 1.895 0.41
2.383 1.843 0.42
2.289 1.801 0.428
2.199 1.761 0.435
2.106 1.716 0.443
2.017 1.671 0.451
1.939 1.634 0.457
1.916 1.643 0.459
1.91 1.666 0.46
1.894 1.682 0.461
1.88 1.698 0.462
1.606 1.472 0.485
1.537 1.432 0.491
1.577 1.497 0.488
1.841 1.784 0.466
1.839 1.813 0.466
1.823 1.829 0.467
1.815 1.852 0.468
1.806 1.875 0.469
1.798 1.899 0.469
1.764 1.896 0.472
1.714 1.873 0.476
1.45 1.608 0.499
0.779 0.861 0.555
0.721 0.809 0.56
0.774 0.886 0.556
0.885 1.038 0.546
0.735 0.87 0.559
0.732 0.883 0.559
1.023 1.272 0.535
0.972 1.229 0.539
0.928 1.192 0.543
0.9 1.177 0.545
0.89 1.184 0.546
0.881 1.193 0.547
0.871 1.201 0.548
0.866 1.216 0.548
0.855 1.224 0.549
0.852 1.242 0.549
0.841 1.249 0.55
0.839 1.27 0.55
0.833 1.285 0.551
0.785 1.232 0.555
0.527 0.826 0.577
0.457 0.724 0.582
0.454 0.732 0.583
0.444 0.73 0.584
0.434 0.726 0.584
0.422 0.719 0.585
0.407 0.707 0.587
0.397 0.702 0.588
0.386 0.697 0.588
0.374 0.687 0.589
0.363 0.679 0.59
0.354 0.675 0.591
0.345 0.672 0.592
0.334 0.663 0.593
0.325 0.659 0.594
0.314 0.649 0.595
0.305 0.644 0.595
0.297 0.639 0.596
0.289 0.637 0.597
0.282 0.636 0.597
0.274 0.63 0.598
0.265 0.624 0.599
0.26 0.628 0.599
0.251 0.617 0.6
0.242 0.611 0.601
0.238 0.615 0.601
0.23 0.609 0.602
0.221 0.6 0.602
0.213 0.593 0.603
0.208 0.594 0.603
0.2 0.586 0.604
0.195 0.587 0.605
0.187 0.58 0.605
0.181 0.574 0.606
0.173 0.564 0.606
0.168 0.565 0.607
0.161 0.558 0.607
0.156 0.557 0.608
0.149 0.55 0.608
0.144 0.551 0.609
0.139 0.551 0.609
0.133 0.543 0.61
0.128 0.544 0.61
0.124 0.547 0.611
0.117 0.536 0.611
0.113 0.537 0.612
0.107 0.532 0.612
0.101 0.524 0.613
0.096 0.52 0.613
0.092 0.521 0.613
0.087 0.521 0.614
0.082 0.512 0.614
0.077 0.51 0.615
0.072 0.506 0.615
0.068 0.512 0.615
0.063 0.497 0.616
0.058 0.492 0.616
0.054 0.49 0.617
0.05 0.487 0.617
0.045 0.472 0.617
0.041 0.453 0.618
0.036 0.427 0.618
0.033 0.389 0.618
0.033 -0.385 0.619
0.036 -0.417 0.618
0.04 -0.444 0.618
0.045 -0.467 0.618
0.049 -0.467 0.617
0.053 -0.477 0.617
0.057 -0.477 0.617
0.061 -0.473 0.616
0.065 -0.473 0.616
0.069 -0.47 0.616
0.074 -0.477 0.615
0.078 -0.475 0.615
0.082 -0.472 0.615
0.086 -0.47 0.614
0.091 -0.474 0.614
0.094 -0.472 0.614
0.1 -0.481 0.613
0.103 -0.475 0.613
0.108 -0.481 0.613
0.113 -0.481 0.612
0.112 -0.45 0.612
0.12 -0.471 0.612
0.135 -0.53 0.611
0.15 -0.578 0.61
0.16 -0.604 0.609
0.17 -0.62 0.608
0.183 -0.652 0.607
0.194 -0.676 0.606
0.208 -0.704 0.605
0.221 -0.733 0.604
0.239 -0.774 0.603
0.26 -0.821 0.601
0.281 -0.869 0.599
0.31 -0.939 0.597
0.339 -1.005 0.595
0.365 -1.057 0.593
0.396 -1.123 0.591
0.432 -1.197 0.588
0.443 -1.197 0.587
0.355 -0.912 0.594
0.357 -0.894 0.594
0.39 -0.959 0.591
0.452 -1.096 0.586
0.456 -1.078 0.586
0.439 -1.01 0.587
0.442 -0.991 0.587
0.451 -0.989 0.586
0.459 -0.984 0.586
0.479 -1.006 0.584
0.567 -1.176 0.577
0.657 -1.342 0.57
0.702 -1.408 0.567
0.714 -1.402 0.566
0.727 -1.396 0.565
0.739 -1.39 0.564
0.751 -1.385 0.563
0.767 -1.386 0.562
0.775 -1.371 0.561
0.787 -1.365 0.56
0.804 -1.367 0.559
0.816 -1.361 0.558
0.828 -1.354 0.557
0.839 -1.347 0.556
0.85 -1.339 0.556
0.863 -1.332 0.555
0.874 -1.325 0.554
0.891 -1.326 0.552
0.903 -1.318 0.552
0.914 -1.311 0.551
0.925 -1.303 0.55
0.942 -1.303 0.548
0.954 -1.295 0.548
0.965 -1.287 0.547
0.976 -1.279 0.546
0.998 -1.285 0.544
1.056 -1.338 0.54
1.067 -1.329 0.539
1.07 -1.308 0.539
1.051 -1.261 0.54
1.037 -1.222 0.541
1.027 -1.188 0.542
1.008 -1.145 0.543
0.99 -1.105 0.545
0.971 -1.064 0.546
0.957 -1.03 0.547
0.95 -1.004 0.548
0.936 -0.972 0.549
0.921 -0.939 0.55
0.913 -0.914 0.551
0.916 -0.902 0.551
0.905 -0.875 0.551
0.911 -0.866 0.551
0.912 -0.852 0.551
0.911 -0.836 0.551
0.914 -0.825 0.551
0.922 -0.817 0.55
0.932 -0.812 0.549
0.939 -0.804 0.549
0.947 -0.797 0.548
0.957 -0.792 0.547
0.964 -0.784 0.547
0.978 -0.782 0.546
0.988 -0.776 0.545
0.992 -0.766 0.545
1.01 -0.766 0.543
1.022 -0.762 0.542
1.03 -0.754 0.542
1.043 -0.75 0.541
1.05 -0.742 0.54
1.064 -0.738 0.539
1.074 -0.731 0.538
1.085 -0.726 0.537
1.095 -0.719 0.537
1.112 -0.716 0.535
1.12 -0.708 0.535
1.137 -0.705 0.534
1.148 -0.699 0.533
1.165 -0.696 0.531
1.167 -0.684 0.531
1.171 -0.672 0.531
1.156 -0.65 0.532
1.162 -0.641 0.532
1.183 -0.639 0.53
1.208 -0.64 0.528
1.21 -0.628 0.528
1.218 -0.619 0.527
1.213 -0.603 0.528
1.225 -0.596 0.527
1.242 -0.592 0.525
1.266 -0.59 0.524
1.295 -0.59 0.521
1.304 -0.581 0.521
1.335 -0.582 0.518
1.365 -0.581 0.516
1.387 -0.577 0.514
1.402 -0.569 0.513
1.418 -0.562 0.512
1.431 -0.552 0.511
1.446 -0.544 0.51
1.461 -0.536 0.509
1.484 -0.53 0.507
1.506 -0.523 0.505
1.519 -0.513 0.504
1.535 -0.504 0.503
1.549 -0.494 0.502
1.573 -0.487 0.5
1.589 -0.477 0.499
1.611 -0.469 0.497
1.635 -0.461 0.495
1.655 -0.451 0.494
1.687 -0.445 0.491
1.71 -0.435 0.489
1.733 -0.425 0.488
1.749 -0.413 0.486
1.773 -0.403 0.484
1.805 -0.394 0.482
1.83 -0.383 0.48
1.843 -0.369 0.479
1.875 -0.359 0.477
1.899 -0.347 0.475
1.923 -0.334 0.473
1.947 -0.321 0.471
1.979 -0.309 0.469
2.003 -0.295 0.467
2.035 -0.282 0.464
2.057 -0.267 0.463
2.099 -0.254 0.459
2.12 -0.239 0.458
2.152 -0.223 0.455
2.184 -0.208 0.453
2.217 -0.192 0.45
2.239 -0.174 0.449
2.272 -0.157 0.446
2.313 -0.14 0.443
2.355 -0.122 0.44
2.398 -0.104 0.436
2.504 -0.087 0.428
2.717 -0.07 0.412
3.485 -0.06 0.353
3.464 -0.03 0.354
3.454 -0 0.355
3.434 0.03 0.357
3.424 0.059 0.357
3.437 0.089 0.356
3.586 0.124 0.345
3.676 0.16 0.338
4.039 0.211 0.31
4.156 0.253 0.301
4.127 0.287 0.303
4.139 0.324 0.302
4.143 0.361 0.302
4.167 0.399 0.3
4.142 0.433 0.302
4.176 0.474 0.299
4.092 0.5 0.306
3.651 0.478 0.34
3.64 0.509 0.341
3.697 0.549 0.336
3.754 0.591 0.332
4.024 0.67 0.311
4.008 0.703 0.312
4.053 0.747 0.309
4.013 0.776 0.312
4.05 0.82 0.309
4.026 0.851 0.311
4.069 0.898 0.308
4.041 0.928 0.31
4.084 0.976 0.307
4.056 1.006 0.309
4.136 1.064 0.303
3.578 0.953 0.346
3.54 0.976 0.348
4.066 1.16 0.308
4.134 1.218 0.303
4.065 1.236 0.308
4.114 1.291 0.304
4.102 1.326 0.305
4.122 1.372 0.304
4.099 1.405 0.305
4.155 1.464 0.301
4.117 1.491 0.304
4.176 1.554 0.299
4.13 1.578 0.303
4.177 1.638 0.299
4.14 1.664 0.302
4.198 1.73 0.298
4.351 1.838 0.286
4.36 1.887 0.285
4.371 1.937 0.284
4.396 1.994 0.283
4.376 2.032 0.284
4.391 2.085 0.283
4.384 2.129 0.283
4.395 2.181 0.283
4.378 2.22 0.284
4.43 2.296 0.28
4.365 2.31 0.285
2.314 1.243 0.443
2.296 1.259 0.444
2.199 1.23 0.452
2.195 1.252 0.452
2.218 1.291 0.45
2.224 1.321 0.45
2.309 1.399 0.443
3.837 2.384 0.326
3.636 2.302 0.341
3.369 2.173 0.362
3.118 2.048 0.381
3.067 2.053 0.385
3.05 2.08 0.386
2.999 2.083 0.39
2.956 2.092 0.393
2.866 2.065 0.4
2.731 2.003 0.411
2.608 1.947 0.42
2.495 1.895 0.429
2.392 1.849 0.437
2.299 1.808 0.444
2.201 1.761 0.452
2.115 1.722 0.458
2.018 1.671 0.466
1.94 1.634 0.472
1.918 1.644 0.473
1.912 1.668 0.474
1.896 1.683 0.475
1.889 1.706 0.476
1.616 1.481 0.497
1.538 1.433 0.503
1.577 1.496 0.5
1.839 1.78 0.479
1.835 1.808 0.48
1.825 1.829 0.481
1.816 1.852 0.481
1.807 1.875 0.482
1.798 1.899 0.483
1.766 1.897 0.485
1.714 1.873 0.489
1.491 1.654 0.506
0.791 0.875 0.56
0.721 0.809 0.565
0.777 0.889 0.561
0.939 1.103 0.549
0.736 0.871 0.564
0.728 0.877 0.565
0.983 1.22 0.545
0.947 1.195 0.548
0.911 1.169 0.551
0.903 1.179 0.552
0.892 1.186 0.552
0.884 1.198 0.553
0.873 1.203 0.554
0.868 1.22 0.554
0.863 1.235 0.555
0.856 1.247 0.555
0.85 1.263 0.556
0.839 1.27 0.556
0.832 1.284 0.557
0.804 1.263 0.559
0.539 0.845 0.58
0.463 0.732 0.585
0.457 0.737 0.586
0.447 0.735 0.587
0.433 0.724 0.588
0.421 0.718 0.589
0.409 0.711 0.59
0.397 0.703 0.59
0.386 0.696 0.591
0.374 0.686 0.592
0.366 0.686 0.593
0.351 0.671 0.594
0.346 0.673 0.594
0.334 0.663 0.595
0.324 0.656 0.596
0.315 0.651 0.597
0.305 0.644 0.598
0.297 0.639 0.598
0.289 0.637 0.599
0.283 0.638 0.599
0.273 0.628 0.6
0.265 0.624 0.601
0.26 0.626 0.601
0.25 0.616 0.602
0.243 0.614 0.602
0.238 0.615 0.603
0.23 0.611 0.603
0.224 0.61 0.604
0.213 0.593 0.605
0.209 0.596 0.605
0.2 0.586 0.606
0.195 0.588 0.606
0.188 0.581 0.607
0.181 0.575 0.607
0.173 0.566 0.608
0.168 0.565 0.608
0.161 0.559 0.609
0.156 0.559 0.609
0.151 0.56 0.609
0.144 0.551 0.61
0.139 0.551 0.61
0.134 0.552 0.611
0.128 0.544 0.611
0.124 0.547 0.612
0.118 0.541 0.612
0.113 0.541 0.612
0.107 0.531 0.613
0.103 0.534 0.613
0.097 0.528 0.614
0.092 0.522 0.614
0.087 0.521 0.614
0.082 0.512 0.615
0.077 0.509 0.615
0.073 0.515 0.615
0.068 0.51 0.616
0.064 0.508 0.616
0.058 0.495 0.617
0.054 0.5 0.617
0.049 0.487 0.617
0.045 0.473 0.618
0.04 0.452 0.618
0.036 0.426 0.618
0.033 0.387 0.619
0.032 -0.376 0.619
0.036 -0.416 0.618
0.04 -0.444 0.618
0.045 -0.467 0.618
0.049 -0.467 0.618
0.053 -0.476 0.617
0.057 -0.477 0.617
0.061 -0.473 0.617
0.065 -0.473 0.616
0.069 -0.47 0.616
0.073 -0.467 0.616
0.078 -0.475 0.615
0.082 -0.47 0.615
0.086 -0.47 0.615
0.091 -0.474 0.615
0.094 -0.472 0.614
0.1 -0.48 0.614
0.103 -0.475 0.614
0.108 -0.481 0.613
0.113 -0.481 0.613
0.111 -0.448 0.613
0.12 -0.474 0.612
0.139 -0.549 0.611
0.15 -0.578 0.61
0.16 -0.604 0.609
0.171 -0.626 0.609
0.183 -0.655 0.608
0.194 -0.676 0.607
0.208 -0.704 0.606
0.222 -0.737 0.605
0.24 -0.777 0.604
0.258 -0.816 0.602
0.281 -0.869 0.601
0.311 -0.942 0.599
0.339 -1.005 0.597
0.364 -1.056 0.595
0.398 -1.128 0.592
0.435 -1.206 0.59
0.433 -1.167 0.59
0.355 -0.914 0.595
0.356 -0.892 0.595
0.389 -0.956 0.593
0.456 -1.105 0.588
0.451 -1.065 0.589
0.436 -1.002 0.59
0.443 -0.993 0.589
0.451 -0.988 0.589
0.459 -0.983 0.588
0.48 -1.008 0.586
0.576 -1.197 0.579
0.661 -1.351 0.573
0.702 -1.407 0.57
0.715 -1.403 0.569
0.726 -1.395 0.569
0.739 -1.391 0.568
0.751 -1.384 0.567
0.763 -1.378 0.566
0.775 -1.371 0.565
0.792 -1.374 0.564
0.804 -1.366 0.563
0.816 -1.361 0.562
0.827 -1.353 0.561
0.839 -1.347 0.561
0.851 -1.339 0.56
0.868 -1.341 0.558
0.874 -1.324 0.558
0.891 -1.326 0.557
0.902 -1.318 0.556
0.914 -1.311 0.555
0.925 -1.302 0.554
0.943 -1.304 0.553
0.953 -1.294 0.552
0.965 -1.287 0.551
0.976 -1.278 0.551
0.998 -1.285 0.549
1.062 -1.345 0.544
1.066 -1.326 0.544
1.069 -1.307 0.544
1.057 -1.269 0.545
1.037 -1.222 0.546
1.027 -1.188 0.547
1.015 -1.154 0.548
0.997 -1.112 0.549
0.985 -1.079 0.55
0.965 -1.039 0.551
0.958 -1.012 0.552
0.943 -0.979 0.553
0.929 -0.947 0.554
0.921 -0.922 0.555
0.915 -0.901 0.555
0.913 -0.882 0.555
0.912 -0.866 0.555
0.912 -0.852 0.555
0.922 -0.846 0.555
0.917 -0.827 0.555
0.925 -0.82 0.554
0.938 -0.818 0.553
0.948 -0.812 0.553
0.95 -0.8 0.553
0.965 -0.799 0.551
0.972 -0.791 0.551
0.976 -0.78 0.551
0.991 -0.778 0.55
1.003 -0.774 0.549
1.009 -0.765 0.548
1.024 -0.763 0.547
1.032 -0.755 0.547
1.045 -0.751 0.546
1.058 -0.747 0.545
1.07 -0.742 0.544
1.082 -0.737 0.543
1.087 -0.727 0.543
1.104 -0.725 0.541
1.114 -0.718 0.541
1.131 -0.715 0.54
1.138 -0.706 0.539
1.156 -0.704 0.538
1.171 -0.7 0.537
1.171 -0.686 0.537
1.169 -0.671 0.537
1.155 -0.65 0.538
1.159 -0.639 0.537
1.182 -0.639 0.536
1.206 -0.639 0.534
1.212 -0.629 0.534
1.216 -0.618 0.533
1.206 -0.599 0.534
1.215 -0.591 0.533
1.235 -0.588 0.532
1.25 -0.582 0.531
1.28 -0.583 0.529
1.305 -0.581 0.527
1.345 -0.586 0.524
1.372 -0.584 0.522
1.387 -0.576 0.521
1.404 -0.569 0.52
1.416 -0.56 0.519
1.429 -0.552 0.518
1.454 -0.547 0.516
1.468 -0.538 0.515
1.482 -0.529 0.514
1.506 -0.523 0.512
1.521 -0.514 0.511
1.534 -0.504 0.51
1.558 -0.497 0.509
1.572 -0.487 0.508
1.589 -0.477 0.506
1.61 -0.469 0.505
1.633 -0.46 0.503
1.656 -0.451 0.502
1.688 -0.445 0.499
1.71 -0.435 0.498
1.726 -0.423 0.497
1.749 -0.413 0.495
1.773 -0.403 0.493
1.796 -0.392 0.492
1.819 -0.381 0.49
1.844 -0.369 0.488
1.876 -0.359 0.486
1.9 -0.347 0.484
1.924 -0.334 0.482
1.947 -0.321 0.481
1.97 -0.308 0.479
2.003 -0.295 0.477
2.036 -0.282 0.474
2.068 -0.269 0.472
2.09 -0.253 0.47
2.121 -0.239 0.468
2.152 -0.223 0.466
2.184 -0.208 0.464
2.217 -0.192 0.461
2.24 -0.174 0.46
2.272 -0.157 0.457
2.303 -0.139 0.455
2.357 -0.122 0.451
2.387 -0.103 0.449
2.447 -0.085 0.445
2.614 -0.068 0.433
3.485 -0.06 0.37
3.465 -0.03 0.371
3.456 -0 0.372
3.434 0.03 0.373
3.424 0.059 0.374
3.439 0.089 0.373
3.566 0.124 0.364
3.64 0.158 0.359
3.791 0.198 0.348
4 0.243 0.333
4.238 0.295 0.315
4.294 0.336 0.311
4.234 0.369 0.316
4.268 0.409 0.313
4.232 0.443 0.316
4.283 0.486 0.312
4.259 0.52 0.314
3.649 0.477 0.358
3.638 0.508 0.359
3.696 0.549 0.354
3.701 0.583 0.354
4.026 0.67 0.331
4.116 0.722 0.324
4.169 0.769 0.32
4.127 0.798 0.323
4.177 0.845 0.32
4.14 0.875 0.322
4.183 0.922 0.319
4.151 0.953 0.322
4.202 1.004 0.318
4.167 1.033 0.321
4.152 1.068 0.322
3.597 0.958 0.362
3.553 0.979 0.365
4.321 1.233 0.309
4.289 1.264 0.312
4.197 1.276 0.318
4.238 1.329 0.315
4.199 1.357 0.318
4.253 1.416 0.314
4.223 1.447 0.316
4.477 1.578 0.298
4.249 1.539 0.315
4.476 1.666 0.298
4.452 1.701 0.3
4.489 1.76 0.297
4.484 1.803 0.298
4.51 1.859 0.296
4.457 1.883 0.3
4.499 1.947 0.297
4.465 1.979 0.299
4.47 2.027 0.299
4.424 2.053 0.302
4.472 2.123 0.299
4.475 2.173 0.298
4.495 2.231 0.297
4.475 2.269 0.298
4.501 2.332 0.296
4.452 2.356 0.3
2.315 1.243 0.454
2.301 1.261 0.455
2.293 1.282 0.456
2.171 1.238 0.464
2.202 1.281 0.462
2.232 1.325 0.46
3.876 2.362 0.341
3.837 2.384 0.344
3.642 2.306 0.358
3.371 2.174 0.378
3.129 2.055 0.395
3.065 2.051 0.4
3.047 2.078 0.401
3.005 2.087 0.404
2.962 2.095 0.407
2.866 2.064 0.414
2.619 1.919 0.432
2.61 1.947 0.433
2.504 1.901 0.44
2.393 1.849 0.448
2.299 1.808 0.455
2.21 1.768 0.462
2.116 1.722 0.468
2.026 1.677 0.475
1.939 1.633 0.481
1.92 1.645 0.483
1.91 1.666 0.483
1.898 1.684 0.484
1.881 1.698 0.485
1.618 1.482 0.504
1.538 1.432 0.51
1.574 1.493 0.508
1.805 1.747 0.491
1.836 1.808 0.489
1.824 1.828 0.489
1.817 1.852 0.49
1.807 1.874 0.491
1.8 1.901 0.491
1.766 1.897 0.494
1.721 1.88 0.497
1.468 1.627 0.515
0.817 0.905 0.562
0.724 0.811 0.569
0.775 0.887 0.565
0.923 1.083 0.555
0.729 0.863 0.568
0.725 0.873 0.569
0.939 1.164 0.553
0.943 1.189 0.553
0.909 1.167 0.555
0.9 1.176 0.556
0.895 1.191 0.556
0.887 1.201 0.557
0.878 1.211 0.558
0.872 1.225 0.558
0.867 1.24 0.559
0.861 1.256 0.559
0.855 1.271 0.559
0.845 1.279 0.56
0.841 1.298 0.56
0.806 1.266 0.563
0.538 0.843 0.582
0.464 0.734 0.588
0.456 0.736 0.588
0.445 0.731 0.589
0.434 0.727 0.59
0.421 0.718 0.591
0.409 0.711 0.592
0.401 0.71 0.592
0.386 0.696 0.593
0.373 0.686 0.594
0.363 0.679 0.595
0.353 0.673 0.596
0.346 0.673 0.596
0.335 0.665 0.597
0.326 0.66 0.598
0.315 0.652 0.598
0.306 0.646 0.599
0.296 0.637 0.6
0.289 0.638 0.6
0.282 0.636 0.601
0.273 0.627 0.601
0.266 0.627 0.602
0.259 0.624 0.602
0.251 0.617 0.603
0.242 0.611 0.604
0.235 0.607 0.604
0.23 0.609 0.604
0.221 0.6 0.605
0.214 0.595 0.606
0.209 0.596 0.606
0.2 0.585 0.607
0.195 0.588 0.607
0.187 0.58 0.608
0.181 0.575 0.608
0.175 0.573 0.608
0.168 0.565 0.609
0.163 0.568 0.609
0.156 0.56 0.61
0.151 0.559 0.61
0.144 0.551 0.611
0.139 0.551 0.611
0.133 0.542 0.611
0.128 0.544 0.612
0.122 0.538 0.612
0.117 0.533 0.613
0.112 0.537 0.613
0.107 0.532 0.613
0.103 0.534 0.614
0.097 0.528 0.614
0.092 0.521 0.614
0.087 0.522 0.615
0.082 0.512 0.615
0.077 0.51 0.616
0.073 0.515 0.616
0.068 0.516 0.616
0.063 0.496 0.617
0.058 0.495 0.617
0.054 0.492 0.617
0.049 0.486 0.617
0.045 0.472 0.618
0.04 0.454 0.618
0.036 0.427 0.618
0.032 0.379 0.619
0.032 -0.374 0.619
0.036 -0.417 0.619
0.04 -0.446 0.618
0.044 -0.466 0.618
0.049 -0.467 0.618
0.053 -0.475 0.618
0.057 -0.476 0.617
0.061 -0.473 0.617
0.065 -0.472 0.617
0.069 -0.47 0.617
0.074 -0.477 0.616
0.077 -0.465 0.616
0.082 -0.469 0.616
0.086 -0.469 0.616
0.09 -0.472 0.615
0.094 -0.472 0.615
0.1 -0.48 0.615
0.103 -0.475 0.614
0.108 -0.481 0.614
0.112 -0.477 0.614
0.11 -0.443 0.614
0.119 -0.47 0.613
0.136 -0.535 0.612
0.15 -0.578 0.611
0.159 -0.598 0.611
0.169 -0.62 0.61
0.182 -0.652 0.609
0.193 -0.673 0.609
0.208 -0.704 0.608
0.223 -0.74 0.607
0.239 -0.774 0.606
0.258 -0.816 0.604
0.28 -0.866 0.603
0.313 -0.951 0.601
0.339 -1.005 0.599
0.368 -1.066 0.597
0.4 -1.134 0.595
0.435 -1.206 0.593
0.409 -1.096 0.595
0.352 -0.904 0.598
0.355 -0.889 0.598
0.393 -0.967 0.596
0.456 -1.105 0.592
0.447 -1.055 0.592
0.436 -1.001 0.593
0.438 -0.981 0.593
0.451 -0.989 0.592
0.458 -0.981 0.591
0.486 -1.02 0.59
0.587 -1.219 0.583
0.665 -1.36 0.578
0.702 -1.406 0.576
0.714 -1.4 0.575
0.726 -1.395 0.574
0.739 -1.389 0.573
0.751 -1.383 0.572
0.763 -1.377 0.572
0.775 -1.37 0.571
0.791 -1.372 0.57
0.803 -1.366 0.569
0.815 -1.359 0.568
0.827 -1.353 0.568
0.839 -1.346 0.567
0.85 -1.338 0.566
0.863 -1.331 0.565
0.874 -1.323 0.565
0.891 -1.325 0.563
0.903 -1.318 0.563
0.914 -1.31 0.562
0.925 -1.302 0.561
0.937 -1.294 0.56
0.954 -1.294 0.559
0.965 -1.286 0.559
0.976 -1.278 0.558
0.997 -1.283 0.557
1.068 -1.353 0.552
1.065 -1.325 0.552
1.068 -1.305 0.552
1.064 -1.277 0.552
1.044 -1.23 0.553
1.034 -1.196 0.554
1.023 -1.163 0.555
1.003 -1.118 0.556
0.985 -1.079 0.557
0.971 -1.045 0.558
0.959 -1.014 0.559
0.945 -0.981 0.56
0.939 -0.957 0.56
0.928 -0.929 0.561
0.922 -0.907 0.561
0.92 -0.89 0.562
0.919 -0.873 0.562
0.92 -0.859 0.562
0.922 -0.846 0.561
0.926 -0.835 0.561
0.931 -0.826 0.561
0.933 -0.812 0.561
0.949 -0.813 0.56
0.956 -0.804 0.559
0.965 -0.798 0.559
0.973 -0.791 0.558
0.984 -0.786 0.557
0.99 -0.777 0.557
1.009 -0.778 0.556
1.011 -0.766 0.556
1.032 -0.769 0.554
1.039 -0.76 0.554
1.053 -0.757 0.553
1.059 -0.748 0.553
1.073 -0.744 0.552
1.087 -0.74 0.551
1.098 -0.734 0.55
1.105 -0.725 0.55
1.122 -0.722 0.548
1.139 -0.72 0.547
1.153 -0.716 0.546
1.163 -0.708 0.546
1.177 -0.703 0.545
1.174 -0.688 0.545
1.166 -0.669 0.546
1.158 -0.651 0.546
1.151 -0.634 0.547
1.182 -0.638 0.545
1.198 -0.634 0.544
1.212 -0.629 0.543
1.209 -0.614 0.543
1.196 -0.594 0.544
1.196 -0.581 0.544
1.237 -0.589 0.541
1.25 -0.582 0.54
1.268 -0.577 0.539
1.283 -0.571 0.538
1.348 -0.587 0.534
1.374 -0.585 0.532
1.387 -0.576 0.531
1.403 -0.569 0.53
1.426 -0.564 0.529
1.44 -0.556 0.528
1.454 -0.547 0.527
1.469 -0.538 0.526
1.483 -0.529 0.525
1.505 -0.523 0.524
1.519 -0.513 0.523
1.535 -0.504 0.522
1.558 -0.497 0.52
1.572 -0.487 0.519
1.597 -0.479 0.518
1.609 -0.468 0.517
1.641 -0.462 0.515
1.665 -0.454 0.513
1.686 -0.444 0.512
1.71 -0.435 0.51
1.726 -0.423 0.509
1.75 -0.413 0.508
1.774 -0.403 0.506
1.797 -0.392 0.505
1.821 -0.381 0.503
1.844 -0.369 0.502
1.876 -0.359 0.5
1.901 -0.347 0.498
1.924 -0.334 0.497
1.948 -0.321 0.495
1.97 -0.308 0.494
2.004 -0.295 0.491
2.026 -0.281 0.49
2.068 -0.269 0.487
2.09 -0.253 0.486
2.122 -0.239 0.484
2.152 -0.223 0.482
2.185 -0.208 0.48
2.206 -0.191 0.478
2.24 -0.174 0.476
2.273 -0.157 0.474
2.304 -0.139 0.472
2.345 -0.121 0.469
2.388 -0.103 0.467
2.429 -0.084 0.464
2.579 -0.067 0.454
3.486 -0.06 0.396
3.466 -0.03 0.397
3.457 -0 0.397
3.435 0.03 0.399
3.424 0.059 0.4
3.429 0.089 0.399
3.549 0.123 0.391
3.614 0.157 0.387
3.714 0.193 0.381
3.825 0.232 0.374
4.337 0.302 0.34
4.372 0.342 0.338
4.369 0.38 0.338
4.382 0.42 0.338
4.359 0.456 0.339
4.382 0.497 0.338
4.366 0.533 0.339
3.657 0.478 0.384
3.63 0.507 0.386
3.718 0.552 0.381
3.721 0.586 0.38
3.88 0.645 0.37
4.237 0.743 0.347
4.273 0.788 0.345
4.227 0.817 0.348
4.281 0.866 0.344
4.241 0.897 0.347
4.286 0.945 0.344
4.26 0.978 0.345
4.296 1.026 0.343
4.273 1.06 0.345
4.151 1.067 0.352
3.607 0.96 0.388
3.544 0.976 0.392
4.477 1.277 0.331
4.472 1.318 0.332
4.342 1.32 0.34
4.597 1.442 0.324
4.338 1.402 0.34
4.599 1.531 0.323
4.558 1.561 0.326
4.579 1.613 0.325
4.546 1.646 0.327
4.627 1.722 0.322
4.584 1.751 0.324
4.593 1.8 0.324
4.579 1.841 0.325
4.621 1.905 0.322
4.567 1.929 0.326
4.589 1.985 0.324
4.528 2.006 0.328
4.577 2.076 0.325
4.541 2.107 0.327
4.599 2.183 0.323
4.601 2.233 0.323
4.622 2.293 0.322
4.57 2.317 0.325
4.619 2.393 0.322
4.472 2.366 0.332
2.316 1.243 0.471
2.293 1.256 0.473
2.284 1.277 0.473
2.181 1.243 0.48
2.202 1.281 0.479
2.233 1.325 0.477
2.222 1.344 0.477
3.846 2.388 0.372
3.677 2.327 0.383
3.377 2.176 0.403
3.135 2.058 0.418
2.007 1.335 0.491
3.054 2.081 0.423
3.007 2.087 0.426
2.963 2.095 0.429
2.867 2.064 0.436
2.701 1.979 0.446
2.618 1.953 0.452
2.505 1.901 0.459
2.394 1.849 0.466
2.299 1.807 0.472
2.21 1.767 0.478
2.116 1.721 0.484
2.026 1.676 0.49
1.939 1.632 0.496
1.918 1.643 0.497
1.904 1.659 0.498
1.896 1.682 0.498
1.888 1.704 0.499
1.618 1.482 0.516
1.539 1.432 0.521
1.564 1.482 0.52
1.756 1.698 0.507
1.834 1.805 0.502
1.825 1.828 0.503
1.815 1.85 0.504
1.807 1.874 0.504
1.8 1.899 0.505
1.767 1.897 0.507
1.722 1.88 0.51
1.411 1.562 0.53
0.85 0.943 0.566
0.723 0.81 0.574
0.775 0.887 0.571
0.903 1.058 0.563
0.724 0.856 0.574
0.72 0.866 0.574
0.944 1.169 0.56
0.944 1.19 0.56
0.91 1.167 0.562
0.908 1.186 0.562
0.896 1.192 0.563
0.892 1.207 0.563
0.883 1.218 0.564
0.878 1.234 0.564
0.867 1.24 0.565
0.866 1.263 0.565
0.856 1.271 0.566
0.852 1.29 0.566
0.84 1.295 0.567
0.821 1.29 0.568
0.534 0.837 0.586
0.469 0.743 0.591
0.454 0.732 0.592
0.446 0.733 0.592
0.438 0.734 0.593
0.422 0.72 0.594
0.409 0.71 0.595
0.4 0.709 0.595
0.385 0.693 0.596
0.373 0.686 0.597
0.361 0.675 0.598
0.351 0.671 0.598
0.345 0.672 0.599
0.332 0.66 0.6
0.326 0.66 0.6
0.314 0.649 0.601
0.306 0.646 0.601
0.298 0.642 0.602
0.289 0.637 0.602
0.283 0.638 0.603
0.274 0.63 0.603
0.265 0.624 0.604
0.26 0.626 0.604
0.251 0.619 0.605
0.243 0.614 0.605
0.235 0.607 0.606
0.23 0.609 0.606
0.222 0.602 0.607
0.213 0.593 0.607
0.208 0.594 0.608
0.201 0.588 0.608
0.195 0.588 0.608
0.187 0.58 0.609
0.18 0.572 0.609
0.175 0.573 0.61
0.168 0.568 0.61
0.161 0.559 0.611
0.156 0.557 0.611
0.151 0.559 0.611
0.145 0.557 0.612
0.139 0.551 0.612
0.134 0.552 0.612
0.128 0.544 0.613
0.122 0.538 0.613
0.118 0.542 0.613
0.113 0.541 0.614
0.108 0.542 0.614
0.101 0.525 0.614
0.097 0.528 0.615
0.091 0.521 0.615
0.087 0.521 0.615
0.081 0.512 0.616
0.077 0.51 0.616
0.072 0.506 0.616
0.067 0.504 0.617
0.063 0.498 0.617
0.058 0.495 0.617
0.054 0.49 0.618
0.049 0.487 0.618
0.045 0.473 0.618
0.04 0.46 0.618
0.036 0.429 0.619
0.032 0.397 0.619
0.032 -0.384 0.619
0.036 -0.406 0.619
0.04 -0.436 0.619
0.044 -0.467 0.618
0.048 -0.467 0.618
0.053 -0.477 0.618
0.057 -0.477 0.618
0.061 -0.473 0.617
0.065 -0.472 0.617
0.07 -0.478 0.617
0.074 -0.476 0.617
0.078 -0.475 0.616
0.082 -0.47 0.616
0.086 -0.47 0.616
0.09 -0.471 0.616
0.096 -0.482 0.615
0.1 -0.48 0.615
0.103 -0.474 0.615
0.108 -0.48 0.615
0.112 -0.477 0.614
0.11 -0.443 0.614
0.119 -0.47 0.614
0.137 -0.539 0.613
0.148 -0.571 0.612
0.16 -0.601 0.611
0.17 -0.623 0.611
0.18 -0.642 0.61
0.193 -0.673 0.609
0.208 -0.704 0.609
0.224 -0.743 0.608
0.239 -0.774 0.607
0.258 -0.816 0.606
0.279 -0.862 0.604
0.314 -0.954 0.602
0.342 -1.014 0.601
0.367 -1.065 0.599
0.4 -1.133 0.597
0.435 -1.207 0.595
0.394 -1.051 0.597
0.353 -0.907 0.6
0.354 -0.886 0.6
0.394 -0.97 0.597
0.459 -1.114 0.594
0.442 -1.042 0.595
0.436 -1 0.595
0.442 -0.991 0.595
0.45 -0.987 0.594
0.458 -0.982 0.594
0.486 -1.02 0.592
0.601 -1.25 0.585
0.669 -1.369 0.581
0.702 -1.407 0.579
0.715 -1.402 0.578
0.726 -1.394 0.578
0.739 -1.39 0.577
0.751 -1.383 0.576
0.763 -1.377 0.575
0.775 -1.37 0.575
0.787 -1.364 0.574
0.803 -1.366 0.573
0.816 -1.36 0.572
0.828 -1.353 0.572
0.839 -1.345 0.571
0.851 -1.338 0.57
0.862 -1.331 0.569
0.874 -1.324 0.569
0.891 -1.325 0.568
0.903 -1.318 0.567
0.914 -1.31 0.566
0.925 -1.301 0.566
0.937 -1.294 0.565
0.954 -1.294 0.564
0.965 -1.286 0.563
0.976 -1.278 0.563
0.998 -1.283 0.561
1.068 -1.353 0.557
1.071 -1.333 0.557
1.072 -1.309 0.557
1.067 -1.28 0.557
1.055 -1.243 0.558
1.036 -1.198 0.559
1.024 -1.163 0.56
1.01 -1.127 0.561
0.991 -1.086 0.562
0.977 -1.051 0.563
0.963 -1.017 0.563
0.952 -0.988 0.564
0.945 -0.964 0.564
0.936 -0.938 0.565
0.928 -0.913 0.566
0.922 -0.892 0.566
0.921 -0.875 0.566
0.921 -0.86 0.566
0.931 -0.854 0.565
0.932 -0.84 0.565
0.934 -0.828 0.565
0.942 -0.821 0.565
0.956 -0.819 0.564
0.958 -0.806 0.564
0.966 -0.799 0.563
0.98 -0.796 0.562
0.993 -0.794 0.562
0.999 -0.784 0.561
1.009 -0.778 0.561
1.02 -0.773 0.56
1.028 -0.766 0.56
1.039 -0.76 0.559
1.052 -0.756 0.558
1.066 -0.752 0.557
1.081 -0.749 0.556
1.087 -0.74 0.556
1.115 -0.745 0.554
1.115 -0.731 0.554
1.138 -0.733 0.553
1.144 -0.723 0.553
1.167 -0.724 0.551
1.173 -0.714 0.551
1.181 -0.705 0.55
1.174 -0.687 0.551
1.172 -0.672 0.551
1.16 -0.652 0.552
1.162 -0.64 0.552
1.171 -0.632 0.551
1.189 -0.629 0.55
1.204 -0.624 0.549
1.193 -0.605 0.55
1.182 -0.587 0.55
1.194 -0.581 0.55
1.219 -0.58 0.548
1.241 -0.578 0.547
1.263 -0.575 0.545
1.284 -0.571 0.544
1.335 -0.581 0.541
1.382 -0.588 0.538
1.397 -0.58 0.537
1.413 -0.573 0.537
1.427 -0.565 0.536
1.441 -0.556 0.535
1.454 -0.547 0.534
1.47 -0.539 0.533
1.491 -0.532 0.532
1.512 -0.525 0.531
1.527 -0.516 0.53
1.545 -0.507 0.529
1.559 -0.497 0.528
1.573 -0.487 0.527
1.596 -0.479 0.526
1.618 -0.471 0.524
1.634 -0.46 0.523
1.666 -0.454 0.521
1.689 -0.445 0.52
1.711 -0.435 0.519
1.725 -0.423 0.518
1.75 -0.413 0.516
1.774 -0.403 0.515
1.797 -0.392 0.514
1.831 -0.383 0.512
1.844 -0.369 0.511
1.876 -0.359 0.509
1.901 -0.347 0.507
1.925 -0.334 0.506
1.948 -0.321 0.505
1.972 -0.308 0.503
2.005 -0.295 0.501
2.037 -0.282 0.499
2.068 -0.268 0.497
2.091 -0.253 0.496
2.123 -0.239 0.494
2.153 -0.223 0.492
2.184 -0.208 0.49
2.217 -0.191 0.488
2.24 -0.174 0.487
2.273 -0.157 0.485
2.295 -0.139 0.484
2.338 -0.121 0.481
2.378 -0.103 0.479
2.42 -0.084 0.476
2.525 -0.065 0.47
2.856 -0.049 0.45
3.468 -0.03 0.414
3.448 -0 0.415
3.437 0.03 0.415
3.427 0.059 0.416
3.43 0.089 0.416
3.549 0.123 0.409
3.615 0.157 0.405
3.697 0.192 0.4
3.784 0.23 0.395
4.42 0.307 0.357
4.461 0.349 0.354
4.461 0.388 0.354
4.504 0.431 0.352
4.475 0.468 0.353
4.052 0.459 0.379
3.969 0.484 0.384
3.65 0.477 0.403
3.632 0.507 0.404
3.728 0.553 0.398
3.721 0.585 0.398
3.82 0.635 0.393
4.324 0.758 0.362
4.386 0.808 0.359
4.361 0.843 0.36
4.41 0.892 0.357
4.381 0.926 0.359
4.431 0.977 0.356
4.384 1.006 0.359
4.437 1.059 0.356
4.396 1.09 0.358
4.152 1.067 0.373
3.609 0.96 0.405
3.546 0.976 0.409
4.624 1.319 0.344
4.649 1.37 0.343
4.624 1.406 0.344
4.687 1.47 0.341
4.657 1.505 0.343
4.703 1.566 0.34
4.664 1.598 0.342
4.726 1.665 0.338
4.674 1.693 0.341
4.711 1.752 0.339
4.678 1.786 0.341
4.722 1.851 0.339
4.707 1.892 0.339
4.713 1.942 0.339
4.668 1.971 0.342
4.662 2.017 0.342
4.636 2.054 0.344
4.671 2.118 0.342
4.653 2.159 0.343
4.705 2.233 0.34
4.677 2.269 0.341
4.729 2.346 0.338
4.693 2.379 0.34
4.737 2.454 0.338
4.452 2.354 0.355
2.228 1.194 0.488
2.287 1.252 0.484
2.294 1.282 0.484
2.225 1.268 0.488
2.207 1.283 0.489
2.228 1.322 0.488
2.188 1.323 0.49
3.845 2.387 0.391
2.022 1.27 0.5
2.019 1.292 0.5
2.01 1.311 0.501
2.151 1.432 0.492
2.001 1.355 0.501
2.994 2.077 0.442
2.974 2.102 0.443
2.859 2.057 0.45
2.44 1.785 0.475
2.619 1.953 0.464
2.505 1.901 0.471
2.404 1.856 0.477
2.308 1.813 0.483
2.211 1.768 0.489
2.116 1.721 0.494
2.026 1.676 0.5
1.947 1.639 0.505
1.919 1.643 0.506
1.904 1.659 0.507
1.896 1.682 0.508
1.889 1.705 0.508
1.633 1.496 0.523
1.532 1.426 0.529
