# .PCD v0.7 - Point Cloud Data file format
VERSION 0.7
FIELDS x y z
SIZE 4 4 4
TYPE F F F
COUNT 1 1 1
WIDTH 2519
HEIGHT 1
VIEWPOINT 0 0 0 1 0 0 0
POINTS 2519
DATA ascii
5.235 -3.257 2.185
5.277 -3.22 2.196
5.32 -3.182 2.207
5.362 -3.144 2.218
5.405 -3.106 2.229
5.447 -3.067 2.24
3.599 -1.968 1.76
3.614 -1.936 1.764
3.655 -1.917 1.775
2.377 -1.204 1.443
2.371 -1.175 1.441
2.391 -1.159 1.446
2.407 -1.142 1.451
2.426 -1.125 1.456
2.45 -1.111 1.462
2.467 -1.093 1.466
2.484 -1.075 1.471
2.502 -1.058 1.475
2.519 -1.039 1.48
2.545 -1.025 1.487
2.569 -1.009 1.493
2.585 -0.989 1.497
2.61 -0.973 1.503
2.627 -0.954 1.508
2.641 -0.933 1.511
2.663 -0.915 1.517
2.687 -0.898 1.523
2.708 -0.879 1.529
2.731 -0.86 1.535
2.715 -0.829 1.531
2.686 -0.794 1.523
2.658 -0.761 1.516
2.621 -0.725 1.506
2.586 -0.691 1.497
2.567 -0.662 1.492
2.547 -0.633 1.487
2.522 -0.603 1.481
2.494 -0.573 1.473
2.473 -0.546 1.468
2.451 -0.518 1.462
2.431 -0.492 1.457
2.41 -0.466 1.451
2.381 -0.439 1.444
2.368 -0.415 1.441
2.339 -0.389 1.433
2.326 -0.366 1.43
2.305 -0.342 1.424
2.281 -0.318 1.418
2.268 -0.296 1.415
2.252 -0.274 1.41
2.228 -0.252 1.404
2.213 -0.23 1.4
2.188 -0.209 1.394
2.18 -0.189 1.392
2.166 -0.169 1.388
2.148 -0.149 1.383
1.661 -0.099 1.257
1.428 -0.072 1.197
1.438 -0.061 1.199
1.45 -0.049 1.202
1.469 -0.037 1.207
1.484 -0.025 1.211
1.501 -0.013 1.215
1.517 -0 1.22
1.526 0.013 1.222
1.544 0.026 1.227
1.553 0.04 1.229
1.57 0.053 1.233
1.586 0.067 1.238
1.584 0.081 1.237
1.284 0.075 1.159
1.26 0.084 1.153
1.256 0.095 1.152
1.404 0.119 1.19
1.689 0.159 1.264
1.703 0.175 1.268
1.668 0.186 1.259
1.685 0.202 1.263
1.212 0.153 1.141
1.203 0.162 1.138
1.188 0.169 1.134
1.181 0.178 1.133
1.175 0.187 1.131
1.162 0.195 1.127
1.162 0.205 1.128
1.143 0.211 1.123
1.14 0.221 1.122
1.139 0.23 1.121
1.131 0.238 1.119
1.136 0.249 1.121
1.128 0.257 1.119
1.125 0.266 1.118
1.12 0.275 1.117
1.114 0.283 1.115
1.109 0.292 1.114
1.119 0.305 1.116
1.112 0.313 1.115
1.107 0.321 1.113
1.104 0.33 1.112
1.107 0.341 1.113
1.099 0.349 1.111
1.104 0.36 1.112
1.093 0.367 1.11
1.115 0.385 1.115
1.11 0.394 1.114
1.203 0.441 1.138
1.192 0.448 1.135
1.406 0.549 1.191
1.444 0.579 1.201
1.384 0.567 1.185
1.067 0.439 1.103
1.071 0.451 1.104
1.058 0.455 1.1
1.052 0.463 1.099
1.041 0.468 1.096
2.12 1.023 1.376
2.12 1.045 1.376
2.106 1.061 1.373
1.764 0.9 1.284
1.716 0.893 1.271
1.806 0.962 1.295
2.065 1.131 1.362
2.119 1.186 1.376
1.998 1.138 1.344
1.974 1.146 1.338
1.973 1.169 1.338
2.018 1.22 1.35
2.047 1.263 1.357
2.055 1.293 1.359
2.1 1.348 1.371
3.749 2.502 1.799
3.725 2.533 1.793
3.694 2.558 1.785
0 0 0
2.781 1.983 1.548
2.757 2.001 1.542
2.72 2.011 1.532
2.693 2.026 1.525
3.355 2.588 1.697
3.52 2.768 1.74
3.212 2.565 1.66
3.106 2.523 1.632
3.085 2.55 1.627
3.063 2.577 1.621
3.041 2.604 1.615
3.012 2.624 1.608
2.997 2.656 1.604
2.974 2.683 1.598
2.952 2.709 1.592
2.928 2.734 1.586
2.906 2.76 1.58
2.882 2.785 1.574
2.859 2.811 1.568
2.834 2.835 1.562
2 2.008 1.345
1.94 1.978 1.329
1.905 1.975 1.32
1.767 1.857 1.284
1.507 1.597 1.217
1.382 1.482 1.185
1.277 1.386 1.157
1.202 1.321 1.138
1.105 1.227 1.113
1.055 1.188 1.1
1.048 1.201 1.098
1.026 1.193 1.092
0.969 1.141 1.077
0.924 1.102 1.066
0.879 1.062 1.054
0.844 1.033 1.045
0.806 0.998 1.035
0.777 0.976 1.027
0.744 0.946 1.019
0.72 0.928 1.013
0.694 0.907 1.006
0.666 0.882 0.999
0.645 0.865 0.993
0.624 0.849 0.988
0.602 0.83 0.982
0.584 0.817 0.978
0.564 0.799 0.972
0.549 0.788 0.968
0.532 0.775 0.964
0.507 0.745 0.957
0.492 0.734 0.954
0.491 0.747 0.953
0.484 0.749 0.951
0.514 0.822 0.959
0.495 0.803 0.954
0.481 0.792 0.951
0.463 0.772 0.946
0.448 0.758 0.942
0.434 0.745 0.939
0.421 0.731 0.935
0.407 0.717 0.931
0.394 0.705 0.928
0.385 0.7 0.926
0.373 0.688 0.923
0.363 0.679 0.92
0.35 0.665 0.917
0.343 0.663 0.915
0.331 0.648 0.912
0.323 0.642 0.91
0.315 0.637 0.908
0.306 0.63 0.905
0.294 0.612 0.902
0.274 0.568 0.897
0.27 0.57 0.896
0.262 0.562 0.894
0.254 0.554 0.892
0.245 0.538 0.889
0.242 0.544 0.889
0.237 0.546 0.887
0.232 0.545 0.886
0.228 0.548 0.885
0.225 0.557 0.884
0.217 0.546 0.882
0.213 0.55 0.881
0.206 0.536 0.879
0.2 0.53 0.878
0.195 0.53 0.876
0.188 0.519 0.875
0.184 0.522 0.874
0.179 0.516 0.872
0.173 0.507 0.871
0.168 0.509 0.87
0.163 0.499 0.868
0.159 0.501 0.867
0.154 0.495 0.866
0.148 0.487 0.864
0.144 0.488 0.863
0.139 0.481 0.862
0.135 0.479 0.861
0.131 0.476 0.86
0.126 0.468 0.859
0.122 0.464 0.857
0.118 0.462 0.856
0.114 0.462 0.855
0.11 0.46 0.854
0.106 0.449 0.853
0.102 0.448 0.852
0.098 0.447 0.851
0.094 0.446 0.85
0.091 0.435 0.849
0.09 -0.977 0.85
0.098 -0.945 0.852
0.106 -0.937 0.854
0.114 -0.931 0.856
0.122 -0.923 0.858
0.129 -0.911 0.86
0.137 -0.912 0.862
0.144 -0.907 0.864
0.151 -0.893 0.866
0.158 -0.892 0.868
0.164 -0.871 0.869
0.172 -0.877 0.871
0.178 -0.866 0.873
0.184 -0.853 0.874
0.19 -0.843 0.876
0.197 -0.842 0.878
0.206 -0.851 0.88
0.216 -0.87 0.883
0.225 -0.882 0.885
0.236 -0.899 0.888
0.245 -0.905 0.89
0.253 -0.909 0.893
0.264 -0.925 0.895
0.276 -0.944 0.899
0.286 -0.95 0.901
0.296 -0.959 0.904
0.308 -0.975 0.907
0.319 -0.987 0.91
0.335 -1.014 0.914
0.363 -1.089 0.921
0.373 -1.09 0.924
0.398 -1.149 0.931
0.407 -1.144 0.933
0.433 -1.195 0.94
0.442 -1.19 0.942
0.47 -1.246 0.95
0.482 -1.248 0.953
0.524 -1.34 0.964
0.542 -1.357 0.969
0.586 -1.448 0.98
0.587 -1.411 0.981
0.63 -1.493 0.992
0.662 -1.54 1
0.673 -1.53 1.003
0.687 -1.527 1.007
0.701 -1.525 1.011
0.713 -1.518 1.014
0.724 -1.508 1.017
0.741 -1.511 1.021
1.006 -2.077 1.091
1.074 -2.181 1.109
1.089 -2.164 1.113
1.103 -2.148 1.117
1.121 -2.137 1.121
1.135 -2.12 1.125
1.149 -2.103 1.129
1.167 -2.093 1.133
1.18 -2.075 1.137
1.199 -2.068 1.142
1.413 -2.417 1.198
1.519 -2.558 1.226
1.577 -2.61 1.242
1.971 -3.238 1.346
1.896 -3.046 1.326
1.891 -2.981 1.325
0 0 0
1.911 -2.899 1.33
1.897 -2.823 1.326
1.975 -2.889 1.346
2.129 -3.068 1.387
2.15 -3.042 1.393
2.165 -3.008 1.397
2.173 -2.965 1.399
2.237 -3 1.416
3.559 -4.761 1.764
3.6 -4.73 1.775
3.634 -4.691 1.784
3.673 -4.658 1.794
3.714 -4.628 1.805
3.753 -4.595 1.815
3.786 -4.555 1.824
3.824 -4.521 1.834
3.868 -4.494 1.846
3.899 -4.452 1.854
3.938 -4.419 1.864
3.974 -4.383 1.874
4.012 -4.349 1.883
4.052 -4.317 1.894
4.09 -4.283 1.904
4.061 -4.178 1.896
3.771 -3.806 1.82
3.293 -3.254 1.694
3.293 -3.199 1.694
3.275 -3.126 1.689
4.243 -4.005 1.944
4.28 -3.97 1.954
4.319 -3.937 1.964
4.364 -3.91 1.976
4.392 -3.867 1.984
4.514 -3.907 2.016
4.553 -3.872 2.026
4.592 -3.838 2.037
4.631 -3.802 2.047
4.671 -3.768 2.057
4.674 -3.703 2.058
0 0 0
4.374 -3.338 1.979
4.401 -3.299 1.986
4.687 -3.454 2.062
4.749 -3.437 2.078
4.697 -3.336 2.064
4.821 -3.362 2.097
4.887 -3.346 2.114
4.934 -3.315 2.127
4.97 -3.277 2.136
5.145 -3.33 2.182
5.188 -3.295 2.194
5.229 -3.257 2.204
5.271 -3.22 2.216
5.314 -3.182 2.227
5.349 -3.14 2.236
5.4 -3.107 2.249
5.439 -3.066 2.26
3.591 -1.966 1.773
3.583 -1.921 1.77
3.645 -1.913 1.787
2.357 -1.194 1.447
2.368 -1.174 1.45
2.387 -1.159 1.455
2.405 -1.142 1.46
2.421 -1.124 1.464
2.439 -1.107 1.469
2.464 -1.093 1.475
2.48 -1.075 1.48
2.5 -1.058 1.485
2.518 -1.04 1.49
2.534 -1.021 1.494
2.566 -1.009 1.502
2.575 -0.986 1.505
2.609 -0.974 1.514
2.624 -0.954 1.518
2.639 -0.933 1.522
2.662 -0.916 1.528
2.678 -0.895 1.532
2.705 -0.879 1.539
2.728 -0.86 1.545
2.713 -0.829 1.541
2.674 -0.792 1.531
2.655 -0.76 1.526
2.619 -0.725 1.516
2.593 -0.694 1.51
2.564 -0.662 1.502
2.546 -0.633 1.497
2.521 -0.603 1.49
2.492 -0.573 1.483
2.469 -0.545 1.477
2.449 -0.519 1.472
2.429 -0.492 1.466
2.401 -0.464 1.459
2.386 -0.44 1.455
2.365 -0.415 1.449
2.337 -0.389 1.442
2.316 -0.364 1.436
2.302 -0.342 1.433
2.28 -0.318 1.427
2.265 -0.296 1.423
2.25 -0.274 1.419
2.226 -0.252 1.413
2.21 -0.23 1.408
2.195 -0.21 1.405
2.17 -0.188 1.398
2.155 -0.168 1.394
2.146 -0.149 1.392
1.691 -0.101 1.272
1.427 -0.072 1.202
1.438 -0.061 1.205
1.448 -0.049 1.208
1.469 -0.037 1.213
1.484 -0.025 1.217
1.491 -0.013 1.219
1.516 -0 1.225
1.523 0.013 1.227
1.542 0.026 1.233
1.56 0.04 1.237
1.568 0.053 1.239
1.594 0.068 1.246
1.545 0.079 1.233
1.266 0.074 1.16
1.25 0.084 1.155
1.254 0.095 1.156
1.434 0.122 1.204
1.552 0.146 1.235
1.636 0.168 1.257
1.354 0.149 1.183
1.247 0.147 1.155
1.213 0.153 1.146
1.201 0.161 1.142
1.2 0.171 1.142
1.172 0.177 1.135
1.171 0.187 1.135
1.156 0.194 1.131
1.151 0.203 1.129
1.145 0.212 1.128
1.147 0.222 1.128
1.14 0.231 1.126
1.135 0.24 1.125
1.135 0.249 1.125
1.125 0.257 1.122
1.117 0.265 1.12
1.116 0.274 1.12
1.117 0.284 1.12
1.111 0.293 1.119
1.116 0.304 1.12
1.103 0.31 1.117
1.107 0.321 1.118
1.109 0.332 1.118
1.103 0.34 1.117
1.094 0.347 1.114
1.094 0.357 1.114
1.101 0.37 1.116
1.095 0.378 1.115
1.092 0.387 1.114
1.111 0.405 1.119
1.104 0.413 1.117
1.2 0.464 1.142
1.221 0.484 1.148
1.325 0.542 1.175
1.065 0.438 1.107
1.063 0.448 1.106
1.06 0.457 1.105
1.049 0.462 1.102
1.372 0.632 1.188
2.112 1.02 1.383
2.117 1.045 1.384
2.104 1.061 1.38
1.775 0.907 1.294
1.722 0.897 1.28
1.797 0.958 1.3
2.008 1.099 1.355
2.088 1.169 1.376
1.988 1.133 1.35
1.972 1.147 1.346
1.959 1.161 1.342
1.99 1.204 1.35
2.039 1.259 1.363
2.057 1.295 1.368
2.11 1.356 1.382
2.275 1.495 1.426
3.721 2.533 1.807
3.688 2.557 1.798
0 0 0
2.777 1.982 1.558
2.756 2.003 1.553
2.72 2.012 1.543
2.686 2.023 1.534
3.5 2.706 1.749
3.517 2.769 1.753
3.209 2.565 1.672
3.103 2.523 1.644
3.082 2.551 1.638
3.06 2.577 1.633
3.038 2.604 1.627
3.016 2.63 1.621
2.994 2.656 1.615
2.971 2.683 1.609
2.941 2.702 1.601
2.925 2.734 1.597
2.902 2.76 1.591
2.879 2.785 1.585
2.855 2.81 1.579
2.832 2.835 1.572
2 2.009 1.353
1.938 1.978 1.337
1.903 1.975 1.327
1.769 1.862 1.292
1.501 1.592 1.221
1.379 1.48 1.189
1.28 1.39 1.163
1.201 1.321 1.143
1.115 1.24 1.12
1.054 1.187 1.104
1.049 1.202 1.102
1.025 1.194 1.096
0.973 1.148 1.082
0.925 1.105 1.07
0.883 1.069 1.059
0.843 1.033 1.048
0.805 0.998 1.038
0.776 0.976 1.03
0.742 0.945 1.022
0.719 0.929 1.015
0.693 0.907 1.009
0.665 0.881 1.001
0.644 0.865 0.996
0.623 0.849 0.99
0.601 0.829 0.984
0.583 0.816 0.98
0.563 0.798 0.974
0.548 0.788 0.97
0.531 0.774 0.966
0.507 0.747 0.96
0.49 0.731 0.955
0.489 0.744 0.955
0.484 0.75 0.953
0.513 0.821 0.961
0.494 0.803 0.956
0.48 0.791 0.952
0.463 0.772 0.948
0.448 0.758 0.944
0.434 0.745 0.94
0.42 0.731 0.937
0.407 0.719 0.933
0.397 0.713 0.931
0.385 0.701 0.927
0.375 0.694 0.925
0.362 0.678 0.921
0.35 0.664 0.918
0.343 0.662 0.916
0.331 0.649 0.913
0.323 0.643 0.911
0.315 0.637 0.909
0.306 0.63 0.907
0.297 0.62 0.904
0.275 0.57 0.898
0.269 0.57 0.897
0.262 0.562 0.895
0.254 0.554 0.893
0.249 0.554 0.892
0.241 0.543 0.889
0.237 0.545 0.888
0.231 0.545 0.887
0.228 0.55 0.886
0.224 0.556 0.885
0.219 0.553 0.884
0.211 0.543 0.882
0.205 0.536 0.88
0.199 0.531 0.878
0.195 0.53 0.877
0.19 0.528 0.876
0.184 0.521 0.874
0.178 0.515 0.873
0.173 0.509 0.871
0.168 0.507 0.87
0.163 0.501 0.869
0.159 0.502 0.868
0.153 0.496 0.866
0.148 0.486 0.865
0.144 0.488 0.864
0.139 0.483 0.863
0.135 0.479 0.861
0.131 0.477 0.86
0.126 0.468 0.859
0.122 0.47 0.858
0.118 0.461 0.857
0.113 0.455 0.856
0.11 0.46 0.855
0.105 0.449 0.854
0.102 0.448 0.853
0.098 0.447 0.852
0.094 0.446 0.851
0.09 0.436 0.85
0.09 -0.958 0.85
0.098 -0.945 0.852
0.106 -0.937 0.855
0.113 -0.93 0.857
0.121 -0.923 0.859
0.128 -0.911 0.861
0.136 -0.91 0.863
0.143 -0.9 0.865
0.15 -0.893 0.867
0.157 -0.883 0.869
0.164 -0.88 0.87
0.171 -0.867 0.872
0.177 -0.862 0.874
0.184 -0.853 0.876
0.19 -0.842 0.877
0.197 -0.842 0.879
0.205 -0.849 0.882
0.217 -0.878 0.885
0.225 -0.885 0.887
0.234 -0.894 0.889
0.243 -0.9 0.892
0.253 -0.91 0.895
0.264 -0.927 0.898
0.274 -0.935 0.9
0.285 -0.949 0.903
0.295 -0.961 0.906
0.307 -0.975 0.909
0.32 -0.992 0.913
0.335 -1.018 0.917
0.373 -1.134 0.927
0.383 -1.132 0.93
0.414 -1.212 0.938
0.421 -1.198 0.94
0.444 -1.238 0.946
0.455 -1.237 0.949
0.487 -1.306 0.958
0.5 -1.308 0.962
0.546 -1.412 0.974
0.561 -1.416 0.978
0.589 -1.461 0.986
0.59 -1.425 0.986
0.636 -1.514 0.999
0.662 -1.543 1.006
0.668 -1.52 1.007
0.686 -1.529 1.012
0.7 -1.525 1.016
0.713 -1.522 1.02
0.721 -1.504 1.022
0.737 -1.506 1.026
1.004 -2.077 1.098
1.068 -2.173 1.116
1.086 -2.164 1.121
1.101 -2.147 1.125
1.114 -2.129 1.128
1.132 -2.12 1.133
1.146 -2.102 1.137
1.164 -2.093 1.142
1.178 -2.076 1.146
1.196 -2.067 1.15
1.33 -2.272 1.187
1.517 -2.561 1.238
1.575 -2.612 1.253
1.958 -3.222 1.358
1.901 -3.062 1.342
1.884 -2.976 1.337
0 0 0
1.884 -2.863 1.337
1.886 -2.811 1.338
1.932 -2.83 1.35
2.149 -3.104 1.409
2.169 -3.076 1.415
2.197 -3.06 1.422
2.179 -2.979 1.417
2.237 -3.007 1.433
3.553 -4.761 1.79
3.593 -4.731 1.801
3.628 -4.693 1.811
3.666 -4.659 1.821
3.701 -4.621 1.831
3.74 -4.588 1.841
3.783 -4.56 1.853
3.821 -4.527 1.863
3.855 -4.488 1.872
3.897 -4.459 1.884
3.93 -4.419 1.893
3.971 -4.388 1.904
4.009 -4.354 1.914
4.044 -4.317 1.924
4.081 -4.283 1.934
4.08 -4.207 1.934
3.766 -3.809 1.848
3.28 -3.249 1.716
3.294 -3.206 1.72
3.295 -3.152 1.72
4.258 -4.027 1.982
4.345 -4.04 2.005
4.339 -3.964 2.004
4.425 -3.974 2.027
4.417 -3.898 2.025
4.504 -3.906 2.049
4.544 -3.873 2.059
4.575 -3.831 2.068
4.614 -3.796 2.078
4.66 -3.767 2.091
4.652 -3.693 2.089
0 0 0
4.371 -3.342 2.012
4.395 -3.301 2.019
4.679 -3.455 2.096
4.752 -3.446 2.116
4.798 -3.416 2.128
4.845 -3.387 2.141
4.813 -3.301 2.132
4.929 -3.319 2.164
4.973 -3.286 2.176
5.135 -3.33 2.22
5.178 -3.295 2.232
5.218 -3.256 2.242
5.26 -3.219 2.254
5.304 -3.182 2.266
5.346 -3.144 2.277
5.388 -3.106 2.289
5.429 -3.066 2.3
3.575 -1.961 1.796
3.59 -1.928 1.8
3.626 -1.907 1.81
2.367 -1.202 1.468
2.372 -1.179 1.47
2.383 -1.159 1.473
2.409 -1.146 1.48
2.417 -1.124 1.482
2.443 -1.111 1.489
2.459 -1.093 1.493
2.468 -1.071 1.496
2.494 -1.057 1.503
2.52 -1.043 1.51
2.537 -1.025 1.515
2.56 -1.008 1.521
2.577 -0.989 1.525
2.595 -0.97 1.53
2.619 -0.954 1.537
2.633 -0.933 1.541
2.658 -0.916 1.547
2.673 -0.895 1.551
2.698 -0.878 1.558
2.722 -0.86 1.565
2.698 -0.826 1.558
2.669 -0.792 1.55
2.642 -0.758 1.543
2.622 -0.728 1.538
2.586 -0.693 1.528
2.559 -0.662 1.521
2.541 -0.633 1.516
2.515 -0.603 1.509
2.488 -0.574 1.501
2.465 -0.546 1.495
2.445 -0.519 1.49
2.424 -0.492 1.484
2.395 -0.464 1.476
2.382 -0.44 1.472
2.36 -0.415 1.467
2.34 -0.39 1.461
2.311 -0.364 1.453
2.298 -0.342 1.45
2.274 -0.318 1.443
2.26 -0.296 1.439
2.246 -0.274 1.436
2.232 -0.253 1.432
2.213 -0.231 1.427
2.19 -0.21 1.42
2.174 -0.189 1.416
2.149 -0.168 1.409
2.141 -0.149 1.407
1.688 -0.101 1.284
1.43 -0.073 1.214
1.436 -0.061 1.216
1.446 -0.049 1.218
1.464 -0.037 1.223
1.479 -0.025 1.228
1.495 -0.013 1.232
1.512 -0 1.236
1.52 0.013 1.239
1.537 0.026 1.243
1.549 0.04 1.246
1.565 0.053 1.251
1.581 0.067 1.255
1.565 0.08 1.251
1.26 0.074 1.168
1.255 0.084 1.167
1.253 0.095 1.166
1.397 0.118 1.205
1.312 0.122 1.182
1.366 0.139 1.197
1.242 0.136 1.163
1.231 0.145 1.16
1.217 0.154 1.156
1.187 0.16 1.148
1.179 0.169 1.146
1.17 0.177 1.143
1.166 0.187 1.143
1.162 0.196 1.141
1.151 0.204 1.138
1.131 0.21 1.133
1.141 0.221 1.136
1.139 0.231 1.135
1.129 0.239 1.132
1.125 0.248 1.131
1.117 0.255 1.129
1.116 0.265 1.129
1.113 0.274 1.128
1.114 0.284 1.128
1.108 0.293 1.127
1.109 0.303 1.127
1.103 0.311 1.125
1.103 0.321 1.125
1.097 0.329 1.124
1.095 0.338 1.123
1.095 0.348 1.123
1.097 0.359 1.124
1.097 0.37 1.124
1.099 0.381 1.124
1.093 0.389 1.123
1.091 0.398 1.122
1.094 0.41 1.123
1.102 0.424 1.125
1.097 0.432 1.124
1.223 0.498 1.158
1.056 0.435 1.112
1.062 0.448 1.114
1.057 0.457 1.113
1.049 0.463 1.111
1.035 0.467 1.107
2.124 1.028 1.402
2.114 1.046 1.4
2.094 1.058 1.394
1.763 0.902 1.304
1.716 0.896 1.292
1.812 0.969 1.318
2.034 1.117 1.378
2.07 1.161 1.388
1.979 1.13 1.363
1.966 1.145 1.36
1.955 1.161 1.356
1.983 1.202 1.364
2.024 1.252 1.375
2.056 1.298 1.384
2.12 1.366 1.401
2.252 1.483 1.437
3.714 2.533 1.834
3.667 2.548 1.821
0 0 0
2.769 1.98 1.578
2.746 2 1.571
2.707 2.007 1.561
2.685 2.026 1.555
3.499 2.711 1.776
3.51 2.769 1.779
3.202 2.565 1.695
3.097 2.523 1.667
3.075 2.55 1.661
3.054 2.577 1.655
3.032 2.604 1.649
3.01 2.63 1.643
2.988 2.656 1.637
2.965 2.683 1.631
2.942 2.708 1.625
2.92 2.734 1.618
2.897 2.76 1.612
2.873 2.785 1.606
2.85 2.81 1.599
2.826 2.835 1.593
2.006 2.02 1.37
1.934 1.978 1.351
1.894 1.97 1.34
1.766 1.862 1.305
1.506 1.601 1.235
1.38 1.485 1.201
1.282 1.396 1.174
1.197 1.319 1.151
1.119 1.249 1.13
1.05 1.186 1.111
1.046 1.202 1.11
1.022 1.193 1.103
0.966 1.141 1.088
0.923 1.105 1.076
0.876 1.062 1.064
0.841 1.033 1.054
0.808 1.006 1.045
0.773 0.974 1.036
0.745 0.952 1.028
0.713 0.922 1.02
0.691 0.907 1.014
0.665 0.883 1.006
0.642 0.865 1
0.622 0.849 0.995
0.6 0.829 0.989
0.582 0.817 0.984
0.567 0.807 0.98
0.546 0.787 0.974
0.53 0.775 0.97
0.506 0.747 0.963
0.493 0.738 0.96
0.488 0.744 0.958
0.482 0.749 0.957
0.512 0.822 0.965
0.493 0.802 0.96
0.479 0.79 0.956
0.462 0.772 0.951
0.447 0.758 0.947
0.433 0.745 0.943
0.42 0.732 0.94
0.406 0.719 0.936
0.393 0.704 0.932
0.384 0.702 0.93
0.371 0.687 0.927
0.361 0.677 0.924
0.353 0.674 0.922
0.339 0.655 0.918
0.33 0.649 0.916
0.322 0.643 0.913
0.314 0.637 0.911
0.305 0.63 0.909
0.296 0.619 0.906
0.276 0.575 0.901
0.269 0.57 0.899
0.261 0.562 0.897
0.254 0.555 0.895
0.246 0.545 0.893
0.24 0.543 0.891
0.236 0.544 0.89
0.23 0.543 0.888
0.227 0.55 0.888
0.224 0.555 0.887
0.218 0.553 0.885
0.211 0.545 0.883
0.205 0.538 0.882
0.199 0.53 0.88
0.194 0.53 0.879
0.187 0.519 0.877
0.183 0.52 0.876
0.178 0.515 0.874
0.172 0.508 0.873
0.167 0.507 0.871
0.162 0.5 0.87
0.158 0.502 0.869
0.153 0.497 0.867
0.148 0.486 0.866
0.144 0.488 0.865
0.138 0.475 0.863
0.134 0.47 0.862
0.129 0.466 0.861
0.125 0.468 0.86
0.122 0.468 0.859
0.117 0.46 0.858
0.113 0.463 0.857
0.109 0.452 0.855
0.105 0.451 0.854
0.101 0.448 0.853
0.097 0.446 0.852
0.094 0.443 0.851
0.09 0.436 0.85
0.09 -0.943 0.851
0.097 -0.939 0.853
0.105 -0.937 0.855
0.113 -0.93 0.858
0.121 -0.925 0.86
0.128 -0.911 0.862
0.136 -0.917 0.864
0.143 -0.907 0.866
0.15 -0.893 0.868
0.157 -0.892 0.87
0.163 -0.87 0.871
0.171 -0.874 0.874
0.177 -0.859 0.875
0.184 -0.858 0.877
0.189 -0.843 0.879
0.196 -0.842 0.881
0.204 -0.847 0.883
0.214 -0.866 0.886
0.224 -0.881 0.889
0.233 -0.891 0.891
0.242 -0.895 0.893
0.252 -0.909 0.896
0.263 -0.926 0.899
0.273 -0.937 0.902
0.284 -0.95 0.905
0.294 -0.959 0.908
0.306 -0.974 0.911
0.32 -0.995 0.915
0.337 -1.029 0.92
0.381 -1.17 0.932
0.395 -1.184 0.936
0.429 -1.272 0.946
0.438 -1.26 0.948
0.454 -1.279 0.953
0.466 -1.28 0.956
0.492 -1.325 0.963
0.51 -1.344 0.968
0.55 -1.428 0.98
0.572 -1.456 0.986
0.574 -1.422 0.986
0.594 -1.44 0.992
0.623 -1.48 1
0.666 -1.558 1.012
0.666 -1.519 1.012
0.682 -1.523 1.017
0.698 -1.524 1.021
0.712 -1.522 1.025
0.721 -1.508 1.027
0.732 -1.498 1.03
1.001 -2.077 1.106
1.066 -2.173 1.124
1.08 -2.156 1.128
1.099 -2.148 1.133
1.112 -2.129 1.137
1.13 -2.121 1.142
1.144 -2.103 1.146
1.158 -2.086 1.149
1.171 -2.069 1.153
1.194 -2.068 1.159
1.343 -2.3 1.201
1.512 -2.558 1.248
1.568 -2.606 1.264
1.956 -3.225 1.372
1.894 -3.058 1.355
1.881 -2.976 1.351
0 0 0
0 0 0
1.884 -2.815 1.352
1.914 -2.809 1.361
2.127 -3.078 1.42
2.175 -3.092 1.433
2.196 -3.067 1.439
2.205 -3.023 1.442
2.237 -3.013 1.451
3.545 -4.761 1.816
3.586 -4.731 1.828
3.62 -4.692 1.837
3.66 -4.66 1.848
3.698 -4.627 1.859
3.737 -4.594 1.87
3.775 -4.56 1.88
3.808 -4.52 1.889
3.85 -4.492 1.901
3.884 -4.453 1.911
3.921 -4.418 1.921
3.964 -4.39 1.933
4 -4.354 1.943
4.036 -4.318 1.953
4.073 -4.283 1.964
4.108 -4.246 1.973
3.732 -3.782 1.869
3.273 -3.248 1.74
3.28 -3.199 1.742
3.298 -3.162 1.747
4.302 -4.078 2.028
4.335 -4.039 2.037
4.376 -4.007 2.048
4.415 -3.973 2.059
4.457 -3.942 2.071
4.496 -3.907 2.082
4.535 -3.873 2.093
4.572 -3.837 2.103
4.61 -3.8 2.114
4.652 -3.768 2.125
4.64 -3.692 2.122
0 0 0
4.371 -3.35 2.047
4.417 -3.325 2.06
4.682 -3.464 2.134
4.742 -3.446 2.151
4.797 -3.423 2.166
4.843 -3.392 2.179
4.824 -3.315 2.173
4.926 -3.324 2.202
4.968 -3.289 2.213
5.124 -3.33 2.257
5.168 -3.295 2.269
5.208 -3.257 2.281
5.25 -3.22 2.292
5.294 -3.183 2.305
5.335 -3.144 2.316
5.377 -3.106 2.328
5.418 -3.067 2.339
3.564 -1.959 1.821
3.58 -1.927 1.826
3.605 -1.9 1.833
3.632 -1.874 1.84
2.358 -1.174 1.485
2.378 -1.159 1.49
2.404 -1.146 1.497
2.411 -1.124 1.5
2.438 -1.111 1.507
2.453 -1.092 1.511
2.472 -1.075 1.516
2.49 -1.058 1.521
2.514 -1.043 1.528
2.523 -1.021 1.531
2.547 -1.005 1.537
2.571 -0.989 1.544
2.59 -0.971 1.549
2.614 -0.954 1.556
2.628 -0.933 1.56
2.651 -0.916 1.567
2.677 -0.899 1.574
2.695 -0.879 1.579
2.717 -0.86 1.585
2.703 -0.829 1.581
2.673 -0.794 1.572
2.645 -0.761 1.565
2.609 -0.726 1.555
2.581 -0.693 1.547
2.554 -0.662 1.539
2.533 -0.633 1.534
2.51 -0.603 1.527
2.482 -0.573 1.519
2.461 -0.546 1.513
2.44 -0.519 1.508
2.413 -0.491 1.5
2.397 -0.466 1.496
2.379 -0.44 1.49
2.357 -0.415 1.484
2.337 -0.391 1.479
2.314 -0.366 1.472
2.293 -0.342 1.466
2.27 -0.318 1.46
2.257 -0.296 1.456
2.243 -0.275 1.453
2.218 -0.252 1.445
2.201 -0.23 1.441
2.185 -0.21 1.436
2.17 -0.189 1.432
2.146 -0.168 1.425
2.137 -0.149 1.423
1.683 -0.101 1.296
1.416 -0.072 1.221
1.434 -0.061 1.226
1.441 -0.049 1.228
1.461 -0.037 1.234
1.475 -0.025 1.238
1.493 -0.013 1.243
1.503 -0 1.246
1.519 0.013 1.25
1.535 0.026 1.255
1.552 0.04 1.259
1.562 0.053 1.262
1.579 0.068 1.267
1.467 0.075 1.236
1.258 0.074 1.177
1.26 0.085 1.178
1.263 0.096 1.179
1.263 0.107 1.179
1.251 0.116 1.175
1.244 0.126 1.173
1.231 0.135 1.17
1.22 0.144 1.167
1.208 0.153 1.163
1.191 0.161 1.159
1.178 0.169 1.155
1.175 0.178 1.154
1.169 0.187 1.152
1.159 0.196 1.15
1.143 0.203 1.145
1.14 0.212 1.144
1.144 0.223 1.145
1.132 0.23 1.142
1.116 0.236 1.138
1.117 0.246 1.138
1.125 0.258 1.14
1.123 0.268 1.14
1.114 0.275 1.137
1.108 0.283 1.136
1.105 0.292 1.135
1.111 0.304 1.136
1.101 0.311 1.133
1.1 0.321 1.133
1.091 0.328 1.131
1.1 0.341 1.133
1.089 0.347 1.13
1.087 0.356 1.13
1.09 0.368 1.13
1.088 0.377 1.13
1.086 0.387 1.129
1.088 0.398 1.13
1.088 0.408 1.13
1.087 0.418 1.13
1.092 0.431 1.131
1.091 0.442 1.131
1.059 0.437 1.122
1.063 0.45 1.123
1.055 0.457 1.121
1.048 0.464 1.119
1.376 0.637 1.21
2.127 1.032 1.42
2.118 1.05 1.417
2.094 1.061 1.411
1.764 0.905 1.319
1.708 0.893 1.303
1.769 0.947 1.32
1.996 1.097 1.383
2.057 1.156 1.401
1.974 1.13 1.377
1.956 1.141 1.372
1.948 1.159 1.37
1.959 1.189 1.373
2.023 1.254 1.391
2.055 1.3 1.4
2.133 1.378 1.422
2.228 1.47 1.448
3.706 2.533 1.861
3.659 2.547 1.848
0 0 0
2.763 1.98 1.598
2.739 1.998 1.591
2.699 2.005 1.58
2.676 2.023 1.573
3.491 2.71 1.801
3.503 2.769 1.804
3.196 2.565 1.719
3.09 2.523 1.689
3.069 2.55 1.683
3.047 2.577 1.677
3.026 2.604 1.671
3.004 2.63 1.665
2.974 2.649 1.657
2.959 2.683 1.652
2.936 2.708 1.646
2.914 2.735 1.64
2.891 2.76 1.633
2.867 2.785 1.627
2.844 2.811 1.62
2.829 2.844 1.616
2.006 2.025 1.386
1.929 1.978 1.365
1.896 1.977 1.356
1.773 1.874 1.321
1.496 1.594 1.244
1.375 1.482 1.21
1.274 1.39 1.182
1.194 1.319 1.159
1.11 1.241 1.136
1.054 1.193 1.12
1.044 1.202 1.118
1.021 1.194 1.111
0.964 1.142 1.095
0.919 1.102 1.083
0.879 1.069 1.072
0.839 1.033 1.06
0.805 1.004 1.051
0.777 0.982 1.043
0.744 0.953 1.034
0.717 0.93 1.026
0.691 0.909 1.019
0.668 0.89 1.013
0.641 0.865 1.005
0.62 0.849 0.999
0.598 0.829 0.993
0.582 0.818 0.988
0.56 0.797 0.982
0.544 0.786 0.978
0.525 0.767 0.972
0.506 0.748 0.967
0.489 0.734 0.963
0.484 0.739 0.961
0.482 0.751 0.961
0.511 0.822 0.969
0.492 0.803 0.963
0.478 0.791 0.959
0.46 0.772 0.955
0.442 0.75 0.949
0.432 0.745 0.947
0.418 0.731 0.943
0.405 0.719 0.939
0.396 0.713 0.936
0.383 0.701 0.933
0.371 0.688 0.93
0.36 0.679 0.927
0.348 0.664 0.923
0.341 0.662 0.921
0.329 0.649 0.918
0.321 0.643 0.916
0.313 0.636 0.913
0.304 0.629 0.911
0.295 0.619 0.908
0.274 0.572 0.902
0.267 0.568 0.901
0.259 0.559 0.898
0.253 0.557 0.897
0.247 0.553 0.895
0.24 0.543 0.893
0.237 0.553 0.892
0.229 0.542 0.89
0.227 0.55 0.889
0.223 0.554 0.888
0.217 0.552 0.887
0.21 0.544 0.885
0.205 0.54 0.883
0.198 0.529 0.881
0.193 0.53 0.88
0.187 0.519 0.878
0.182 0.518 0.877
0.177 0.514 0.875
0.171 0.506 0.874
0.167 0.507 0.873
0.162 0.501 0.871
0.157 0.495 0.87
0.153 0.498 0.869
0.148 0.494 0.867
0.143 0.489 0.866
0.139 0.483 0.865
0.134 0.481 0.863
0.13 0.475 0.862
0.125 0.468 0.861
0.121 0.46 0.86
0.117 0.46 0.859
0.113 0.456 0.857
0.109 0.453 0.856
0.105 0.45 0.855
0.101 0.449 0.854
0.097 0.446 0.853
0.093 0.444 0.852
0.09 0.436 0.851
0.089 -0.943 0.851
0.097 -0.941 0.854
0.105 -0.937 0.856
0.113 -0.928 0.858
0.12 -0.915 0.86
0.128 -0.912 0.862
0.136 -0.915 0.864
0.142 -0.898 0.866
0.15 -0.895 0.868
0.157 -0.889 0.87
0.163 -0.877 0.872
0.17 -0.871 0.874
0.177 -0.866 0.876
0.183 -0.857 0.878
0.189 -0.843 0.88
0.196 -0.841 0.881
0.204 -0.845 0.884
0.214 -0.866 0.887
0.223 -0.879 0.889
0.233 -0.891 0.892
0.243 -0.904 0.895
0.251 -0.907 0.897
0.263 -0.926 0.9
0.271 -0.929 0.903
0.284 -0.951 0.906
0.294 -0.961 0.909
0.306 -0.977 0.913
0.317 -0.986 0.916
0.34 -1.045 0.922
0.386 -1.192 0.935
0.399 -1.201 0.939
0.419 -1.236 0.945
0.441 -1.274 0.951
0.453 -1.275 0.954
0.471 -1.298 0.959
0.49 -1.321 0.965
0.509 -1.344 0.97
0.539 -1.397 0.979
0.562 -1.426 0.985
0.586 -1.456 0.992
0.596 -1.448 0.995
0.62 -1.476 1.002
0.666 -1.56 1.015
0.664 -1.517 1.014
0.681 -1.522 1.019
0.697 -1.523 1.023
0.708 -1.515 1.027
0.72 -1.508 1.03
0.731 -1.498 1.033
1 -2.077 1.109
1.064 -2.173 1.128
1.079 -2.156 1.132
1.097 -2.147 1.137
1.107 -2.122 1.14
1.125 -2.113 1.145
1.139 -2.095 1.149
1.157 -2.086 1.154
1.17 -2.069 1.158
1.188 -2.061 1.163
1.439 -2.479 1.234
1.511 -2.56 1.254
3.043 -5.212 1.688
1.957 -3.23 1.38
1.898 -3.067 1.364
1.893 -3 1.362
0 0 0
1.874 -2.856 1.357
1.88 -2.812 1.359
1.908 -2.803 1.367
2.132 -3.09 1.43
2.166 -3.082 1.44
2.22 -3.105 1.455
2.228 -3.06 1.457
2.242 -3.023 1.461
3.542 -4.762 1.83
3.577 -4.724 1.84
3.616 -4.691 1.851
3.655 -4.66 1.862
3.694 -4.627 1.873
3.733 -4.594 1.884
3.765 -4.553 1.893
3.81 -4.527 1.906
3.841 -4.485 1.914
3.879 -4.453 1.925
3.916 -4.417 1.936
3.952 -4.382 1.946
3.996 -4.354 1.958
4.032 -4.318 1.969
4.069 -4.283 1.979
4.104 -4.247 1.989
3.728 -3.782 1.883
3.269 -3.248 1.752
3.283 -3.206 1.756
3.311 -3.177 1.764
4.297 -4.078 2.044
4.338 -4.047 2.055
4.377 -4.013 2.066
4.411 -3.974 2.076
4.45 -3.94 2.087
4.491 -3.907 2.099
4.529 -3.872 2.11
4.569 -3.838 2.121
4.607 -3.802 2.132
4.646 -3.767 2.143
0 0 0
0 0 0
4.358 -3.343 2.061
4.453 -3.356 2.088
4.684 -3.47 2.153
4.752 -3.457 2.173
4.802 -3.429 2.187
4.841 -3.394 2.198
4.886 -3.362 2.21
4.926 -3.327 2.222
4.965 -3.291 2.233
5.117 -3.329 2.276
5.161 -3.294 2.289
5.203 -3.257 2.3
5.244 -3.219 2.312
5.288 -3.183 2.325
5.33 -3.145 2.337
5.372 -3.106 2.348
5.413 -3.067 2.36
3.57 -1.964 1.838
3.556 -1.916 1.834
3.601 -1.9 1.847
0 0 0
2.355 -1.174 1.493
2.374 -1.158 1.499
2.392 -1.142 1.504
2.417 -1.128 1.511
2.435 -1.111 1.516
2.451 -1.093 1.521
2.467 -1.075 1.525
2.487 -1.058 1.531
2.504 -1.039 1.535
2.529 -1.025 1.543
2.544 -1.005 1.547
2.569 -0.989 1.554
2.587 -0.97 1.559
2.61 -0.954 1.566
2.625 -0.933 1.57
2.649 -0.916 1.577
2.665 -0.896 1.581
2.692 -0.879 1.589
2.714 -0.86 1.595
2.691 -0.827 1.589
2.661 -0.792 1.58
2.643 -0.761 1.575
2.607 -0.726 1.565
2.579 -0.693 1.557
2.552 -0.662 1.549
2.532 -0.633 1.544
2.508 -0.603 1.537
2.48 -0.574 1.529
2.459 -0.546 1.523
2.438 -0.519 1.517
2.417 -0.492 1.511
2.397 -0.466 1.505
2.375 -0.44 1.499
2.347 -0.414 1.491
2.333 -0.39 1.487
2.312 -0.366 1.481
2.29 -0.342 1.475
2.269 -0.318 1.469
2.255 -0.296 1.465
2.231 -0.273 1.458
2.216 -0.252 1.454
2.2 -0.231 1.449
2.185 -0.21 1.445
2.167 -0.189 1.44
2.144 -0.168 1.434
2.136 -0.149 1.431
1.684 -0.101 1.303
1.411 -0.072 1.226
1.431 -0.061 1.232
1.448 -0.049 1.236
1.459 -0.037 1.239
1.475 -0.025 1.244
1.482 -0.013 1.246
1.499 -0 1.251
1.517 0.013 1.256
1.534 0.026 1.261
1.55 0.04 1.265
1.561 0.053 1.268
1.573 0.067 1.272
1.275 0.065 1.187
1.264 0.075 1.184
1.249 0.084 1.18
1.247 0.095 1.179
1.249 0.105 1.18
1.241 0.115 1.178
1.239 0.126 1.177
1.227 0.135 1.174
1.222 0.145 1.172
1.204 0.153 1.167
1.198 0.162 1.166
1.177 0.169 1.16
1.183 0.18 1.161
1.172 0.188 1.158
1.156 0.196 1.154
1.153 0.205 1.153
1.137 0.212 1.148
1.143 0.223 1.15
1.132 0.23 1.147
1.129 0.24 1.146
1.122 0.248 1.144
1.121 0.257 1.144
1.118 0.267 1.143
1.109 0.274 1.14
1.104 0.283 1.139
1.104 0.292 1.139
1.105 0.303 1.139
1.091 0.308 1.135
1.104 0.322 1.139
1.092 0.329 1.136
1.087 0.337 1.134
1.093 0.349 1.136
1.09 0.358 1.135
1.09 0.368 1.135
1.088 0.378 1.134
1.093 0.39 1.136
1.09 0.399 1.135
1.087 0.408 1.134
1.09 0.42 1.135
1.079 0.426 1.132
1.083 0.438 1.133
1.053 0.435 1.124
1.053 0.446 1.124
1.044 0.452 1.122
1.053 0.467 1.124
1.42 0.66 1.228
2.131 1.035 1.43
2.121 1.053 1.427
2.089 1.059 1.418
1.743 0.895 1.32
1.708 0.894 1.31
1.733 0.928 1.317
1.991 1.096 1.39
2.055 1.156 1.408
1.972 1.13 1.385
1.961 1.146 1.382
1.947 1.16 1.378
1.943 1.181 1.377
2.04 1.267 1.404
2.054 1.301 1.408
2.107 1.362 1.423
2.22 1.466 1.455
3.682 2.519 1.869
3.346 2.326 1.774
0 0 0
2.758 1.978 1.608
2.741 2.002 1.603
2.692 2.002 1.589
2.673 2.023 1.583
3.482 2.706 1.813
3.506 2.775 1.82
3.194 2.567 1.731
3.087 2.523 1.701
3.066 2.55 1.695
3.044 2.577 1.689
3.022 2.604 1.682
3 2.63 1.676
2.978 2.656 1.67
2.956 2.683 1.664
2.926 2.702 1.655
2.91 2.734 1.651
2.887 2.76 1.644
2.865 2.786 1.638
2.841 2.811 1.631
2.817 2.835 1.624
2.005 2.026 1.394
1.928 1.979 1.372
1.889 1.972 1.361
1.776 1.88 1.329
1.501 1.601 1.251
1.38 1.489 1.217
1.275 1.392 1.187
1.196 1.323 1.165
1.112 1.244 1.141
1.053 1.193 1.124
1.043 1.202 1.122
1.019 1.194 1.115
0.963 1.141 1.099
0.92 1.105 1.087
0.884 1.076 1.076
0.838 1.033 1.063
0.805 1.006 1.054
0.771 0.975 1.044
0.744 0.953 1.037
0.715 0.928 1.029
0.69 0.909 1.022
0.667 0.89 1.015
0.641 0.866 1.008
0.625 0.857 1.003
0.598 0.829 0.995
0.581 0.818 0.991
0.56 0.798 0.985
0.544 0.786 0.98
0.529 0.775 0.976
0.506 0.749 0.969
0.487 0.73 0.964
0.486 0.744 0.964
0.482 0.751 0.963
0.506 0.814 0.969
0.495 0.811 0.966
0.477 0.791 0.961
0.46 0.772 0.956
0.445 0.758 0.952
0.431 0.745 0.948
0.418 0.732 0.944
0.404 0.718 0.941
0.395 0.713 0.938
0.383 0.702 0.934
0.37 0.688 0.931
0.36 0.679 0.928
0.348 0.665 0.925
0.341 0.663 0.923
0.329 0.649 0.919
0.321 0.643 0.917
0.312 0.636 0.914
0.304 0.629 0.912
0.295 0.619 0.909
0.273 0.57 0.903
0.267 0.57 0.902
0.26 0.561 0.9
0.251 0.548 0.897
0.245 0.546 0.895
0.239 0.542 0.894
0.234 0.543 0.892
0.229 0.542 0.891
0.226 0.549 0.89
0.223 0.556 0.889
0.217 0.552 0.887
0.213 0.554 0.886
0.205 0.541 0.884
0.198 0.529 0.882
0.193 0.528 0.881
0.188 0.528 0.879
0.182 0.518 0.878
0.176 0.513 0.876
0.171 0.506 0.874
0.167 0.508 0.873
0.161 0.5 0.872
0.156 0.495 0.87
0.151 0.489 0.869
0.147 0.487 0.868
0.142 0.478 0.866
0.138 0.483 0.865
0.134 0.481 0.864
0.129 0.476 0.863
0.125 0.469 0.861
0.121 0.467 0.86
0.117 0.462 0.859
0.112 0.457 0.858
0.109 0.463 0.857
0.105 0.45 0.856
0.101 0.458 0.855
0.097 0.446 0.853
0.093 0.443 0.852
0.089 0.445 0.851
0.089 -0.944 0.852
0.097 -0.939 0.854
0.105 -0.94 0.857
0.112 -0.927 0.859
0.12 -0.917 0.861
0.127 -0.911 0.863
0.135 -0.913 0.865
0.142 -0.898 0.867
0.149 -0.893 0.869
0.156 -0.887 0.871
0.163 -0.885 0.874
0.17 -0.876 0.876
0.178 -0.878 0.878
0.185 -0.88 0.88
0.189 -0.85 0.881
0.196 -0.848 0.883
0.204 -0.855 0.886
0.214 -0.871 0.888
0.223 -0.88 0.891
0.231 -0.886 0.893
0.241 -0.897 0.896
0.251 -0.911 0.899
0.261 -0.923 0.902
0.272 -0.936 0.905
0.282 -0.945 0.908
0.293 -0.959 0.911
0.305 -0.976 0.915
0.319 -0.996 0.919
0.348 -1.082 0.927
0.393 -1.226 0.941
0.397 -1.198 0.942
0.411 -1.21 0.946
0.432 -1.247 0.952
0.448 -1.264 0.957
0.472 -1.306 0.964
0.494 -1.339 0.97
0.51 -1.351 0.975
0.532 -1.379 0.981
0.559 -1.42 0.989
0.587 -1.465 0.997
0.593 -1.442 0.999
0.622 -1.484 1.007
0.66 -1.549 1.018
0.664 -1.521 1.02
0.679 -1.522 1.024
0.695 -1.524 1.029
0.709 -1.522 1.033
0.719 -1.509 1.036
0.734 -1.508 1.04
0.995 -2.07 1.116
1.058 -2.165 1.134
1.077 -2.157 1.14
1.091 -2.139 1.144
1.105 -2.122 1.148
1.119 -2.105 1.152
1.136 -2.095 1.157
1.15 -2.078 1.161
1.163 -2.061 1.165
1.182 -2.054 1.17
2.318 -4.103 1.501
2.563 -4.463 1.573
3.036 -5.211 1.71
1.952 -3.229 1.395
1.895 -3.07 1.378
1.881 -2.987 1.374
0 0 0
1.852 -2.828 1.366
1.872 -2.806 1.371
1.905 -2.805 1.381
2.133 -3.097 1.447
2.155 -3.073 1.454
2.216 -3.106 1.472
2.238 -3.081 1.478
2.265 -3.063 1.486
3.534 -4.761 1.855
3.575 -4.732 1.867
3.608 -4.692 1.877
3.646 -4.658 1.888
3.686 -4.626 1.9
3.72 -4.587 1.91
3.764 -4.562 1.922
3.802 -4.528 1.934
3.839 -4.493 1.944
3.876 -4.459 1.955
3.914 -4.425 1.966
3.951 -4.39 1.977
3.988 -4.355 1.988
4.023 -4.317 1.998
4.06 -4.283 2.009
4.096 -4.247 2.019
3.739 -3.801 1.915
3.262 -3.247 1.776
3.276 -3.206 1.78
3.403 -3.276 1.817
4.287 -4.078 2.075
4.328 -4.046 2.087
4.362 -4.007 2.097
4.401 -3.974 2.108
4.442 -3.941 2.12
4.481 -3.907 2.131
4.52 -3.873 2.143
4.559 -3.838 2.154
4.597 -3.802 2.165
4.636 -3.767 2.177
0 0 0
0 0 0
4.357 -3.35 2.095
4.511 -3.408 2.14
4.681 -3.475 2.19
4.754 -3.466 2.211
4.8 -3.436 2.224
4.843 -3.403 2.237
4.885 -3.369 2.249
4.92 -3.33 2.259
4.969 -3.301 2.274
5.108 -3.33 2.314
5.15 -3.294 2.326
5.197 -3.26 2.34
5.233 -3.22 2.35
5.277 -3.183 2.363
5.317 -3.144 2.375
5.359 -3.106 2.387
5.402 -3.067 2.4
3.559 -1.963 1.863
3.538 -1.91 1.856
3.587 -1.896 1.871
0 0 0
2.35 -1.174 1.511
2.37 -1.159 1.516
2.387 -1.142 1.521
2.404 -1.124 1.526
2.429 -1.111 1.533
2.447 -1.093 1.539
2.471 -1.079 1.546
2.48 -1.057 1.548
2.498 -1.039 1.554
2.524 -1.025 1.561
2.538 -1.005 1.565
2.563 -0.989 1.573
2.581 -0.97 1.578
2.605 -0.954 1.585
2.619 -0.933 1.589
2.644 -0.916 1.596
2.66 -0.896 1.601
2.686 -0.879 1.608
2.708 -0.86 1.615
2.694 -0.829 1.611
2.663 -0.794 1.602
2.637 -0.761 1.594
2.61 -0.728 1.586
2.574 -0.694 1.576
2.546 -0.662 1.568
2.528 -0.633 1.562
2.503 -0.604 1.555
2.482 -0.575 1.549
2.455 -0.546 1.541
2.434 -0.519 1.535
2.414 -0.493 1.529
2.391 -0.466 1.523
2.37 -0.44 1.516
2.349 -0.415 1.51
2.328 -0.39 1.504
2.307 -0.366 1.498
2.285 -0.342 1.492
2.263 -0.318 1.485
2.251 -0.296 1.482
2.235 -0.274 1.477
2.212 -0.252 1.47
2.195 -0.231 1.466
2.179 -0.21 1.461
2.164 -0.189 1.456
2.148 -0.169 1.452
2.122 -0.148 1.444
1.688 -0.102 1.318
1.411 -0.072 1.237
1.428 -0.061 1.242
1.446 -0.049 1.247
1.456 -0.037 1.25
1.471 -0.025 1.255
1.487 -0.013 1.259
1.504 -0 1.264
1.513 0.013 1.267
1.53 0.026 1.272
1.547 0.04 1.277
1.556 0.053 1.279
1.568 0.067 1.283
1.264 0.064 1.194
1.251 0.074 1.191
1.248 0.084 1.19
1.235 0.094 1.186
1.247 0.106 1.189
1.246 0.116 1.189
1.234 0.125 1.185
1.215 0.134 1.18
1.199 0.142 1.175
1.202 0.153 1.176
1.191 0.161 1.173
1.182 0.17 1.17
1.178 0.18 1.169
1.16 0.187 1.164
1.155 0.196 1.162
1.14 0.203 1.158
1.14 0.213 1.158
1.133 0.221 1.156
1.125 0.229 1.154
1.122 0.239 1.153
1.116 0.247 1.151
1.119 0.257 1.152
1.111 0.265 1.15
1.104 0.273 1.148
1.099 0.282 1.146
1.097 0.291 1.146
1.105 0.303 1.148
1.1 0.312 1.146
1.096 0.321 1.145
1.094 0.33 1.145
1.096 0.341 1.145
1.091 0.349 1.144
1.098 0.362 1.146
1.085 0.367 1.142
1.084 0.377 1.142
1.081 0.386 1.141
1.081 0.397 1.141
1.075 0.405 1.139
1.081 0.417 1.141
1.08 0.427 1.141
1.06 0.429 1.135
1.058 0.439 1.134
1.053 0.447 1.133
1.042 0.452 1.13
1.031 0.458 1.126
1.332 0.617 1.214
2.136 1.04 1.448
2.125 1.057 1.445
2.084 1.059 1.433
1.727 0.888 1.329
1.697 0.891 1.32
1.717 0.921 1.326
1.989 1.097 1.406
2.07 1.168 1.429
1.971 1.132 1.4
1.95 1.142 1.394
1.947 1.163 1.393
1.938 1.18 1.391
2.024 1.259 1.415
2.04 1.295 1.42
2.077 1.345 1.431
2.224 1.472 1.474
3.282 2.243 1.782
3.214 2.237 1.762
0 0 0
2.759 1.984 1.63
2.74 2.006 1.624
2.681 1.998 1.607
2.675 2.03 1.605
3.156 2.451 1.745
3.498 2.774 1.845
3.185 2.565 1.754
3.08 2.523 1.723
3.059 2.55 1.717
3.038 2.577 1.711
3.016 2.604 1.705
2.994 2.63 1.698
2.972 2.656 1.692
2.949 2.683 1.685
2.927 2.708 1.679
2.904 2.734 1.672
2.881 2.76 1.665
2.858 2.785 1.658
2.834 2.81 1.652
2.818 2.843 1.647
2.009 2.035 1.411
1.924 1.979 1.386
1.89 1.977 1.377
1.767 1.874 1.341
1.498 1.601 1.262
1.375 1.487 1.226
1.278 1.4 1.198
1.193 1.323 1.174
1.108 1.243 1.149
1.049 1.192 1.132
1.04 1.202 1.129
1.018 1.195 1.123
0.966 1.149 1.108
0.915 1.102 1.093
0.871 1.062 1.08
0.836 1.033 1.07
0.803 1.006 1.06
0.774 0.982 1.052
0.741 0.952 1.042
0.713 0.928 1.034
0.688 0.907 1.026
0.665 0.89 1.02
0.639 0.865 1.012
0.622 0.855 1.007
0.595 0.827 0.999
0.579 0.818 0.995
0.563 0.805 0.99
0.543 0.787 0.984
0.527 0.775 0.98
0.505 0.75 0.973
0.489 0.736 0.968
0.485 0.744 0.967
0.477 0.743 0.965
0.509 0.822 0.974
0.491 0.804 0.969
0.476 0.791 0.965
0.459 0.772 0.96
0.444 0.758 0.955
0.43 0.745 0.951
0.416 0.731 0.947
0.403 0.717 0.943
0.39 0.705 0.94
0.382 0.702 0.937
0.369 0.688 0.934
0.359 0.679 0.931
0.347 0.665 0.927
0.34 0.663 0.925
0.331 0.657 0.923
0.32 0.643 0.919
0.311 0.636 0.917
0.303 0.629 0.914
0.294 0.619 0.912
0.275 0.579 0.906
0.266 0.569 0.904
0.258 0.56 0.901
0.251 0.553 0.899
0.245 0.548 0.897
0.238 0.542 0.895
0.235 0.547 0.894
0.231 0.552 0.893
0.227 0.557 0.892
0.223 0.558 0.891
0.216 0.552 0.889
0.21 0.544 0.887
0.204 0.541 0.886
0.197 0.531 0.884
0.192 0.526 0.882
0.187 0.526 0.881
0.181 0.518 0.879
0.176 0.513 0.877
0.17 0.504 0.876
0.166 0.508 0.874
0.161 0.5 0.873
0.156 0.494 0.871
0.152 0.496 0.87
0.147 0.489 0.869
0.142 0.486 0.867
0.138 0.483 0.866
0.133 0.479 0.865
0.129 0.474 0.864
0.124 0.468 0.862
0.12 0.469 0.861
0.116 0.462 0.86
0.112 0.455 0.859
0.108 0.456 0.858
0.104 0.452 0.856
0.1 0.449 0.855
0.097 0.447 0.854
0.093 0.445 0.853
0.089 0.444 0.852
0.089 -0.952 0.853
0.097 -0.941 0.855
0.104 -0.94 0.857
0.112 -0.928 0.86
0.119 -0.919 0.862
0.127 -0.91 0.864
0.135 -0.917 0.866
0.142 -0.904 0.868
0.149 -0.9 0.871
0.156 -0.892 0.873
0.162 -0.878 0.875
0.17 -0.886 0.877
0.177 -0.879 0.879
0.184 -0.876 0.881
0.188 -0.848 0.882
0.195 -0.846 0.885
0.202 -0.843 0.887
0.214 -0.872 0.89
0.223 -0.886 0.893
0.231 -0.89 0.895
0.24 -0.893 0.898
0.25 -0.911 0.901
0.26 -0.919 0.904
0.272 -0.941 0.907
0.282 -0.948 0.91
0.292 -0.96 0.914
0.306 -0.984 0.918
0.318 -0.996 0.921
0.353 -1.105 0.932
0.39 -1.216 0.943
0.402 -1.219 0.946
0.415 -1.229 0.95
0.426 -1.228 0.954
0.45 -1.273 0.961
0.47 -1.303 0.967
0.486 -1.315 0.971
0.509 -1.351 0.978
0.537 -1.4 0.987
0.558 -1.424 0.993
0.585 -1.464 1.001
0.583 -1.418 1.001
0.611 -1.457 1.009
0.659 -1.55 1.023
0.66 -1.514 1.024
0.68 -1.529 1.03
0.694 -1.526 1.034
0.703 -1.511 1.037
0.715 -1.503 1.04
0.728 -1.5 1.044
0.982 -2.046 1.12
1.056 -2.166 1.142
1.07 -2.148 1.146
1.088 -2.138 1.152
1.102 -2.121 1.156
1.116 -2.105 1.16
1.13 -2.088 1.164
1.147 -2.078 1.169
1.16 -2.06 1.173
1.178 -2.052 1.179
2.313 -4.105 1.518
2.547 -4.445 1.588
3.031 -5.215 1.733
1.947 -3.229 1.409
1.891 -3.07 1.392
1.875 -2.984 1.387
0 0 0
1.851 -2.832 1.38
1.872 -2.813 1.386
1.901 -2.805 1.395
2.12 -3.086 1.461
2.16 -3.088 1.473
2.231 -3.134 1.494
2.235 -3.084 1.495
2.261 -3.064 1.503
3.526 -4.761 1.881
3.56 -4.723 1.892
3.6 -4.691 1.903
3.64 -4.66 1.915
3.679 -4.628 1.927
3.717 -4.595 1.938
3.75 -4.554 1.948
3.793 -4.527 1.961
3.825 -4.487 1.971
3.869 -4.46 1.984
3.899 -4.417 1.993
3.942 -4.39 2.006
3.978 -4.354 2.017
4.015 -4.319 2.028
4.052 -4.284 2.039
3.991 -4.145 2.02
3.73 -3.801 1.942
3.261 -3.254 1.802
3.262 -3.199 1.802
3.312 -3.193 1.817
4.279 -4.078 2.106
4.313 -4.04 2.117
4.359 -4.013 2.13
4.392 -3.974 2.14
4.432 -3.941 2.152
4.471 -3.907 2.164
4.51 -3.872 2.176
4.548 -3.837 2.187
4.587 -3.802 2.199
4.622 -3.764 2.209
0 0 0
0 0 0
4.34 -3.344 2.125
4.599 -3.484 2.202
4.686 -3.486 2.228
4.756 -3.475 2.249
4.794 -3.439 2.261
4.839 -3.408 2.274
4.877 -3.371 2.285
4.931 -3.346 2.302
5.003 -3.332 2.323
5.102 -3.334 2.353
5.138 -3.293 2.364
5.18 -3.257 2.376
5.223 -3.22 2.389
5.263 -3.182 2.401
5.297 -3.139 2.411
5.348 -3.106 2.426
5.39 -3.067 2.439
3.544 -1.958 1.887
3.524 -1.907 1.881
0 0 0
0 0 0
2.344 -1.174 1.528
2.364 -1.159 1.534
2.383 -1.142 1.539
2.406 -1.128 1.546
2.425 -1.111 1.552
2.432 -1.089 1.554
2.456 -1.075 1.561
2.475 -1.057 1.567
2.499 -1.042 1.574
2.518 -1.025 1.58
2.541 -1.008 1.586
2.566 -0.993 1.594
2.582 -0.973 1.599
2.598 -0.953 1.603
2.613 -0.933 1.608
2.639 -0.916 1.616
2.652 -0.895 1.62
2.678 -0.878 1.627
2.7 -0.859 1.634
2.686 -0.829 1.63
2.658 -0.794 1.621
2.63 -0.761 1.613
2.602 -0.728 1.605
2.576 -0.696 1.597
2.549 -0.664 1.589
2.521 -0.633 1.581
2.496 -0.603 1.573
2.476 -0.575 1.567
2.447 -0.546 1.558
2.429 -0.519 1.553
2.406 -0.492 1.546
2.386 -0.466 1.54
2.364 -0.44 1.534
2.344 -0.415 1.527
2.323 -0.39 1.521
2.293 -0.364 1.512
2.28 -0.342 1.508
2.258 -0.318 1.502
2.245 -0.296 1.498
2.23 -0.274 1.493
2.206 -0.252 1.486
2.19 -0.231 1.482
2.174 -0.21 1.477
2.16 -0.189 1.472
2.144 -0.169 1.468
2.127 -0.149 1.463
1.676 -0.101 1.328
1.414 -0.072 1.249
1.424 -0.061 1.252
1.442 -0.049 1.258
1.452 -0.037 1.261
1.468 -0.025 1.265
1.484 -0.013 1.27
1.499 -0 1.275
1.518 0.013 1.28
1.525 0.026 1.283
1.536 0.04 1.286
1.553 0.053 1.291
1.546 0.066 1.289
1.258 0.064 1.202
1.25 0.074 1.2
1.236 0.084 1.196
1.232 0.094 1.195
1.246 0.106 1.199
1.239 0.116 1.197
1.221 0.124 1.191
1.219 0.134 1.191
1.21 0.144 1.188
1.194 0.152 1.183
1.188 0.161 1.182
1.174 0.169 1.178
1.165 0.178 1.175
1.158 0.187 1.173
1.152 0.196 1.171
1.131 0.202 1.165
1.13 0.211 1.164
1.131 0.221 1.164
1.125 0.23 1.163
1.117 0.238 1.16
1.108 0.246 1.158
1.112 0.257 1.159
1.108 0.265 1.158
1.099 0.273 1.155
1.096 0.282 1.154
1.105 0.294 1.157
1.104 0.304 1.157
1.094 0.311 1.153
1.094 0.321 1.153
1.1 0.333 1.155
1.089 0.339 1.152
1.09 0.35 1.152
1.087 0.359 1.151
1.085 0.368 1.151
1.079 0.376 1.149
1.076 0.385 1.148
1.08 0.397 1.149
1.085 0.41 1.151
1.08 0.418 1.149
1.076 0.427 1.148
1.059 0.43 1.143
1.057 0.439 1.142
1.046 0.445 1.139
1.04 0.452 1.137
1.029 0.458 1.134
1.067 0.487 1.145
2.136 1.042 1.465
2.133 1.064 1.464
2.087 1.063 1.451
1.732 0.893 1.344
1.698 0.893 1.334
1.709 0.919 1.338
1.981 1.095 1.419
2.064 1.167 1.444
1.96 1.128 1.413
1.946 1.142 1.408
1.943 1.163 1.407
1.927 1.176 1.403
2.011 1.254 1.428
2.038 1.297 1.436
2.06 1.337 1.443
2.22 1.473 1.49
2.915 1.99 1.698
2.811 1.953 1.667
2.749 1.944 1.649
2.716 1.956 1.639
2.707 1.986 1.636
2.681 2.002 1.628
2.727 2.075 1.642
2.898 2.25 1.693
3.49 2.774 1.871
3.184 2.57 1.779
3.073 2.523 1.746
3.052 2.55 1.739
3.031 2.577 1.733
3.009 2.604 1.727
2.987 2.63 1.72
2.965 2.656 1.713
2.943 2.683 1.707
2.92 2.708 1.7
2.905 2.741 1.695
2.875 2.76 1.686
2.851 2.785 1.679
2.836 2.818 1.675
2.805 2.835 1.665
2.006 2.036 1.426
1.919 1.979 1.4
1.886 1.977 1.39
1.768 1.88 1.355
1.498 1.605 1.274
1.369 1.485 1.236
1.273 1.398 1.207
1.194 1.327 1.183
1.107 1.245 1.157
1.046 1.19 1.139
1.038 1.202 1.137
1.015 1.194 1.13
0.959 1.142 1.113
0.916 1.105 1.1
0.874 1.069 1.088
0.835 1.033 1.076
0.802 1.006 1.066
0.768 0.976 1.056
0.74 0.953 1.048
0.712 0.93 1.039
0.686 0.907 1.031
0.664 0.89 1.025
0.638 0.866 1.017
0.616 0.847 1.01
0.6 0.837 1.006
0.578 0.818 0.999
0.556 0.796 0.993
0.542 0.788 0.988
0.526 0.775 0.983
0.506 0.754 0.977
0.486 0.734 0.972
0.483 0.743 0.971
0.476 0.744 0.968
0.507 0.821 0.978
0.489 0.803 0.972
0.48 0.801 0.97
0.458 0.772 0.963
0.443 0.758 0.959
0.428 0.744 0.954
0.415 0.731 0.95
0.402 0.719 0.947
0.39 0.706 0.943
0.381 0.702 0.94
0.368 0.687 0.936
0.358 0.678 0.933
0.346 0.665 0.93
0.339 0.663 0.928
0.327 0.648 0.924
0.319 0.643 0.921
0.31 0.636 0.919
0.302 0.629 0.916
0.29 0.612 0.913
0.275 0.58 0.908
0.266 0.569 0.906
0.259 0.563 0.903
0.251 0.555 0.901
0.245 0.55 0.899
0.237 0.54 0.897
0.234 0.546 0.896
0.228 0.545 0.894
0.224 0.547 0.893
0.222 0.558 0.892
0.213 0.543 0.89
0.209 0.545 0.889
0.204 0.541 0.887
0.197 0.533 0.885
0.191 0.525 0.883
0.187 0.527 0.882
0.181 0.518 0.88
0.175 0.512 0.879
0.17 0.505 0.877
0.166 0.509 0.876
0.16 0.5 0.874
0.156 0.502 0.873
0.151 0.494 0.871
0.146 0.489 0.87
0.142 0.488 0.869
0.138 0.485 0.867
0.133 0.477 0.866
0.128 0.474 0.865
0.124 0.468 0.863
0.12 0.47 0.862
0.116 0.464 0.861
0.112 0.462 0.86
0.108 0.456 0.858
0.104 0.451 0.857
0.1 0.449 0.856
0.096 0.447 0.855
0.092 0.436 0.854
0.089 0.445 0.853
0.088 -0.952 0.853
0.096 -0.945 0.855
0.104 -0.94 0.858
0.112 -0.927 0.86
0.119 -0.917 0.862
0.126 -0.909 0.864
0.134 -0.915 0.867
0.142 -0.91 0.869
0.149 -0.904 0.871
0.156 -0.896 0.873
0.163 -0.89 0.876
0.171 -0.897 0.878
0.177 -0.884 0.88
0.183 -0.867 0.882
0.188 -0.847 0.883
0.195 -0.843 0.885
0.203 -0.851 0.888
0.213 -0.872 0.891
0.222 -0.881 0.893
0.232 -0.898 0.897
0.241 -0.903 0.899
0.249 -0.906 0.902
0.26 -0.92 0.905
0.272 -0.943 0.909
0.281 -0.949 0.911
0.292 -0.961 0.915
0.306 -0.984 0.919
0.316 -0.992 0.922
0.352 -1.105 0.933
0.388 -1.211 0.944
0.401 -1.221 0.948
0.425 -1.267 0.955
0.436 -1.267 0.958
0.449 -1.272 0.962
0.465 -1.286 0.967
0.486 -1.318 0.974
0.509 -1.353 0.981
0.543 -1.419 0.991
0.567 -1.452 0.998
0.568 -1.416 0.998
0.586 -1.429 1.004
0.609 -1.456 1.011
0.656 -1.545 1.025
0.653 -1.499 1.024
0.677 -1.523 1.032
0.689 -1.515 1.035
0.702 -1.51 1.039
0.709 -1.492 1.041
0.731 -1.507 1.048
0.973 -2.027 1.121
1.055 -2.165 1.146
1.069 -2.147 1.15
1.083 -2.13 1.155
1.1 -2.121 1.16
1.115 -2.105 1.164
1.128 -2.087 1.168
1.141 -2.07 1.172
1.159 -2.061 1.178
1.174 -2.047 1.182
2.31 -4.104 1.527
2.532 -4.422 1.594
3.029 -5.217 1.745
1.94 -3.22 1.415
1.882 -3.059 1.397
1.876 -2.99 1.395
0 0 0
1.846 -2.829 1.386
1.87 -2.813 1.393
1.899 -2.805 1.402
2.126 -3.099 1.471
2.156 -3.086 1.48
2.228 -3.135 1.502
2.248 -3.106 1.508
3.48 -4.789 1.882
3.523 -4.762 1.895
3.562 -4.731 1.907
3.602 -4.699 1.919
3.635 -4.66 1.929
3.674 -4.627 1.941
3.712 -4.593 1.952
3.751 -4.561 1.964
3.789 -4.527 1.975
3.826 -4.493 1.987
3.864 -4.459 1.998
3.902 -4.425 2.01
3.938 -4.39 2.021
3.974 -4.354 2.031
4.01 -4.319 2.043
4.045 -4.282 2.053
3.926 -4.081 2.017
3.732 -3.808 1.958
3.251 -3.247 1.812
3.258 -3.199 1.815
3.309 -3.193 1.83
4.273 -4.078 2.122
4.315 -4.047 2.135
4.353 -4.013 2.147
4.387 -3.974 2.157
4.433 -3.947 2.171
4.466 -3.907 2.181
4.505 -3.873 2.193
4.543 -3.837 2.204
4.583 -3.803 2.216
4.62 -3.767 2.228
0 0 0
0 0 0
4.343 -3.35 2.144
4.632 -3.513 2.231
4.692 -3.496 2.25
