# .PCD v0.7 - Point Cloud Data file format
VERSION 0.7
FIELDS x y z
SIZE 4 4 4
TYPE F F F
COUNT 1 1 1
WIDTH 2502
HEIGHT 1
VIEWPOINT 0 0 0 1 0 0 0
POINTS 2502
DATA ascii
1.264 0.285 0.592
1.25 0.293 0.592
1.248 0.303 0.592
1.227 0.309 0.593
1.222 0.319 0.593
1.211 0.327 0.593
1.193 0.333 0.594
1.189 0.343 0.594
1.176 0.35 0.594
1.162 0.357 0.594
1.156 0.366 0.594
1.141 0.371 0.595
1.137 0.381 0.595
1.125 0.387 0.595
1.12 0.396 0.595
1.107 0.402 0.596
1.103 0.411 0.596
1.091 0.417 0.596
1.084 0.425 0.596
1.073 0.432 0.596
1.068 0.44 0.596
1.061 0.448 0.597
1.047 0.452 0.597
1.035 0.457 0.597
1.031 0.466 0.597
1.016 0.47 0.598
1.011 0.478 0.598
1.006 0.486 0.598
0.994 0.49 0.598
0.99 0.499 0.598
0.975 0.502 0.599
0.973 0.512 0.599
0.957 0.513 0.599
0.947 0.518 0.599
0.905 0.505 0.6
0.896 0.51 0.6
0.889 0.516 0.601
0.894 0.529 0.6
0.916 0.553 0.6
0.936 0.577 0.599
0.953 0.599 0.599
0.972 0.623 0.599
0.995 0.65 0.598
1.02 0.68 0.598
1.043 0.708 0.597
1.072 0.743 0.596
1.096 0.774 0.596
1.123 0.808 0.595
1.147 0.841 0.595
1.172 0.875 0.594
1.274 0.971 0.592
1.216 0.942 0.593
1.947 1.552 0.576
1.934 1.569 0.577
1.913 1.579 0.577
1.892 1.589 0.578
1.878 1.605 0.578
1.849 1.608 0.579
1.81 1.602 0.579
1.86 1.676 0.578
1.93 1.77 0.577
2.003 1.871 0.575
2.076 1.975 0.573
2.111 2.044 0.572
3.767 3.736 0.534
3.475 3.505 0.541
3.417 3.507 0.542
3.394 3.544 0.543
3.546 3.77 0.539
3.417 3.696 0.542
3.221 3.543 0.547
3.229 3.615 0.547
3.216 3.664 0.547
3.152 3.655 0.549
3.166 3.736 0.548
3.163 3.8 0.548
3.114 3.808 0.549
3.107 3.868 0.55
3.061 3.879 0.551
3.068 3.959 0.55
3.016 3.961 0.552
2.988 3.997 0.552
2.935 3.997 0.554
2.919 4.049 0.554
2.873 4.06 0.555
2.858 4.113 0.555
2.737 4.012 0.558
2.931 4.382 0.554
2.898 4.415 0.554
1.793 2.766 0.58
1.632 2.562 0.583
1.5 2.397 0.587
1.468 2.391 0.587
1.443 2.397 0.588
1.417 2.4 0.588
1.305 2.252 0.591
1.207 2.121 0.593
1.108 1.983 0.596
1.08 1.973 0.596
1.075 2.005 0.596
1.071 2.04 0.596
1.039 2.022 0.597
1.026 2.039 0.597
1.008 2.047 0.598
0.99 2.056 0.598
0.976 2.073 0.599
0.958 2.082 0.599
0.881 1.953 0.601
0.814 1.844 0.602
0.774 1.794 0.603
0.736 1.744 0.604
0.703 1.705 0.605
0.665 1.652 0.606
0.647 1.647 0.606
0.653 1.707 0.606
0.637 1.709 0.606
0.625 1.726 0.607
0.608 1.724 0.607
0.574 1.67 0.608
0.491 1.458 0.61
0.453 1.379 0.611
0.398 1.239 0.612
0.373 1.192 0.612
0.349 1.147 0.613
0.326 1.101 0.614
0.316 1.1 0.614
0.303 1.089 0.614
0.294 1.093 0.614
0.285 1.1 0.614
0.274 1.093 0.615
0.264 1.095 0.615
0.257 1.107 0.615
0.247 1.111 0.615
0.239 1.121 0.616
0.23 1.125 0.616
0.22 1.125 0.616
0.212 1.138 0.616
0.202 1.139 0.616
0.194 1.156 0.617
0.185 1.163 0.617
0.176 1.181 0.617
0.165 1.173 0.617
0.155 1.176 0.617
0.144 1.168 0.618
0.132 1.147 0.618
0.118 1.106 0.618
0.108 1.101 0.619
0.099 1.097 0.619
0.089 1.091 0.619
0.079 1.093 0.619
0.07 1.1 0.619
0.06 1.104 0.62
0.051 1.104 0.62
0.041 1.102 0.62
0.031 0.146 0.62
0.031 -0.414 0.621
0.036 -0.584 0.62
0.043 -0.694 0.62
0.05 -0.723 0.62
0.057 -0.743 0.62
0.064 -0.754 0.62
0.071 -0.764 0.62
0.078 -0.765 0.62
0.086 -0.776 0.62
0.092 -0.774 0.62
0.101 -0.795 0.619
0.108 -0.794 0.619
0.116 -0.804 0.619
0.123 -0.803 0.619
0.131 -0.812 0.619
0.139 -0.819 0.619
0.148 -0.828 0.619
0.156 -0.834 0.619
0.165 -0.846 0.618
0.174 -0.851 0.618
0.181 -0.847 0.618
0.19 -0.856 0.618
0.2 -0.867 0.618
0.209 -0.875 0.618
0.219 -0.883 0.618
0.228 -0.889 0.617
0.241 -0.91 0.617
0.253 -0.922 0.617
0.267 -0.946 0.617
0.279 -0.959 0.617
0.3 -1.003 0.616
0.313 -1.015 0.616
0.334 -1.057 0.616
0.347 -1.065 0.616
0.362 -1.083 0.615
0.375 -1.091 0.615
0.395 -1.118 0.615
0.404 -1.114 0.615
0.415 -1.114 0.615
0.424 -1.109 0.614
0.435 -1.108 0.614
0.441 -1.095 0.614
0.452 -1.096 0.614
0.457 -1.081 0.614
0.467 -1.077 0.614
0.472 -1.064 0.614
0.48 -1.057 0.614
0.505 -1.089 0.613
0.521 -1.1 0.613
0.528 -1.089 0.613
0.546 -1.105 0.612
0.607 -1.207 0.612
0.621 -1.209 0.611
0.639 -1.219 0.611
0.655 -1.225 0.611
0.672 -1.231 0.611
0.677 -1.215 0.61
0.701 -1.234 0.61
0.709 -1.224 0.61
0.743 -1.258 0.609
0.77 -1.279 0.609
0.791 -1.289 0.609
0.823 -1.317 0.608
0.85 -1.336 0.608
0.951 -1.472 0.606
1.292 -1.979 0.601
1.304 -1.96 0.601
1.316 -1.94 0.6
1.332 -1.929 0.6
1.344 -1.91 0.6
1.354 -1.89 0.6
1.365 -1.87 0.6
1.381 -1.858 0.599
1.392 -1.838 0.599
1.408 -1.827 0.599
1.418 -1.807 0.599
1.434 -1.795 0.599
1.519 -1.87 0.597
2.102 -2.558 0.588
2.136 -2.554 0.588
2.153 -2.529 0.587
2.168 -2.502 0.587
2.277 -2.583 0.585
2.623 -2.93 0.58
2.653 -2.912 0.58
2.683 -2.895 0.579
2.687 -2.848 0.579
2.405 -2.502 0.583
2.412 -2.465 0.583
0 0 0
2.494 -2.463 0.582
2.479 -2.406 0.582
2.502 -2.386 0.582
2.526 -2.368 0.582
2.553 -2.352 0.581
2.575 -2.331 0.581
2.897 -2.581 0.576
3.018 -2.643 0.574
3.043 -2.618 0.574
3.057 -2.585 0.573
3.028 -2.515 0.574
3.023 -2.466 0.574
3.095 -2.481 0.573
3.125 -2.461 0.572
3.135 -2.425 0.572
3.127 -2.375 0.572
3.17 -2.365 0.572
3.224 -2.363 0.571
3.267 -2.351 0.57
3.378 -2.387 0.568
3.333 -2.312 0.569
3.351 -2.282 0.569
3.355 -2.242 0.569
3.371 -2.211 0.568
3.391 -2.182 0.568
3.416 -2.157 0.568
3.432 -2.125 0.567
3.985 -2.423 0.559
3.405 -2.027 0.568
3.335 -1.946 0.569
3.36 -1.922 0.569
3.382 -1.896 0.568
3.4 -1.867 0.568
3.425 -1.843 0.568
3.444 -1.815 0.567
3.47 -1.79 0.567
3.489 -1.762 0.567
3.51 -1.735 0.566
3.533 -1.708 0.566
3.557 -1.682 0.565
3.575 -1.653 0.565
3.592 -1.623 0.565
3.617 -1.596 0.565
3.636 -1.567 0.564
3.659 -1.54 0.564
3.735 -1.534 0.563
4.484 -1.799 0.551
4.454 -1.742 0.552
2.491 -0.944 0.582
2.522 -0.931 0.582
2.538 -0.913 0.581
2.69 -0.942 0.579
2.767 -0.942 0.578
2.745 -0.908 0.578
2.679 -0.86 0.579
2.624 -0.818 0.58
2.584 -0.781 0.581
2.524 -0.738 0.582
2.469 -0.699 0.582
2.411 -0.66 0.583
2.397 -0.634 0.584
2.355 -0.601 0.584
2.314 -0.569 0.585
2.282 -0.54 0.585
2.248 -0.512 0.586
2.213 -0.484 0.586
2.179 -0.457 0.587
2.143 -0.43 0.588
2.116 -0.405 0.588
2.081 -0.38 0.589
2.055 -0.357 0.589
2.029 -0.334 0.589
2.003 -0.312 0.59
1.932 -0.284 0.591
1.847 -0.255 0.592
1.838 -0.238 0.592
1.816 -0.219 0.593
1.799 -0.201 0.593
1.81 -0.187 0.593
1.813 -0.172 0.593
1.823 -0.157 0.593
1.807 -0.14 0.593
1.787 -0.123 0.593
1.767 -0.106 0.593
1.747 -0.09 0.594
1.727 -0.074 0.594
1.705 -0.058 0.594
1.686 -0.043 0.595
1.655 -0.028 0.595
1.646 -0.014 0.595
1.627 -0 0.596
1.609 0.014 0.596
1.589 0.027 0.596
1.569 0.04 0.597
1.558 0.053 0.597
1.538 0.066 0.597
1.528 0.078 0.597
1.507 0.09 0.597
1.496 0.102 0.598
1.475 0.114 0.598
1.463 0.125 0.598
1.453 0.137 0.598
1.439 0.148 0.599
1.428 0.159 0.599
1.415 0.17 0.599
1.403 0.181 0.599
1.391 0.191 0.599
1.37 0.2 0.6
1.359 0.21 0.6
1.337 0.219 0.6
1.326 0.228 0.6
1.315 0.238 0.6
1.313 0.249 0.601
1.291 0.256 0.601
1.289 0.267 0.601
1.266 0.274 0.601
1.264 0.285 0.601
1.251 0.293 0.601
1.239 0.301 0.602
1.235 0.311 0.602
1.221 0.319 0.602
1.209 0.327 0.602
1.203 0.336 0.602
1.188 0.343 0.602
1.175 0.35 0.603
1.162 0.357 0.603
1.156 0.366 0.603
1.142 0.372 0.603
1.137 0.381 0.603
1.124 0.387 0.603
1.12 0.396 0.604
1.107 0.402 0.604
1.104 0.412 0.604
1.088 0.416 0.604
1.085 0.426 0.604
1.071 0.431 0.604
1.067 0.44 0.604
1.053 0.444 0.605
1.049 0.453 0.605
1.036 0.458 0.605
1.031 0.466 0.605
1.027 0.475 0.605
1.011 0.478 0.605
1.007 0.486 0.605
0.995 0.491 0.605
0.989 0.499 0.606
0.977 0.503 0.606
0.972 0.511 0.606
0.968 0.519 0.606
0.947 0.518 0.606
0.906 0.505 0.607
0.897 0.51 0.607
0.889 0.516 0.607
0.899 0.532 0.607
0.912 0.551 0.607
0.928 0.571 0.607
0.958 0.602 0.606
0.97 0.621 0.606
0.998 0.652 0.605
1.016 0.677 0.605
1.045 0.71 0.605
1.068 0.739 0.604
1.094 0.772 0.604
1.113 0.801 0.604
1.147 0.841 0.603
1.178 0.88 0.603
1.272 0.97 0.601
1.595 1.244 0.596
1.948 1.552 0.591
1.934 1.569 0.591
1.913 1.579 0.591
1.899 1.596 0.591
1.878 1.605 0.592
1.849 1.608 0.592
1.811 1.603 0.593
1.86 1.675 0.592
1.922 1.764 0.591
2.001 1.87 0.59
2.078 1.976 0.589
2.109 2.042 0.588
3.774 3.743 0.562
3.477 3.507 0.567
3.418 3.508 0.568
3.415 3.566 0.568
3.566 3.791 0.565
3.438 3.718 0.567
3.236 3.56 0.571
3.261 3.65 0.57
3.227 3.676 0.571
3.173 3.679 0.571
3.244 3.829 0.57
3.251 3.907 0.57
3.188 3.898 0.571
3.206 3.992 0.571
3.137 3.976 0.572
3.16 4.078 0.572
3.094 4.065 0.573
3.1 4.148 0.573
3.022 4.116 0.574
3.011 4.178 0.574
2.946 4.163 0.575
2.947 4.243 0.575
2.736 4.01 0.578
2.937 4.39 0.575
2.898 4.415 0.576
1.799 2.776 0.593
1.637 2.57 0.595
1.5 2.397 0.598
1.468 2.391 0.598
1.443 2.396 0.598
1.417 2.4 0.599
1.305 2.251 0.601
1.206 2.12 0.602
1.112 1.991 0.604
1.08 1.973 0.604
1.07 1.995 0.604
1.057 2.014 0.605
1.039 2.021 0.605
1.021 2.029 0.605
1.003 2.038 0.605
0.99 2.056 0.606
0.972 2.065 0.606
0.958 2.081 0.606
0.881 1.953 0.607
0.81 1.835 0.608
0.774 1.794 0.609
0.735 1.743 0.61
0.703 1.705 0.61
0.665 1.651 0.611
0.64 1.627 0.611
0.647 1.691 0.611
0.632 1.698 0.611
0.62 1.709 0.611
0.607 1.719 0.612
0.577 1.681 0.612
0.491 1.459 0.613
0.456 1.39 0.614
0.401 1.247 0.615
0.374 1.194 0.615
0.348 1.142 0.616
0.328 1.109 0.616
0.316 1.1 0.616
0.302 1.088 0.616
0.294 1.093 0.616
0.285 1.101 0.617
0.274 1.094 0.617
0.265 1.097 0.617
0.257 1.107 0.617
0.247 1.109 0.617
0.239 1.121 0.617
0.23 1.125 0.617
0.221 1.136 0.618
0.212 1.138 0.618
0.203 1.15 0.618
0.194 1.155 0.618
0.184 1.163 0.618
0.176 1.179 0.618
0.165 1.173 0.618
0.155 1.177 0.619
0.144 1.168 0.619
0.132 1.147 0.619
0.118 1.101 0.619
0.109 1.104 0.619
0.099 1.108 0.619
0.088 1.091 0.62
0.079 1.092 0.62
0.07 1.1 0.62
0.06 1.103 0.62
0.051 1.103 0.62
0.041 1.112 0.62
0.031 0.141 0.621
0.031 -0.421 0.621
0.036 -0.585 0.621
0.043 -0.693 0.621
0.05 -0.733 0.621
0.057 -0.744 0.621
0.064 -0.753 0.62
0.071 -0.765 0.62
0.078 -0.765 0.62
0.085 -0.774 0.62
0.092 -0.776 0.62
0.1 -0.783 0.62
0.108 -0.794 0.62
0.116 -0.804 0.62
0.122 -0.801 0.62
0.131 -0.81 0.62
0.139 -0.819 0.62
0.148 -0.828 0.62
0.157 -0.841 0.62
0.165 -0.845 0.62
0.173 -0.849 0.62
0.181 -0.851 0.62
0.192 -0.865 0.619
0.2 -0.867 0.619
0.209 -0.875 0.619
0.22 -0.886 0.619
0.229 -0.891 0.619
0.239 -0.899 0.619
0.249 -0.907 0.619
0.263 -0.93 0.619
0.275 -0.944 0.619
0.292 -0.973 0.619
0.306 -0.993 0.618
0.326 -1.03 0.618
0.339 -1.038 0.618
0.356 -1.062 0.618
0.371 -1.079 0.618
0.388 -1.098 0.618
0.397 -1.094 0.618
0.414 -1.111 0.618
0.423 -1.108 0.618
0.434 -1.107 0.617
0.441 -1.095 0.617
0.451 -1.094 0.617
0.457 -1.082 0.617
0.467 -1.078 0.617
0.472 -1.063 0.617
0.48 -1.057 0.617
0.501 -1.081 0.617
0.521 -1.1 0.617
0.528 -1.091 0.617
0.548 -1.108 0.616
0.621 -1.237 0.616
0.632 -1.231 0.616
0.655 -1.252 0.616
0.664 -1.241 0.616
0.684 -1.253 0.615
0.698 -1.255 0.615
0.715 -1.26 0.615
0.736 -1.271 0.615
0.753 -1.276 0.615
0.771 -1.281 0.615
0.796 -1.298 0.614
0.822 -1.317 0.614
0.855 -1.344 0.614
0.953 -1.476 0.613
1.292 -1.979 0.61
1.304 -1.96 0.61
1.315 -1.94 0.61
1.332 -1.929 0.61
1.343 -1.91 0.61
1.354 -1.89 0.61
1.365 -1.87 0.61
1.381 -1.858 0.61
1.391 -1.838 0.61
1.408 -1.827 0.609
1.418 -1.807 0.609
1.433 -1.794 0.609
1.521 -1.873 0.608
2.102 -2.558 0.604
2.137 -2.554 0.603
2.153 -2.529 0.603
2.168 -2.502 0.603
2.275 -2.581 0.602
2.628 -2.935 0.599
2.657 -2.916 0.599
2.69 -2.901 0.599
2.683 -2.844 0.599
2.399 -2.495 0.601
2.408 -2.461 0.601
0 0 0
2.491 -2.46 0.601
2.473 -2.399 0.601
2.495 -2.379 0.6
2.518 -2.36 0.6
2.538 -2.338 0.6
2.567 -2.323 0.6
2.905 -2.588 0.597
3.023 -2.647 0.596
3.046 -2.621 0.596
3.066 -2.592 0.596
3.041 -2.526 0.596
3.06 -2.497 0.596
3.107 -2.491 0.595
3.123 -2.46 0.595
3.132 -2.423 0.595
3.118 -2.369 0.595
3.158 -2.356 0.595
3.224 -2.363 0.594
3.265 -2.349 0.594
3.385 -2.392 0.593
3.336 -2.314 0.594
3.348 -2.28 0.593
3.358 -2.244 0.593
3.366 -2.207 0.593
3.392 -2.183 0.593
3.411 -2.153 0.593
3.431 -2.124 0.593
3.992 -2.428 0.588
3.402 -2.026 0.593
3.336 -1.947 0.594
3.36 -1.922 0.593
3.384 -1.897 0.593
3.4 -1.867 0.593
3.425 -1.843 0.593
3.445 -1.815 0.593
3.47 -1.79 0.592
3.489 -1.762 0.592
3.503 -1.731 0.592
3.534 -1.708 0.592
3.548 -1.678 0.592
3.575 -1.652 0.592
3.593 -1.623 0.591
3.617 -1.596 0.591
3.636 -1.567 0.591
3.659 -1.54 0.591
3.729 -1.532 0.59
4.431 -1.778 0.585
4.433 -1.734 0.585
2.5 -0.948 0.6
2.504 -0.925 0.6
2.531 -0.91 0.6
2.678 -0.937 0.599
2.77 -0.943 0.598
2.747 -0.909 0.598
2.677 -0.86 0.599
2.634 -0.821 0.599
2.576 -0.778 0.6
2.524 -0.738 0.6
2.465 -0.698 0.601
2.435 -0.667 0.601
2.397 -0.634 0.601
2.356 -0.601 0.602
2.323 -0.571 0.602
2.281 -0.54 0.602
2.248 -0.512 0.603
2.213 -0.484 0.603
2.179 -0.457 0.603
2.142 -0.429 0.603
2.116 -0.405 0.604
2.081 -0.38 0.604
2.055 -0.357 0.604
2.029 -0.334 0.604
2.004 -0.312 0.605
1.932 -0.284 0.605
1.838 -0.254 0.606
1.838 -0.238 0.606
1.816 -0.219 0.606
1.799 -0.201 0.606
1.807 -0.187 0.606
1.811 -0.171 0.606
1.823 -0.157 0.606
1.808 -0.14 0.606
1.786 -0.123 0.606
1.767 -0.106 0.606
1.747 -0.09 0.607
1.726 -0.074 0.607
1.705 -0.058 0.607
1.688 -0.043 0.607
1.655 -0.028 0.607
1.646 -0.014 0.607
1.627 -0 0.608
1.608 0.014 0.608
1.588 0.027 0.608
1.579 0.041 0.608
1.559 0.053 0.608
1.539 0.066 0.608
1.528 0.078 0.608
1.506 0.09 0.609
1.496 0.102 0.609
1.474 0.114 0.609
1.463 0.125 0.609
1.451 0.137 0.609
1.439 0.148 0.609
1.428 0.159 0.609
1.416 0.17 0.609
1.403 0.181 0.609
1.392 0.191 0.61
1.369 0.2 0.61
1.349 0.209 0.61
1.34 0.219 0.61
1.328 0.229 0.61
1.316 0.238 0.61
1.312 0.249 0.61
1.301 0.258 0.61
1.289 0.267 0.61
1.276 0.276 0.611
1.264 0.285 0.611
1.251 0.293 0.611
1.249 0.304 0.611
1.226 0.309 0.611
1.212 0.317 0.611
1.209 0.327 0.611
1.194 0.334 0.611
1.19 0.343 0.611
1.175 0.35 0.611
1.17 0.359 0.611
1.156 0.366 0.611
1.144 0.372 0.612
1.137 0.381 0.612
1.125 0.387 0.612
1.12 0.396 0.612
1.108 0.403 0.612
1.104 0.412 0.612
1.088 0.416 0.612
1.085 0.426 0.612
1.081 0.435 0.612
1.065 0.439 0.612
1.062 0.448 0.612
1.05 0.454 0.612
1.035 0.457 0.612
1.032 0.467 0.613
1.016 0.47 0.613
1.013 0.479 0.613
1.007 0.486 0.613
0.995 0.491 0.613
0.99 0.499 0.613
0.986 0.507 0.613
0.971 0.511 0.613
0.968 0.519 0.613
0.948 0.519 0.613
0.906 0.505 0.614
0.897 0.51 0.614
0.887 0.514 0.614
0.899 0.532 0.614
0.91 0.549 0.614
0.928 0.571 0.613
0.957 0.601 0.613
0.972 0.623 0.613
0.999 0.653 0.613
1.016 0.677 0.613
1.04 0.706 0.612
1.066 0.738 0.612
1.096 0.774 0.612
1.113 0.801 0.612
1.144 0.839 0.612
1.17 0.874 0.611
1.264 0.963 0.611
1.543 1.203 0.608
1.948 1.552 0.605
1.934 1.569 0.605
1.913 1.579 0.605
1.892 1.589 0.605
1.878 1.605 0.606
1.849 1.608 0.606
1.812 1.603 0.606
1.86 1.676 0.606
1.921 1.762 0.605
2.002 1.87 0.605
2.07 1.969 0.604
2.107 2.04 0.604
3.767 3.736 0.59
3.466 3.496 0.593
3.415 3.504 0.593
3.457 3.61 0.593
3.575 3.8 0.592
3.454 3.735 0.593
3.273 3.601 0.594
3.289 3.682 0.594
3.244 3.696 0.594
3.183 3.69 0.595
3.375 3.986 0.593
3.367 4.047 0.593
3.321 4.063 0.594
3.297 4.106 0.594
3.256 4.128 0.594
3.224 4.161 0.594
3.188 4.189 0.595
3.151 4.216 0.595
3.112 4.241 0.595
3.083 4.278 0.596
3.039 4.296 0.596
3.002 4.323 0.596
2.741 4.018 0.598
2.932 4.383 0.597
2.898 4.415 0.597
1.808 2.789 0.606
1.637 2.57 0.608
1.503 2.402 0.609
1.468 2.391 0.609
1.448 2.405 0.609
1.417 2.401 0.609
1.306 2.252 0.61
1.207 2.122 0.611
1.112 1.991 0.612
1.081 1.974 0.612
1.069 1.994 0.612
1.052 2.004 0.612
1.039 2.021 0.612
1.021 2.029 0.613
1.008 2.048 0.613
0.99 2.056 0.613
0.976 2.074 0.613
0.958 2.081 0.613
0.881 1.954 0.614
0.813 1.843 0.614
0.774 1.794 0.615
0.736 1.744 0.615
0.703 1.705 0.615
0.665 1.652 0.616
0.639 1.627 0.616
0.646 1.69 0.616
0.628 1.685 0.616
0.619 1.707 0.616
0.603 1.71 0.616
0.577 1.68 0.616
0.492 1.461 0.617
0.457 1.391 0.617
0.401 1.248 0.618
0.371 1.186 0.618
0.351 1.152 0.618
0.328 1.106 0.618
0.313 1.09 0.618
0.302 1.086 0.619
0.296 1.103 0.619
0.286 1.102 0.619
0.274 1.094 0.619
0.264 1.094 0.619
0.257 1.108 0.619
0.247 1.109 0.619
0.237 1.112 0.619
0.229 1.125 0.619
0.22 1.126 0.619
0.211 1.137 0.619
0.201 1.138 0.619
0.194 1.156 0.619
0.184 1.16 0.619
0.175 1.169 0.62
0.165 1.172 0.62
0.155 1.176 0.62
0.144 1.168 0.62
0.132 1.149 0.62
0.117 1.096 0.62
0.109 1.112 0.62
0.099 1.115 0.62
0.088 1.081 0.62
0.079 1.093 0.62
0.07 1.1 0.62
0.06 1.095 0.621
0.05 1.104 0.621
0.041 1.113 0.621
0.031 0.151 0.621
0.031 -0.414 0.621
0.036 -0.585 0.621
0.043 -0.682 0.621
0.05 -0.724 0.621
0.057 -0.755 0.621
0.064 -0.764 0.621
0.071 -0.765 0.621
0.078 -0.765 0.621
0.085 -0.774 0.621
0.093 -0.786 0.621
0.1 -0.793 0.621
0.108 -0.794 0.621
0.114 -0.794 0.621
0.123 -0.803 0.621
0.131 -0.812 0.621
0.139 -0.819 0.621
0.147 -0.828 0.621
0.155 -0.831 0.62
0.164 -0.837 0.62
0.173 -0.848 0.62
0.183 -0.86 0.62
0.19 -0.855 0.62
0.199 -0.864 0.62
0.209 -0.875 0.62
0.219 -0.884 0.62
0.229 -0.892 0.62
0.237 -0.891 0.62
0.25 -0.91 0.62
0.259 -0.915 0.62
0.27 -0.926 0.62
0.286 -0.95 0.62
0.297 -0.959 0.62
0.316 -0.992 0.62
0.33 -1.01 0.62
0.351 -1.045 0.62
0.367 -1.066 0.62
0.381 -1.076 0.62
0.393 -1.083 0.62
0.41 -1.1 0.62
0.419 -1.096 0.62
0.43 -1.095 0.62
0.442 -1.098 0.62
0.448 -1.087 0.619
0.457 -1.08 0.619
0.463 -1.068 0.619
0.472 -1.064 0.619
0.48 -1.057 0.619
0.5 -1.079 0.619
0.521 -1.1 0.619
0.528 -1.09 0.619
0.548 -1.109 0.619
0.63 -1.256 0.619
0.651 -1.271 0.619
0.671 -1.283 0.619
0.682 -1.277 0.619
0.7 -1.285 0.619
0.712 -1.281 0.619
0.728 -1.283 0.619
0.747 -1.291 0.618
0.765 -1.297 0.618
0.787 -1.309 0.618
0.803 -1.311 0.618
0.829 -1.329 0.618
0.855 -1.345 0.618
0.96 -1.487 0.618
1.292 -1.979 0.617
1.304 -1.96 0.617
1.315 -1.94 0.617
1.327 -1.921 0.617
1.343 -1.91 0.616
1.355 -1.891 0.616
1.365 -1.87 0.616
1.381 -1.858 0.616
1.392 -1.839 0.616
1.408 -1.827 0.616
1.418 -1.807 0.616
1.428 -1.788 0.616
1.529 -1.884 0.616
2.108 -2.565 0.614
2.137 -2.555 0.614
2.153 -2.529 0.614
2.168 -2.502 0.614
2.277 -2.583 0.613
2.634 -2.942 0.612
2.662 -2.922 0.612
2.696 -2.909 0.612
2.676 -2.836 0.612
2.402 -2.498 0.613
2.41 -2.463 0.613
0 0 0
2.492 -2.461 0.613
2.468 -2.395 0.613
2.49 -2.375 0.613
2.505 -2.347 0.613
2.54 -2.339 0.612
2.555 -2.313 0.612
2.944 -2.623 0.611
3.022 -2.647 0.611
3.049 -2.624 0.611
3.064 -2.591 0.611
3.004 -2.495 0.611
3.057 -2.494 0.611
3.104 -2.488 0.611
3.122 -2.459 0.611
3.13 -2.421 0.611
3.111 -2.363 0.611
3.15 -2.35 0.61
3.223 -2.362 0.61
3.268 -2.352 0.61
3.399 -2.402 0.61
3.341 -2.318 0.61
3.345 -2.278 0.61
3.359 -2.245 0.61
3.367 -2.208 0.61
3.387 -2.179 0.61
3.411 -2.153 0.61
3.432 -2.125 0.61
3.986 -2.424 0.608
3.4 -2.024 0.61
3.337 -1.947 0.61
3.362 -1.923 0.61
3.377 -1.893 0.61
3.4 -1.867 0.61
3.425 -1.843 0.61
3.443 -1.814 0.609
3.46 -1.785 0.609
3.482 -1.758 0.609
3.503 -1.731 0.609
3.527 -1.705 0.609
3.549 -1.678 0.609
3.566 -1.648 0.609
3.593 -1.623 0.609
3.616 -1.596 0.609
3.636 -1.567 0.609
3.66 -1.54 0.609
3.792 -1.558 0.608
4.529 -1.817 0.606
4.5 -1.76 0.606
2.502 -0.949 0.613
2.519 -0.93 0.613
2.533 -0.911 0.613
2.686 -0.94 0.612
2.77 -0.943 0.612
2.737 -0.905 0.612
2.677 -0.86 0.612
2.624 -0.818 0.612
2.583 -0.78 0.612
2.521 -0.738 0.613
2.466 -0.698 0.613
2.437 -0.667 0.613
2.397 -0.634 0.613
2.355 -0.601 0.613
2.314 -0.569 0.613
2.271 -0.538 0.613
2.238 -0.51 0.614
2.214 -0.484 0.614
2.179 -0.457 0.614
2.142 -0.429 0.614
2.116 -0.405 0.614
2.081 -0.38 0.614
2.055 -0.357 0.614
2.029 -0.334 0.614
2.003 -0.312 0.614
1.931 -0.284 0.615
1.847 -0.255 0.615
1.837 -0.238 0.615
1.816 -0.219 0.615
1.799 -0.201 0.615
1.802 -0.186 0.615
1.808 -0.171 0.615
1.823 -0.157 0.615
1.807 -0.14 0.615
1.787 -0.123 0.615
1.768 -0.106 0.615
1.747 -0.09 0.615
1.725 -0.074 0.615
1.695 -0.058 0.615
1.688 -0.043 0.615
1.665 -0.029 0.615
1.646 -0.014 0.615
1.628 -0 0.616
1.607 0.014 0.616
1.589 0.027 0.616
1.569 0.04 0.616
1.559 0.053 0.616
1.538 0.066 0.616
1.528 0.078 0.616
1.506 0.09 0.616
1.495 0.102 0.616
1.474 0.114 0.616
1.463 0.125 0.616
1.45 0.137 0.616
1.439 0.148 0.616
1.427 0.159 0.616
1.406 0.169 0.616
1.403 0.181 0.616
1.383 0.19 0.616
1.372 0.2 0.616
1.359 0.21 0.616
1.34 0.219 0.617
1.327 0.229 0.617
1.315 0.238 0.617
1.303 0.247 0.617
1.291 0.256 0.617
1.29 0.268 0.617
1.276 0.276 0.617
1.265 0.285 0.617
1.251 0.293 0.617
1.237 0.301 0.617
1.224 0.308 0.617
1.223 0.319 0.617
1.209 0.327 0.617
1.193 0.333 0.617
1.179 0.34 0.617
1.175 0.35 0.617
1.162 0.357 0.617
1.156 0.366 0.617
1.142 0.372 0.617
1.137 0.381 0.617
1.125 0.387 0.617
1.121 0.397 0.617
1.106 0.402 0.617
1.105 0.412 0.617
1.09 0.417 0.617
1.085 0.426 0.617
1.07 0.431 0.617
1.067 0.44 0.617
1.054 0.445 0.617
1.049 0.453 0.617
1.043 0.461 0.618
1.02 0.461 0.618
1.025 0.474 0.618
1.011 0.478 0.618
1.007 0.487 0.618
0.995 0.491 0.618
0.989 0.499 0.618
0.985 0.507 0.618
0.972 0.511 0.618
0.967 0.519 0.618
0.948 0.519 0.618
0.907 0.506 0.618
0.898 0.511 0.618
0.889 0.516 0.618
0.899 0.532 0.618
0.91 0.549 0.618
0.925 0.57 0.618
0.948 0.595 0.618
0.972 0.623 0.618
0.994 0.65 0.618
1.009 0.672 0.618
1.047 0.711 0.617
1.067 0.739 0.617
1.094 0.772 0.617
1.119 0.805 0.617
1.144 0.839 0.617
1.17 0.874 0.617
1.262 0.962 0.617
1.535 1.196 0.616
1.948 1.552 0.614
1.934 1.569 0.615
1.913 1.579 0.615
1.892 1.589 0.615
1.878 1.605 0.615
1.849 1.608 0.615
1.812 1.603 0.615
1.852 1.669 0.615
1.922 1.763 0.615
1.993 1.862 0.614
2.065 1.964 0.614
2.105 2.038 0.614
3.766 3.735 0.608
3.471 3.501 0.609
3.411 3.5 0.61
3.562 3.721 0.609
3.582 3.808 0.609
3.484 3.768 0.609
3.323 3.656 0.61
3.322 3.72 0.61
3.246 3.698 0.61
3.191 3.7 0.61
3.403 4.019 0.61
3.367 4.046 0.61
3.332 4.076 0.61
3.296 4.105 0.61
3.26 4.133 0.61
3.224 4.161 0.61
3.188 4.189 0.61
3.15 4.215 0.61
3.111 4.239 0.611
3.076 4.269 0.611
3.045 4.304 0.611
3.001 4.322 0.611
2.735 4.009 0.612
2.931 4.382 0.611
2.897 4.413 0.611
1.808 2.79 0.615
1.642 2.578 0.615
1.501 2.398 0.616
1.468 2.391 0.616
1.443 2.397 0.616
1.418 2.401 0.616
1.305 2.252 0.617
1.21 2.127 0.617
1.112 1.991 0.617
1.08 1.973 0.617
1.069 1.994 0.617
1.052 2.004 0.617
1.039 2.021 0.618
1.021 2.029 0.618
1.008 2.048 0.618
0.99 2.056 0.618
0.976 2.073 0.618
0.958 2.082 0.618
0.881 1.955 0.618
0.81 1.835 0.618
0.775 1.795 0.618
0.736 1.745 0.619
0.703 1.706 0.619
0.665 1.651 0.619
0.639 1.627 0.619
0.645 1.687 0.619
0.633 1.699 0.619
0.619 1.709 0.619
0.609 1.726 0.619
0.579 1.686 0.619
0.493 1.466 0.619
0.457 1.393 0.619
0.401 1.249 0.62
0.37 1.181 0.62
0.353 1.161 0.62
0.327 1.106 0.62
0.316 1.1 0.62
0.302 1.086 0.62
0.293 1.093 0.62
0.283 1.091 0.62
0.273 1.091 0.62
0.264 1.097 0.62
0.257 1.108 0.62
0.247 1.109 0.62
0.239 1.123 0.62
0.229 1.125 0.62
0.221 1.136 0.62
0.211 1.138 0.62
0.201 1.139 0.62
0.193 1.154 0.62
0.184 1.16 0.62
0.176 1.18 0.62
0.166 1.184 0.62
0.155 1.177 0.62
0.143 1.168 0.621
0.131 1.147 0.621
0.117 1.096 0.621
0.109 1.108 0.621
0.098 1.102 0.621
0.088 1.09 0.621
0.079 1.092 0.621
0.069 1.09 0.621
0.06 1.094 0.621
0.05 1.103 0.621
0.041 1.102 0.621
0.031 0.154 0.621
0.031 -0.404 0.621
0.036 -0.575 0.621
0.043 -0.693 0.621
0.05 -0.724 0.621
0.057 -0.745 0.621
0.064 -0.765 0.621
0.071 -0.764 0.621
0.078 -0.765 0.621
0.085 -0.774 0.621
0.092 -0.776 0.621
0.1 -0.785 0.621
0.107 -0.794 0.621
0.114 -0.794 0.621
0.122 -0.803 0.621
0.131 -0.812 0.622
0.139 -0.819 0.622
0.147 -0.827 0.622
0.157 -0.844 0.622
0.165 -0.843 0.622
0.174 -0.855 0.622
0.182 -0.858 0.622
0.19 -0.856 0.622
0.201 -0.877 0.622
0.209 -0.876 0.622
0.219 -0.886 0.622
0.229 -0.894 0.622
0.239 -0.899 0.622
0.249 -0.91 0.622
0.259 -0.915 0.622
0.271 -0.927 0.622
0.281 -0.935 0.622
0.293 -0.944 0.622
0.311 -0.976 0.622
0.322 -0.984 0.622
0.34 -1.012 0.622
0.358 -1.038 0.622
0.376 -1.062 0.623
0.389 -1.07 0.623
0.406 -1.088 0.623
0.415 -1.085 0.623
0.429 -1.093 0.623
0.44 -1.095 0.623
0.451 -1.093 0.623
0.457 -1.081 0.623
0.463 -1.07 0.623
0.472 -1.064 0.623
0.479 -1.057 0.623
0.501 -1.081 0.623
0.521 -1.101 0.623
0.527 -1.089 0.623
0.553 -1.12 0.623
0.655 -1.309 0.624
0.673 -1.316 0.624
0.697 -1.336 0.624
0.695 -1.304 0.624
0.72 -1.323 0.624
0.725 -1.306 0.624
0.745 -1.315 0.624
0.759 -1.314 0.624
0.777 -1.319 0.624
0.792 -1.318 0.624
0.816 -1.332 0.624
0.835 -1.339 0.624
0.856 -1.347 0.624
0.993 -1.54 0.625
1.291 -1.979 0.626
1.304 -1.96 0.626
1.315 -1.94 0.626
1.327 -1.921 0.626
1.343 -1.91 0.626
1.354 -1.89 0.626
1.365 -1.87 0.627
1.381 -1.858 0.627
1.391 -1.838 0.627
1.408 -1.827 0.627
1.418 -1.807 0.627
1.433 -1.795 0.627
1.53 -1.885 0.627
2.108 -2.565 0.63
2.136 -2.554 0.63
2.153 -2.529 0.63
2.168 -2.502 0.63
2.278 -2.585 0.63
2.64 -2.949 0.632
2.667 -2.927 0.632
2.702 -2.915 0.632
2.674 -2.835 0.632
2.387 -2.483 0.631
2.411 -2.465 0.631
0 0 0
2.478 -2.447 0.631
2.463 -2.39 0.631
2.485 -2.37 0.631
2.5 -2.343 0.631
2.531 -2.331 0.631
2.554 -2.312 0.631
2.958 -2.636 0.633
3.02 -2.645 0.633
3.041 -2.616 0.633
3.064 -2.591 0.633
2.958 -2.456 0.633
3.062 -2.499 0.633
3.106 -2.49 0.634
3.122 -2.459 0.634
3.119 -2.413 0.634
3.108 -2.361 0.634
3.138 -2.341 0.634
3.214 -2.355 0.634
3.253 -2.341 0.634
3.388 -2.395 0.635
3.341 -2.318 0.634
3.348 -2.28 0.634
3.351 -2.24 0.635
3.36 -2.203 0.635
3.386 -2.179 0.635
3.403 -2.148 0.635
3.433 -2.126 0.635
3.988 -2.425 0.637
3.399 -2.024 0.635
3.338 -1.948 0.634
3.362 -1.923 0.635
3.377 -1.893 0.635
3.402 -1.868 0.635
3.425 -1.843 0.635
3.442 -1.814 0.635
3.467 -1.789 0.635
3.482 -1.758 0.635
3.504 -1.732 0.635
3.519 -1.701 0.635
3.551 -1.679 0.635
3.566 -1.649 0.635
3.59 -1.622 0.635
3.614 -1.595 0.636
3.634 -1.567 0.636
3.66 -1.54 0.636
3.798 -1.56 0.636
4.62 -1.854 0.64
4.508 -1.764 0.639
2.516 -0.954 0.631
2.518 -0.93 0.631
2.516 -0.905 0.631
2.673 -0.936 0.632
2.761 -0.94 0.632
2.736 -0.905 0.632
2.679 -0.86 0.632
2.624 -0.818 0.632
2.575 -0.778 0.631
2.504 -0.732 0.631
2.453 -0.695 0.631
2.437 -0.667 0.631
2.396 -0.634 0.631
2.355 -0.601 0.63
2.314 -0.569 0.63
2.281 -0.54 0.63
2.248 -0.512 0.63
2.214 -0.484 0.63
2.179 -0.457 0.63
2.143 -0.43 0.63
2.116 -0.405 0.63
2.081 -0.38 0.629
2.055 -0.357 0.629
2.029 -0.334 0.629
2.003 -0.312 0.629
1.931 -0.284 0.629
1.847 -0.255 0.628
1.837 -0.238 0.628
1.815 -0.219 0.628
1.798 -0.201 0.628
1.791 -0.185 0.628
1.809 -0.171 0.628
1.823 -0.157 0.628
1.805 -0.14 0.628
1.786 -0.123 0.628
1.768 -0.106 0.628
1.747 -0.09 0.628
1.725 -0.074 0.628
1.705 -0.058 0.628
1.689 -0.043 0.628
1.655 -0.028 0.628
1.646 -0.014 0.628
1.627 -0 0.628
1.607 0.014 0.627
1.588 0.027 0.627
1.567 0.04 0.627
1.558 0.053 0.627
1.538 0.066 0.627
1.528 0.078 0.627
1.506 0.09 0.627
1.495 0.102 0.627
1.483 0.114 0.627
1.462 0.125 0.627
1.451 0.137 0.627
1.439 0.148 0.627
1.428 0.159 0.627
1.416 0.17 0.627
1.403 0.181 0.627
1.384 0.19 0.627
1.37 0.2 0.627
1.358 0.21 0.626
1.338 0.219 0.626
1.327 0.229 0.626
1.315 0.238 0.626
1.303 0.247 0.626
1.29 0.256 0.626
1.29 0.268 0.626
1.278 0.276 0.626
1.263 0.284 0.626
1.251 0.293 0.626
1.239 0.301 0.626
1.225 0.309 0.626
1.221 0.319 0.626
1.208 0.327 0.626
1.194 0.334 0.626
1.188 0.343 0.626
1.176 0.35 0.626
1.162 0.357 0.626
1.156 0.366 0.626
1.14 0.371 0.626
1.138 0.381 0.626
1.123 0.387 0.626
1.12 0.396 0.626
1.107 0.402 0.625
1.102 0.411 0.625
1.09 0.417 0.625
1.084 0.426 0.625
1.07 0.431 0.625
1.065 0.439 0.625
1.053 0.444 0.625
1.049 0.453 0.625
1.035 0.457 0.625
1.03 0.466 0.625
1.016 0.47 0.625
1.011 0.478 0.625
1.005 0.486 0.625
0.991 0.489 0.625
0.981 0.495 0.625
0.984 0.507 0.625
0.971 0.511 0.625
0.966 0.518 0.625
0.947 0.519 0.625
0.906 0.506 0.625
0.897 0.51 0.625
0.886 0.514 0.625
0.89 0.527 0.625
0.904 0.545 0.625
0.922 0.568 0.625
0.953 0.599 0.625
0.972 0.623 0.625
0.998 0.652 0.625
1.015 0.676 0.625
1.047 0.711 0.625
1.065 0.737 0.625
1.094 0.772 0.625
1.113 0.801 0.625
1.155 0.847 0.626
1.171 0.875 0.626
1.262 0.962 0.626
1.535 1.196 0.627
1.947 1.552 0.629
1.934 1.569 0.629
1.913 1.579 0.629
1.892 1.589 0.629
1.878 1.605 0.629
1.849 1.608 0.628
1.813 1.605 0.628
1.853 1.669 0.628
1.921 1.763 0.629
1.994 1.863 0.629
2.067 1.966 0.629
2.099 2.033 0.629
3.766 3.735 0.636
3.451 3.481 0.635
3.412 3.502 0.635
3.628 3.791 0.636
3.598 3.826 0.636
3.534 3.824 0.635
3.379 3.718 0.635
3.38 3.786 0.635
3.269 3.724 0.634
3.191 3.7 0.634
3.403 4.019 0.635
3.367 4.047 0.635
3.332 4.076 0.634
3.296 4.105 0.634
3.26 4.133 0.634
3.224 4.161 0.634
3.187 4.189 0.634
3.151 4.216 0.634
3.111 4.24 0.634
3.077 4.27 0.633
3.039 4.296 0.633
2.982 4.295 0.633
2.735 4.008 0.632
2.931 4.382 0.633
2.897 4.413 0.633
1.808 2.79 0.628
1.641 2.576 0.628
1.499 2.396 0.627
1.467 2.391 0.627
1.442 2.396 0.627
1.417 2.401 0.627
1.31 2.26 0.626
1.212 2.131 0.626
1.112 1.991 0.625
1.08 1.973 0.625
1.069 1.995 0.625
1.051 2.003 0.625
1.038 2.021 0.625
1.021 2.029 0.625
1.003 2.038 0.625
0.99 2.056 0.625
0.972 2.065 0.625
0.957 2.081 0.625
0.881 1.956 0.625
0.814 1.844 0.624
0.774 1.795 0.624
0.739 1.753 0.624
0.703 1.705 0.624
0.668 1.659 0.624
0.643 1.636 0.624
0.641 1.677 0.624
0.636 1.708 0.624
0.621 1.713 0.624
0.612 1.737 0.623
0.583 1.698 0.623
0.496 1.475 0.623
0.454 1.385 0.623
0.402 1.253 0.623
0.371 1.186 0.622
0.351 1.154 0.622
0.327 1.106 0.622
0.315 1.099 0.622
0.301 1.085 0.622
0.293 1.093 0.622
0.283 1.092 0.622
0.273 1.091 0.622
0.264 1.096 0.622
0.257 1.11 0.622
0.247 1.11 0.622
0.237 1.114 0.622
0.229 1.126 0.622
0.219 1.125 0.622
0.211 1.136 0.622
0.203 1.151 0.622
0.193 1.154 0.622
0.184 1.161 0.622
0.176 1.178 0.622
0.166 1.185 0.622
0.155 1.177 0.622
0.143 1.168 0.622
0.131 1.149 0.622
0.118 1.113 0.621
0.108 1.107 0.621
0.098 1.102 0.621
0.088 1.09 0.621
0.079 1.092 0.621
0.069 1.1 0.621
0.06 1.103 0.621
0.05 1.103 0.621
0.041 1.102 0.621
0.031 0.14 0.621
0.031 -0.421 0.621
0.036 -0.585 0.621
0.043 -0.693 0.621
0.05 -0.734 0.621
0.057 -0.745 0.622
0.064 -0.754 0.622
0.071 -0.765 0.622
0.078 -0.765 0.622
0.085 -0.774 0.622
0.092 -0.774 0.622
0.099 -0.785 0.622
0.107 -0.794 0.622
0.115 -0.804 0.622
0.122 -0.803 0.622
0.13 -0.81 0.622
0.139 -0.819 0.622
0.147 -0.828 0.622
0.155 -0.834 0.622
0.163 -0.836 0.622
0.173 -0.851 0.623
0.181 -0.851 0.623
0.19 -0.856 0.623
0.201 -0.874 0.623
0.209 -0.876 0.623
0.219 -0.883 0.623
0.229 -0.894 0.623
0.239 -0.902 0.623
0.247 -0.898 0.623
0.259 -0.916 0.623
0.267 -0.914 0.623
0.28 -0.931 0.623
0.289 -0.931 0.624
0.304 -0.952 0.624
0.319 -0.972 0.624
0.334 -0.991 0.624
0.349 -1.008 0.624
0.367 -1.035 0.624
0.383 -1.052 0.624
0.398 -1.066 0.625
0.411 -1.074 0.625
0.425 -1.083 0.625
0.436 -1.085 0.625
0.451 -1.094 0.625
0.457 -1.081 0.625
0.462 -1.068 0.625
0.472 -1.064 0.625
0.479 -1.056 0.625
0.501 -1.08 0.625
0.521 -1.101 0.626
0.527 -1.088 0.626
0.555 -1.125 0.626
0.699 -1.402 0.627
0.711 -1.395 0.627
0.728 -1.398 0.627
0.722 -1.356 0.627
0.743 -1.368 0.628
0.744 -1.341 0.628
0.764 -1.351 0.628
0.769 -1.332 0.628
0.791 -1.343 0.628
0.804 -1.34 0.628
0.826 -1.35 0.628
0.84 -1.347 0.628
0.878 -1.382 0.629
1.011 -1.569 0.63
1.292 -1.979 0.632
1.304 -1.96 0.633
1.315 -1.94 0.633
1.332 -1.929 0.633
1.343 -1.91 0.633
1.354 -1.89 0.633
1.365 -1.871 0.633
1.381 -1.858 0.633
1.391 -1.838 0.633
1.408 -1.827 0.634
1.418 -1.807 0.634
1.433 -1.795 0.634
1.513 -1.863 0.634
2.071 -2.52 0.639
2.136 -2.554 0.64
2.152 -2.528 0.64
2.168 -2.502 0.64
2.281 -2.589 0.641
2.641 -2.95 0.645
2.672 -2.933 0.645
2.707 -2.921 0.645
2.675 -2.835 0.645
2.386 -2.482 0.642
2.409 -2.462 0.642
0 0 0
2.478 -2.447 0.643
2.466 -2.393 0.643
2.479 -2.365 0.643
2.499 -2.342 0.643
2.519 -2.32 0.643
2.549 -2.308 0.644
2.958 -2.636 0.647
3.021 -2.646 0.648
3.04 -2.616 0.648
3.064 -2.591 0.648
2.921 -2.425 0.647
3.06 -2.497 0.648
3.103 -2.488 0.649
3.113 -2.452 0.649
3.116 -2.41 0.649
3.097 -2.353 0.649
3.143 -2.345 0.649
3.213 -2.355 0.65
3.247 -2.336 0.65
3.361 -2.376 0.651
3.333 -2.312 0.651
3.332 -2.269 0.651
3.359 -2.245 0.651
3.367 -2.208 0.651
3.386 -2.179 0.651
3.404 -2.149 0.651
3.435 -2.127 0.652
3.987 -2.424 0.656
3.398 -2.023 0.651
3.338 -1.948 0.651
3.354 -1.919 0.651
3.376 -1.893 0.651
3.4 -1.867 0.651
3.426 -1.843 0.651
3.442 -1.814 0.652
3.467 -1.789 0.652
3.481 -1.758 0.652
3.504 -1.732 0.652
3.528 -1.706 0.652
3.551 -1.679 0.653
3.566 -1.649 0.653
3.588 -1.621 0.653
3.612 -1.594 0.653
3.634 -1.567 0.653
3.65 -1.536 0.653
3.797 -1.56 0.655
4.619 -1.854 0.662
4.507 -1.763 0.661
2.495 -0.946 0.643
2.514 -0.928 0.643
2.519 -0.906 0.643
2.612 -0.914 0.644
2.761 -0.94 0.646
2.743 -0.907 0.645
2.677 -0.86 0.645
2.624 -0.818 0.644
2.574 -0.778 0.644
2.473 -0.723 0.643
2.44 -0.691 0.643
2.436 -0.667 0.643
2.396 -0.634 0.642
2.354 -0.601 0.642
2.314 -0.569 0.642
2.271 -0.538 0.641
2.238 -0.51 0.641
2.213 -0.484 0.641
2.179 -0.457 0.64
2.141 -0.429 0.64
2.116 -0.405 0.64
2.081 -0.38 0.64
2.055 -0.357 0.639
2.029 -0.334 0.639
2.002 -0.312 0.639
1.922 -0.283 0.638
1.847 -0.255 0.637
1.837 -0.238 0.637
1.825 -0.22 0.637
1.798 -0.201 0.637
1.807 -0.187 0.637
1.812 -0.171 0.637
1.823 -0.157 0.637
1.804 -0.14 0.637
1.787 -0.123 0.637
1.767 -0.106 0.637
1.746 -0.09 0.637
1.725 -0.074 0.636
1.695 -0.058 0.636
1.689 -0.043 0.636
1.655 -0.028 0.636
1.646 -0.014 0.636
1.628 -0 0.635
1.599 0.014 0.635
1.588 0.027 0.635
1.568 0.04 0.635
1.558 0.053 0.635
1.537 0.066 0.635
1.518 0.078 0.635
1.505 0.09 0.634
1.495 0.102 0.634
1.483 0.114 0.634
1.471 0.126 0.634
1.451 0.137 0.634
1.439 0.148 0.634
1.417 0.158 0.634
1.415 0.17 0.634
1.394 0.179 0.633
1.382 0.19 0.633
1.372 0.2 0.633
1.35 0.209 0.633
1.347 0.22 0.633
1.325 0.228 0.633
1.315 0.238 0.633
1.303 0.247 0.633
1.291 0.256 0.632
1.289 0.267 0.632
1.277 0.276 0.632
1.263 0.285 0.632
1.252 0.293 0.632
1.237 0.301 0.632
1.224 0.309 0.632
1.221 0.319 0.632
1.208 0.327 0.632
1.194 0.334 0.632
1.178 0.34 0.631
1.173 0.349 0.631
1.162 0.357 0.631
1.154 0.365 0.631
1.141 0.372 0.631
1.137 0.381 0.631
1.122 0.387 0.631
1.119 0.396 0.631
1.108 0.403 0.631
1.103 0.411 0.631
1.091 0.417 0.631
1.085 0.426 0.631
1.069 0.43 0.631
1.065 0.439 0.63
1.052 0.444 0.63
1.051 0.454 0.63
1.034 0.457 0.63
1.03 0.466 0.63
1.025 0.474 0.63
1.01 0.478 0.63
1.005 0.486 0.63
1.001 0.494 0.63
0.988 0.498 0.63
0.976 0.503 0.63
0.971 0.511 0.63
0.967 0.519 0.63
0.946 0.518 0.629
0.914 0.51 0.629
0.898 0.511 0.629
0.89 0.516 0.629
0.899 0.532 0.629
0.909 0.549 0.629
0.932 0.574 0.629
0.945 0.594 0.629
0.981 0.629 0.63
1 0.654 0.63
1.02 0.68 0.63
1.039 0.706 0.63
1.068 0.74 0.631
1.09 0.769 0.631
1.114 0.802 0.631
1.146 0.841 0.631
1.17 0.874 0.631
1.258 0.959 0.632
1.52 1.185 0.635
1.947 1.552 0.638
1.934 1.569 0.638
1.913 1.579 0.638
1.891 1.589 0.638
1.878 1.605 0.638
1.848 1.608 0.637
1.806 1.599 0.637
1.852 1.669 0.637
1.914 1.756 0.638
1.993 1.862 0.639
2.069 1.968 0.639
2.096 2.029 0.64
3.765 3.734 0.655
3.471 3.501 0.652
3.444 3.534 0.652
3.652 3.816 0.654
3.604 3.832 0.653
3.57 3.863 0.653
3.502 3.855 0.652
3.478 3.896 0.652
3.327 3.792 0.651
3.192 3.702 0.649
3.403 4.019 0.651
3.367 4.047 0.651
3.331 4.076 0.651
3.29 4.098 0.65
3.254 4.126 0.65
3.131 4.041 0.649
3.177 4.175 0.649
2.991 4 0.648
3.006 4.095 0.648
2.895 4.016 0.647
2.875 4.062 0.647
2.804 4.035 0.646
2.714 3.978 0.645
2.931 4.381 0.647
2.897 4.413 0.647
1.804 2.784 0.637
1.648 2.587 0.636
1.502 2.401 0.634
1.467 2.391 0.634
1.442 2.396 0.634
1.418 2.402 0.634
1.31 2.26 0.633
1.211 2.13 0.632
1.116 1.998 0.631
1.08 1.973 0.631
1.069 1.995 0.631
1.051 2.003 0.63
1.038 2.021 0.63
1.021 2.029 0.63
1.003 2.038 0.63
0.99 2.056 0.63
0.971 2.064 0.63
0.957 2.081 0.63
0.882 1.957 0.629
0.813 1.844 0.628
0.778 1.804 0.628
0.739 1.753 0.628
0.703 1.705 0.627
0.668 1.659 0.627
0.639 1.627 0.627
0.643 1.681 0.627
0.641 1.724 0.627
0.625 1.727 0.627
0.616 1.749 0.626
0.589 1.717 0.626
0.494 1.469 0.625
0.454 1.385 0.625
0.402 1.254 0.625
0.374 1.196 0.624
0.351 1.156 0.624
0.328 1.111 0.624
0.316 1.104 0.624
0.302 1.086 0.624
0.293 1.093 0.624
0.285 1.102 0.624
0.273 1.093 0.623
0.264 1.097 0.623
0.256 1.109 0.623
0.246 1.108 0.623
0.239 1.123 0.623
0.229 1.124 0.623
0.221 1.136 0.623
0.211 1.137 0.623
0.203 1.15 0.623
0.193 1.155 0.623
0.184 1.161 0.623
0.174 1.168 0.623
0.164 1.173 0.622
0.155 1.179 0.622
0.143 1.168 0.622
0.131 1.151 0.622
0.118 1.106 0.622
0.109 1.115 0.622
0.098 1.1 0.622
0.088 1.09 0.622
0.079 1.093 0.622
0.069 1.1 0.622
0.06 1.105 0.622
0.05 1.103 0.621
0.041 1.114 0.621
0.031 0.154 0.621
0.031 -0.423 0.622
0.036 -0.585 0.622
0.043 -0.693 0.622
0.05 -0.724 0.622
0.057 -0.744 0.622
0.064 -0.753 0.622
0.071 -0.765 0.622
0.077 -0.765 0.622
0.085 -0.774 0.622
0.092 -0.774 0.622
0.099 -0.783 0.623
0.107 -0.794 0.623
0.114 -0.794 0.623
0.122 -0.803 0.623
0.13 -0.812 0.623
0.138 -0.819 0.623
0.147 -0.827 0.623
0.157 -0.843 0.624
0.163 -0.836 0.624
0.173 -0.851 0.624
0.18 -0.85 0.624
0.189 -0.856 0.624
0.199 -0.865 0.624
0.209 -0.875 0.624
0.218 -0.883 0.625
0.228 -0.891 0.625
0.237 -0.893 0.625
0.248 -0.907 0.625
0.259 -0.918 0.625
0.269 -0.923 0.625
0.28 -0.931 0.626
0.289 -0.931 0.626
0.3 -0.94 0.626
0.311 -0.947 0.626
0.329 -0.976 0.626
0.342 -0.986 0.627
0.357 -1.005 0.627
0.373 -1.024 0.627
0.39 -1.045 0.627
0.405 -1.057 0.628
0.42 -1.07 0.628
0.439 -1.092 0.628
0.447 -1.085 0.628
0.457 -1.082 0.628
0.462 -1.068 0.629
0.471 -1.063 0.629
0.474 -1.046 0.629
0.505 -1.091 0.629
0.52 -1.1 0.629
0.527 -1.089 0.63
0.555 -1.124 0.63
0.725 -1.455 0.633
0.753 -1.482 0.633
0.766 -1.476 0.633
0.753 -1.418 0.633
0.774 -1.429 0.634
0.768 -1.387 0.634
0.781 -1.382 0.634
0.79 -1.371 0.634
0.807 -1.372 0.634
0.817 -1.361 0.634
0.832 -1.361 0.635
0.847 -1.359 0.635
0.895 -1.41 0.636
1.024 -1.589 0.638
1.286 -1.971 0.642
1.303 -1.96 0.642
1.315 -1.94 0.642
1.332 -1.929 0.643
1.343 -1.91 0.643
1.354 -1.89 0.643
1.364 -1.87 0.643
1.381 -1.858 0.643
1.391 -1.839 0.644
1.401 -1.819 0.644
1.417 -1.806 0.644
1.432 -1.794 0.644
1.512 -1.863 0.646
1.912 -2.324 0.652
2.13 -2.547 0.656
2.152 -2.528 0.656
2.167 -2.502 0.656
2.283 -2.591 0.658
2.648 -2.959 0.664
2.679 -2.942 0.665
2.707 -2.921 0.665
2.654 -2.814 0.664
2.393 -2.49 0.66
2.405 -2.459 0.66
0 0 0
2.465 -2.435 0.661
2.461 -2.389 0.661
2.478 -2.364 0.661
2.494 -2.338 0.662
2.518 -2.32 0.662
2.538 -2.298 0.662
2.969 -2.646 0.669
3.022 -2.647 0.67
3.04 -2.616 0.671
3.065 -2.592 0.671
2.911 -2.417 0.668
3.057 -2.495 0.671
3.102 -2.487 0.672
3.114 -2.453 0.672
3.114 -2.409 0.672
3.092 -2.349 0.671
3.14 -2.343 0.672
3.195 -2.342 0.673
3.246 -2.336 0.674
3.344 -2.363 0.675
3.319 -2.303 0.675
3.328 -2.267 0.675
3.341 -2.233 0.675
3.361 -2.204 0.676
3.381 -2.176 0.676
3.402 -2.148 0.676
3.433 -2.126 0.677
3.977 -2.419 0.686
3.387 -2.017 0.676
3.337 -1.948 0.675
3.354 -1.919 0.676
3.377 -1.893 0.676
3.401 -1.868 0.676
3.417 -1.839 0.677
3.437 -1.811 0.677
3.458 -1.785 0.677
3.48 -1.758 0.678
3.503 -1.731 0.678
3.528 -1.706 0.678
3.542 -1.675 0.679
3.574 -1.652 0.679
3.588 -1.621 0.679
3.61 -1.594 0.68
3.634 -1.567 0.68
3.65 -1.536 0.68
3.797 -1.56 0.683
4.628 -1.858 0.696
4.506 -1.763 0.694
4.47 -1.704 0.694
2.51 -0.927 0.662
2.514 -0.904 0.662
2.581 -0.903 0.663
2.761 -0.94 0.666
2.742 -0.907 0.666
2.676 -0.86 0.665
2.623 -0.818 0.664
2.574 -0.778 0.663
2.481 -0.726 0.661
2.422 -0.686 0.66
2.427 -0.665 0.661
2.396 -0.634 0.66
2.354 -0.601 0.659
2.313 -0.569 0.659
2.272 -0.538 0.658
2.237 -0.51 0.657
2.212 -0.484 0.657
2.178 -0.457 0.656
2.141 -0.429 0.656
2.115 -0.405 0.655
2.081 -0.38 0.655
2.054 -0.357 0.654
2.029 -0.334 0.654
2.002 -0.312 0.654
1.931 -0.284 0.652
1.847 -0.255 0.651
1.836 -0.238 0.651
1.825 -0.22 0.651
1.798 -0.201 0.65
1.799 -0.186 0.65
1.814 -0.172 0.651
1.813 -0.156 0.651
1.803 -0.14 0.65
1.786 -0.123 0.65
1.766 -0.106 0.65
1.746 -0.09 0.649
1.715 -0.074 0.649
1.694 -0.058 0.649
1.687 -0.043 0.648
1.654 -0.028 0.648
1.645 -0.014 0.648
1.627 -0 0.648
1.606 0.014 0.647
1.588 0.027 0.647
1.568 0.04 0.647
1.558 0.053 0.646
1.537 0.066 0.646
1.527 0.078 0.646
1.506 0.09 0.646
1.495 0.102 0.645
1.474 0.114 0.645
1.472 0.126 0.645
1.45 0.137 0.645
1.439 0.148 0.644
1.426 0.159 0.644
1.415 0.17 0.644
1.394 0.179 0.644
1.381 0.19 0.643
1.37 0.2 0.643
1.358 0.21 0.643
1.348 0.221 0.643
1.326 0.229 0.643
1.315 0.238 0.642
1.304 0.247 0.642
1.291 0.256 0.642
1.289 0.268 0.642
1.275 0.276 0.642
1.263 0.285 0.642
1.251 0.293 0.641
1.238 0.301 0.641
1.224 0.309 0.641
1.221 0.319 0.641
1.209 0.327 0.641
1.194 0.334 0.64
1.179 0.34 0.64
1.172 0.349 0.64
1.16 0.356 0.64
1.157 0.366 0.64
1.143 0.372 0.64
1.129 0.378 0.639
1.124 0.387 0.639
1.111 0.393 0.639
1.106 0.402 0.639
1.103 0.412 0.639
1.088 0.417 0.639
1.085 0.426 0.639
1.069 0.43 0.638
1.064 0.439 0.638
1.052 0.444 0.638
1.049 0.454 0.638
1.034 0.457 0.638
1.028 0.465 0.638
1.014 0.469 0.638
1.011 0.478 0.637
0.997 0.482 0.637
0.993 0.49 0.637
0.988 0.498 0.637
0.985 0.507 0.637
0.971 0.511 0.637
0.967 0.519 0.637
0.948 0.519 0.636
0.906 0.506 0.636
0.897 0.511 0.636
0.889 0.516 0.635
0.885 0.524 0.635
0.909 0.549 0.636
0.925 0.57 0.636
0.954 0.6 0.637
0.974 0.624 0.637
0.99 0.647 0.637
1.009 0.672 0.637
1.038 0.705 0.638
1.06 0.734 0.638
1.085 0.766 0.639
1.115 0.802 0.639
1.138 0.835 0.64
1.169 0.874 0.64
1.248 0.951 0.641
1.519 1.184 0.646
1.946 1.551 0.653
1.926 1.563 0.652
1.913 1.579 0.652
1.891 1.589 0.652
1.877 1.605 0.652
1.856 1.615 0.651
1.806 1.599 0.65
1.851 1.669 0.651
1.922 1.764 0.652
1.993 1.863 0.653
2.064 1.964 0.655
2.1 2.034 0.655
3.764 3.734 0.682
3.458 3.489 0.677
3.492 3.585 0.678
3.654 3.819 0.681
3.607 3.836 0.68
3.572 3.865 0.679
3.54 3.898 0.679
3.503 3.925 0.678
3.375 3.848 0.676
3.185 3.694 0.673
3.342 3.947 0.675
3.167 3.805 0.673
3.161 3.866 0.672
3.078 3.832 0.671
3.062 3.881 0.671
2.994 3.862 0.67
2.977 3.91 0.669
2.915 3.898 0.668
2.891 3.937 0.668
2.834 3.931 0.667
2.812 3.972 0.667
2.759 3.97 0.666
2.694 3.949 0.665
2.934 4.387 0.669
2.895 4.411 0.668
1.81 2.793 0.65
1.646 2.586 0.648
1.503 2.403 0.645
1.467 2.391 0.645
1.442 2.397 0.644
1.417 2.402 0.644
1.309 2.26 0.642
1.211 2.129 0.641
1.116 1.999 0.639
1.08 1.973 0.639
1.069 1.995 0.638
1.051 2.003 0.638
1.034 2.012 0.638
1.02 2.029 0.638
1.003 2.038 0.637
0.989 2.056 0.637
0.971 2.065 0.637
0.957 2.081 0.637
0.881 1.956 0.635
0.813 1.844 0.634
0.778 1.803 0.634
0.739 1.753 0.633
0.702 1.705 0.632
0.667 1.657 0.632
0.639 1.627 0.631
0.648 1.696 0.632
0.648 1.743 0.632
0.635 1.755 0.631
0.625 1.775 0.631
0.595 1.738 0.631
0.493 1.466 0.629
0.457 1.396 0.628
0.402 1.253 0.628
0.372 1.192 0.627
0.349 1.147 0.627
0.328 1.111 0.626
0.314 1.096 0.626
0.303 1.093 0.626
0.293 1.093 0.626
0.285 1.102 0.626
0.273 1.092 0.625
0.263 1.096 0.625
0.254 1.098 0.625
0.246 1.108 0.625
0.238 1.12 0.625
0.229 1.125 0.625
0.219 1.128 0.625
0.211 1.139 0.624
0.201 1.141 0.624
0.193 1.155 0.624
0.183 1.16 0.624
0.175 1.178 0.624
0.164 1.174 0.624
0.154 1.178 0.624
0.142 1.158 0.623
0.131 1.149 0.623
0.119 1.122 0.623
0.108 1.102 0.623
0.098 1.102 0.623
0.088 1.09 0.622
0.078 1.092 0.622
0.069 1.1 0.622
0.06 1.103 0.622
0.05 1.103 0.622
0.04 1.102 0.622
0.031 0.124 0.622
0.03 -0.413 0.622
0.036 -0.575 0.622
0.043 -0.693 0.622
0.049 -0.725 0.622
0.056 -0.745 0.622
0.063 -0.754 0.623
0.071 -0.764 0.623
0.077 -0.765 0.623
0.085 -0.776 0.623
0.092 -0.776 0.623
0.099 -0.783 0.623
0.107 -0.792 0.624
0.114 -0.794 0.624
0.122 -0.803 0.624
0.13 -0.812 0.624
0.138 -0.819 0.624
0.147 -0.828 0.624
0.155 -0.833 0.625
0.165 -0.846 0.625
0.171 -0.841 0.625
0.18 -0.848 0.625
0.189 -0.855 0.625
0.198 -0.864 0.626
0.208 -0.875 0.626
0.219 -0.887 0.626
0.229 -0.895 0.626
0.238 -0.9 0.627
0.248 -0.907 0.627
0.259 -0.915 0.627
0.27 -0.926 0.627
0.28 -0.933 0.628
0.289 -0.933 0.628
0.303 -0.952 0.628
0.31 -0.945 0.628
0.326 -0.967 0.629
0.336 -0.97 0.629
0.353 -0.994 0.629
0.365 -1.001 0.63
0.383 -1.023 0.63
0.396 -1.031 0.63
0.418 -1.064 0.631
0.438 -1.091 0.631
0.447 -1.085 0.632
0.458 -1.085 0.632
0.462 -1.069 0.632
0.471 -1.064 0.632
0.478 -1.055 0.632
0.505 -1.091 0.633
0.516 -1.091 0.633
0.527 -1.089 0.633
0.556 -1.127 0.634
0.727 -1.46 0.638
0.763 -1.503 0.639
0.769 -1.481 0.639
0.78 -1.472 0.639
0.785 -1.45 0.64
0.792 -1.433 0.64
0.804 -1.425 0.64
0.806 -1.4 0.64
0.819 -1.393 0.64
0.825 -1.376 0.641
0.842 -1.378 0.641
0.851 -1.366 0.641
0.899 -1.418 0.642
1.077 -1.676 0.647
1.285 -1.97 0.651
1.303 -1.96 0.652
1.314 -1.94 0.652
1.326 -1.921 0.652
1.342 -1.91 0.653
1.353 -1.89 0.653
1.37 -1.878 0.653
1.38 -1.858 0.654
1.392 -1.84 0.654
1.401 -1.819 0.654
1.417 -1.808 0.655
1.433 -1.796 0.655
1.515 -1.867 0.657
1.878 -2.282 0.665
2.13 -2.547 0.671
2.152 -2.529 0.672
2.167 -2.502 0.672
2.293 -2.604 0.675
2.65 -2.962 0.684
2.682 -2.946 0.684
2.715 -2.931 0.685
2.593 -2.748 0.682
2.393 -2.49 0.678
2.403 -2.458 0.678
0 0 0
2.455 -2.425 0.679
2.456 -2.384 0.679
2.477 -2.363 0.68
2.495 -2.34 0.68
2.522 -2.324 0.681
2.53 -2.291 0.681
2.959 -2.638 0.691
3.022 -2.648 0.693
3.04 -2.617 0.693
3.066 -2.593 0.694
2.908 -2.415 0.69
3.052 -2.492 0.693
3.102 -2.488 0.694
3.112 -2.452 0.695
3.112 -2.408 0.695
3.084 -2.344 0.694
3.138 -2.342 0.695
3.176 -2.328 0.696
3.245 -2.336 0.698
3.329 -2.354 0.7
3.303 -2.292 0.699
3.323 -2.263 0.7
3.345 -2.236 0.7
3.364 -2.207 0.701
3.38 -2.176 0.701
3.409 -2.153 0.702
3.432 -2.126 0.702
3.986 -2.424 0.715
3.388 -2.018 0.701
3.337 -1.948 0.7
3.353 -1.919 0.7
3.375 -1.893 0.701
3.4 -1.868 0.701
3.417 -1.839 0.702
3.446 -1.816 0.703
3.459 -1.785 0.703
3.48 -1.758 0.703
3.503 -1.732 0.704
3.526 -1.705 0.704
3.55 -1.679 0.705
3.565 -1.649 0.705
3.588 -1.622 0.706
3.611 -1.594 0.706
3.634 -1.567 0.707
3.658 -1.54 0.708
3.797 -1.561 0.711
4.619 -1.854 0.73
4.497 -1.76 0.727
4.467 -1.703 0.727
2.509 -0.927 0.68
2.518 -0.906 0.681
2.584 -0.905 0.682
2.75 -0.937 0.686
2.741 -0.907 0.686
2.677 -0.86 0.684
2.624 -0.818 0.683
2.574 -0.778 0.682
2.483 -0.727 0.68
2.453 -0.695 0.679
2.436 -0.667 0.679
2.395 -0.634 0.678
2.347 -0.599 0.677
2.313 -0.569 0.676
2.28 -0.54 0.675
2.237 -0.51 0.674
2.213 -0.484 0.673
2.178 -0.457 0.673
2.142 -0.43 0.672
2.115 -0.405 0.671
2.081 -0.38 0.67
2.054 -0.357 0.67
2.028 -0.334 0.669
2.002 -0.312 0.668
1.931 -0.284 0.667
1.836 -0.254 0.664
1.836 -0.238 0.664
1.815 -0.219 0.664
1.797 -0.201 0.664
1.798 -0.186 0.664
1.815 -0.172 0.664
1.813 -0.156 0.664
1.801 -0.139 0.664
1.786 -0.123 0.663
1.767 -0.106 0.663
1.745 -0.09 0.662
1.724 -0.074 0.662
1.694 -0.058 0.661
1.684 -0.043 0.661
1.654 -0.028 0.66
1.644 -0.014 0.66
1.627 -0 0.66
