# .PCD v0.7 - Point Cloud Data file format
VERSION 0.7
FIELDS x y z
SIZE 4 4 4
TYPE F F F
COUNT 1 1 1
WIDTH 2500
HEIGHT 1
VIEWPOINT 0 0 0 1 0 0 0
POINTS 2500
DATA ascii
1.389 0.113 2.585
1.351 0.128 2.537
1.378 0.15 2.571
1.386 0.17 2.582
1.381 0.188 2.575
1.383 0.207 2.577
1.39 0.227 2.586
1.406 0.249 2.606
1.397 0.267 2.594
1.386 0.284 2.582
1.096 0.238 2.216
1.074 0.247 2.189
1.053 0.257 2.163
1.035 0.267 2.141
1.009 0.273 2.107
1.031 0.294 2.135
1.05 0.314 2.159
1.055 0.331 2.166
1.05 0.344 2.16
1.044 0.356 2.152
1.034 0.368 2.139
1.028 0.38 2.132
1.028 0.395 2.132
1.064 0.424 2.176
1.056 0.436 2.167
1.019 0.435 2.12
1.021 0.45 2.123
1.021 0.465 2.123
1.02 0.479 2.121
1.013 0.491 2.113
0.996 0.497 2.091
0.809 0.412 1.856
0.744 0.388 1.775
0.725 0.388 1.751
0.72 0.396 1.744
0.71 0.401 1.732
0.709 0.41 1.73
0.678 0.402 1.692
0.596 0.359 1.589
0.565 0.347 1.549
0.555 0.349 1.538
0.562 0.362 1.546
0.571 0.378 1.558
0.571 0.386 1.557
0.555 0.384 1.538
0.556 0.393 1.539
0.555 0.401 1.537
0.546 0.403 1.526
0.536 0.404 1.514
0.524 0.402 1.498
0.516 0.404 1.488
0.507 0.405 1.478
0.501 0.408 1.47
0.49 0.406 1.456
0.487 0.412 1.452
0.481 0.414 1.444
0.472 0.414 1.433
0.46 0.41 1.417
0.46 0.419 1.418
0.449 0.415 1.404
0.442 0.417 1.396
0.437 0.419 1.389
0.435 0.424 1.386
0.428 0.425 1.377
0.415 0.419 1.362
0.414 0.425 1.36
0.405 0.422 1.348
0.403 0.428 1.347
0.396 0.428 1.338
0.389 0.427 1.329
0.387 0.432 1.327
0.381 0.431 1.318
0.379 0.437 1.316
0.371 0.435 1.307
0.369 0.44 1.304
0.362 0.438 1.295
0.36 0.443 1.293
0.354 0.443 1.285
0.351 0.446 1.282
0.345 0.445 1.273
0.342 0.449 1.27
0.336 0.447 1.262
0.329 0.445 1.254
0.327 0.449 1.251
0.325 0.453 1.248
0.318 0.45 1.24
0.316 0.455 1.237
0.309 0.45 1.228
0.308 0.456 1.227
0.301 0.453 1.218
0.299 0.456 1.215
0.296 0.459 1.212
0.29 0.457 1.205
0.287 0.46 1.201
0.282 0.457 1.194
0.279 0.461 1.191
0.274 0.458 1.184
0.271 0.461 1.181
0.269 0.464 1.178
0.267 0.469 1.175
0.261 0.466 1.168
0.258 0.466 1.164
0.252 0.462 1.156
0.25 0.466 1.154
0.247 0.469 1.15
0.244 0.47 1.146
0.238 0.466 1.14
0.236 0.469 1.137
0.233 0.47 1.133
0.231 0.474 1.13
0.228 0.477 1.127
0.223 0.472 1.12
0.223 0.482 1.12
0.218 0.477 1.114
0.214 0.476 1.109
0.213 0.482 1.107
0.207 0.477 1.101
0.205 0.481 1.098
0.202 0.482 1.094
0.2 0.485 1.091
0.194 0.478 1.084
0.191 0.479 1.081
0.187 0.474 1.075
0.184 0.477 1.072
0.182 0.479 1.069
0.179 0.481 1.065
0.176 0.482 1.062
0.176 0.492 1.061
0.171 0.485 1.055
0.168 0.485 1.051
0.165 0.487 1.048
0.163 0.49 1.045
0.158 0.484 1.039
0.156 0.485 1.036
0.152 0.484 1.032
0.152 0.494 1.031
0.148 0.489 1.025
0.145 0.489 1.022
0.142 0.492 1.019
0.139 0.492 1.015
0.137 0.492 1.012
0.134 0.495 1.008
0.13 0.49 1.004
0.128 0.494 1.001
0.126 0.496 0.998
0.123 0.5 0.995
0.12 0.5 0.991
0.118 0.503 0.988
0.114 0.494 0.983
0.112 0.505 0.981
0.109 0.499 0.977
0.106 0.501 0.974
0.104 0.506 0.971
0.101 0.504 0.967
0.098 0.503 0.963
0.095 0.503 0.96
0.093 0.506 0.956
0.09 0.508 0.953
0.087 0.509 0.95
0.084 0.508 0.946
0.081 0.504 0.942
0.079 0.512 0.939
0.076 0.511 0.936
0.073 0.511 0.932
0.071 0.511 0.929
0.068 0.509 0.925
0.065 0.508 0.922
0.062 0.505 0.918
0.059 0.504 0.914
0.056 0.506 0.911
0.054 0.513 0.908
0.051 0.505 0.904
0.048 0.51 0.901
0.046 0.513 0.897
0.043 0.513 0.894
0.042 -0.826 0.894
0.047 -0.852 0.9
0.051 -0.844 0.906
0.056 -0.837 0.911
0.06 -0.838 0.917
0.065 -0.836 0.923
0.07 -0.85 0.929
0.074 -0.846 0.935
0.079 -0.848 0.941
0.083 -0.843 0.946
0.088 -0.843 0.952
0.093 -0.85 0.959
0.097 -0.849 0.964
0.102 -0.858 0.971
0.108 -0.866 0.978
0.112 -0.865 0.984
0.118 -0.871 0.99
0.122 -0.868 0.996
0.129 -0.89 1.005
0.135 -0.904 1.013
0.522 -4.415 1.507
0.548 -4.426 1.54
0.575 -4.442 1.574
0.601 -4.454 1.607
0.628 -4.468 1.641
0.655 -4.478 1.675
0.682 -4.495 1.711
0.709 -4.503 1.745
0.736 -4.51 1.779
0.765 -4.527 1.815
0.792 -4.536 1.85
0.821 -4.549 1.887
0.848 -4.556 1.922
0.878 -4.573 1.96
0.908 -4.587 1.998
0.937 -4.602 2.036
0.965 -4.605 2.071
0.996 -4.618 2.11
1.026 -4.631 2.149
1.057 -4.645 2.189
1.088 -4.656 2.228
1.119 -4.667 2.267
1.152 -4.688 2.31
1.184 -4.696 2.35
1.218 -4.717 2.394
1.251 -4.731 2.436
1.284 -4.74 2.477
1.318 -4.755 2.521
1.353 -4.771 2.565
1.387 -4.784 2.61
1.425 -4.806 2.658
1.458 -4.809 2.699
1.496 -4.831 2.748
1.532 -4.842 2.794
1.568 -4.854 2.84
2.187 -6.677 3.629
2.245 -6.715 3.704
2.298 -6.733 3.771
2.356 -6.763 3.844
2.409 -6.779 3.912
2.47 -6.814 3.99
2.526 -6.833 4.061
2.587 -6.862 4.139
2.645 -6.883 4.213
2.705 -6.907 4.29
2.768 -6.934 4.37
2.834 -6.967 4.454
2.895 -6.984 4.531
2.93 -6.937 4.576
2.943 -6.84 4.593
2.957 -6.746 4.611
2.98 -6.675 4.641
2.992 -6.579 4.655
2.956 -6.381 4.609
2.97 -6.296 4.627
2.911 -6.06 4.553
2.927 -5.983 4.572
2.912 -5.847 4.554
2.926 -5.772 4.572
2.913 -5.644 4.555
2.927 -5.571 4.572
2.916 -5.454 4.559
2.927 -5.378 4.573
2.915 -5.261 4.557
2.928 -5.194 4.574
2.916 -5.083 4.559
2.93 -5.018 4.576
2.917 -4.91 4.561
2.928 -4.843 4.574
2.284 -3.697 3.753
2.377 -3.783 3.871
2.276 -3.558 3.743
2.338 -3.592 3.821
2.473 -3.738 3.994
2.939 -4.378 4.588
2.329 -3.396 3.81
2.403 -3.445 3.905
2.329 -3.279 3.81
2.385 -3.301 3.882
2.441 -3.32 3.953
2.488 -3.325 4.012
2.563 -3.368 4.109
2.389 -3.08 3.887
2.383 -3.018 3.88
2.416 -3.005 3.921
2.385 -2.913 3.881
2.343 -2.809 3.828
2.486 -2.93 4.01
2.536 -2.936 4.074
2.652 -3.016 4.221
3 -3.356 4.665
2.532 -2.773 4.068
2.606 -2.803 4.164
2.562 -2.703 4.107
2.615 -2.708 4.175
2.58 -2.62 4.131
2.596 -2.587 4.151
2.563 -2.503 4.108
2.579 -2.47 4.129
2.561 -2.404 4.106
2.567 -2.362 4.114
2.568 -2.316 4.115
2.577 -2.277 4.126
2.566 -2.22 4.112
2.581 -2.187 4.131
2.568 -2.131 4.115
2.574 -2.091 4.123
2.565 -2.039 4.112
2.576 -2.002 4.125
2.566 -1.951 4.112
2.581 -1.919 4.132
2.569 -1.866 4.116
2.585 -1.835 4.137
2.567 -1.779 4.114
2.582 -1.747 4.133
2.569 -1.696 4.117
2.579 -1.661 4.129
2.571 -1.614 4.119
2.58 -1.579 4.13
2.566 -1.529 4.113
2.58 -1.497 4.131
2.567 -1.449 4.114
2.58 -1.416 4.13
2.568 -1.369 4.115
2.58 -1.336 4.131
2.57 -1.292 4.118
2.584 -1.259 4.135
2.573 -1.215 4.121
2.581 -1.18 4.131
2.574 -1.138 4.122
2.58 -1.102 4.13
2.566 -1.058 4.113
2.58 -1.026 4.131
2.572 -0.984 4.12
2.579 -0.949 4.129
2.571 -0.909 4.119
2.582 -0.875 4.132
2.579 -0.836 4.129
2.593 -0.803 4.147
2.586 -0.764 4.138
2.596 -0.73 4.15
2.585 -0.69 4.137
2.595 -0.655 4.149
2.588 -0.617 4.141
2.586 -0.579 4.138
2.577 -0.541 4.126
2.59 -0.507 4.142
2.578 -0.468 4.128
2.588 -0.434 4.141
2.572 -0.395 4.12
2.588 -0.361 4.141
2.567 -0.322 4.113
2.581 -0.288 4.132
2.575 -0.251 4.124
2.583 -0.216 4.134
2.57 -0.179 4.118
2.582 -0.144 4.133
2.566 -0.107 4.112
2.58 -0.072 4.13
1.735 -0.024 3.053
1.654 -0 2.949
1.588 0.022 2.866
1.544 0.042 2.809
1.523 0.063 2.783
1.628 0.09 2.916
1.413 0.097 2.642
1.38 0.114 2.6
1.346 0.129 2.557
1.375 0.151 2.594
1.392 0.172 2.615
1.384 0.19 2.605
1.376 0.208 2.595
1.366 0.225 2.582
1.37 0.245 2.587
1.392 0.269 2.615
1.39 0.288 2.613
1.086 0.238 2.225
1.07 0.249 2.205
1.045 0.257 2.173
1.022 0.266 2.144
0.997 0.273 2.112
1.027 0.296 2.151
1.041 0.315 2.168
1.05 0.332 2.179
1.043 0.345 2.171
1.042 0.359 2.169
1.014 0.364 2.134
1.022 0.381 2.144
1.019 0.395 2.14
1.064 0.428 2.197
1.067 0.445 2.201
1.011 0.436 2.13
1.012 0.451 2.131
1.015 0.467 2.135
1.009 0.479 2.127
1.004 0.491 2.12
0.99 0.499 2.103
0.789 0.405 1.846
0.739 0.389 1.783
0.724 0.391 1.763
0.713 0.396 1.75
0.705 0.402 1.739
0.703 0.411 1.737
0.701 0.42 1.734
0.567 0.344 1.564
0.56 0.347 1.554
0.554 0.352 1.547
0.556 0.362 1.55
0.575 0.385 1.574
0.567 0.387 1.563
0.558 0.39 1.552
0.553 0.395 1.546
0.551 0.402 1.543
0.54 0.402 1.529
0.531 0.404 1.517
0.524 0.407 1.509
0.517 0.409 1.5
0.502 0.405 1.481
0.498 0.409 1.475
0.491 0.411 1.466
0.483 0.413 1.456
0.471 0.41 1.441
0.468 0.415 1.437
0.457 0.412 1.423
0.451 0.414 1.415
0.45 0.421 1.414
0.443 0.422 1.406
0.433 0.419 1.393
0.431 0.425 1.39
0.424 0.425 1.381
0.418 0.426 1.373
0.41 0.425 1.363
0.407 0.43 1.36
0.399 0.428 1.35
0.392 0.427 1.34
0.39 0.433 1.338
0.388 0.438 1.335
0.381 0.437 1.326
0.374 0.436 1.318
0.367 0.434 1.308
0.365 0.44 1.306
0.359 0.439 1.299
0.353 0.438 1.291
0.355 0.449 1.293
0.343 0.44 1.278
0.341 0.445 1.276
0.339 0.449 1.273
0.332 0.446 1.264
0.331 0.452 1.262
0.324 0.449 1.253
0.317 0.446 1.245
0.315 0.451 1.243
0.309 0.448 1.235
0.311 0.458 1.236
0.303 0.454 1.227
0.298 0.453 1.221
0.296 0.457 1.218
0.293 0.46 1.214
0.287 0.457 1.207
0.285 0.46 1.203
0.278 0.457 1.196
0.276 0.461 1.193
0.275 0.466 1.191
0.268 0.461 1.183
0.267 0.466 1.18
0.261 0.462 1.173
0.259 0.466 1.17
0.255 0.467 1.166
0.252 0.469 1.162
0.247 0.466 1.156
0.244 0.468 1.152
0.242 0.471 1.149
0.239 0.474 1.146
0.234 0.469 1.139
0.232 0.473 1.136
0.229 0.475 1.132
0.225 0.475 1.128
0.223 0.479 1.125
0.218 0.476 1.119
0.215 0.476 1.115
0.213 0.48 1.112
0.21 0.482 1.109
0.205 0.477 1.102
0.203 0.48 1.099
0.2 0.481 1.095
0.196 0.478 1.09
0.193 0.479 1.086
0.19 0.481 1.083
0.187 0.482 1.079
0.182 0.475 1.072
0.182 0.488 1.073
0.177 0.48 1.066
0.175 0.483 1.063
0.172 0.484 1.06
0.169 0.484 1.056
0.166 0.487 1.053
0.164 0.489 1.049
0.159 0.482 1.044
0.156 0.483 1.04
0.154 0.485 1.037
0.151 0.486 1.033
0.148 0.485 1.029
0.146 0.488 1.026
0.143 0.49 1.023
0.14 0.491 1.02
0.138 0.492 1.016
0.134 0.485 1.011
0.131 0.488 1.008
0.129 0.492 1.005
0.127 0.494 1.002
0.124 0.496 0.999
0.122 0.5 0.996
0.119 0.501 0.992
0.115 0.494 0.987
0.114 0.503 0.985
0.11 0.497 0.981
0.107 0.498 0.977
0.105 0.501 0.974
0.103 0.505 0.971
0.1 0.504 0.968
0.097 0.502 0.964
0.094 0.502 0.96
0.091 0.504 0.957
0.089 0.506 0.954
0.086 0.506 0.95
0.083 0.51 0.947
0.08 0.503 0.943
0.077 0.504 0.939
0.075 0.511 0.936
0.072 0.511 0.933
0.07 0.511 0.929
0.067 0.508 0.926
0.064 0.508 0.922
0.061 0.506 0.918
0.058 0.506 0.915
0.056 0.515 0.912
0.053 0.513 0.908
0.05 0.506 0.905
0.048 0.511 0.901
0.045 0.513 0.898
0.042 0.514 0.894
0.041 -0.842 0.894
0.046 -0.852 0.9
0.05 -0.846 0.906
0.055 -0.824 0.911
0.059 -0.838 0.918
0.064 -0.831 0.923
0.068 -0.835 0.929
0.073 -0.844 0.935
0.077 -0.845 0.941
0.082 -0.852 0.948
0.087 -0.857 0.954
0.092 -0.856 0.96
0.096 -0.849 0.965
0.1 -0.842 0.97
0.107 -0.868 0.979
0.11 -0.852 0.983
0.116 -0.874 0.992
0.121 -0.871 0.997
0.128 -0.894 1.006
0.134 -0.904 1.014
0.517 -4.417 1.511
0.543 -4.429 1.544
0.57 -4.447 1.578
0.595 -4.454 1.611
0.622 -4.468 1.646
0.648 -4.478 1.68
0.675 -4.486 1.714
0.701 -4.494 1.748
0.729 -4.51 1.784
0.756 -4.517 1.819
0.784 -4.535 1.856
0.813 -4.55 1.893
0.84 -4.557 1.929
0.869 -4.572 1.966
0.899 -4.586 2.004
0.927 -4.592 2.04
0.956 -4.606 2.079
0.986 -4.619 2.118
1.016 -4.632 2.157
1.047 -4.644 2.196
1.078 -4.657 2.236
1.108 -4.668 2.276
1.141 -4.688 2.318
1.173 -4.698 2.359
1.206 -4.715 2.402
1.237 -4.723 2.443
1.269 -4.732 2.484
1.303 -4.747 2.528
1.337 -4.761 2.572
1.372 -4.775 2.616
1.409 -4.796 2.664
1.444 -4.81 2.71
1.479 -4.823 2.756
1.515 -4.836 2.803
1.549 -4.839 2.846
2.165 -6.674 3.644
2.223 -6.712 3.719
2.275 -6.73 3.786
2.332 -6.761 3.86
2.384 -6.774 3.927
2.445 -6.81 4.006
2.499 -6.824 4.075
2.559 -6.854 4.153
2.618 -6.878 4.23
2.678 -6.902 4.308
2.739 -6.926 4.386
2.804 -6.958 4.47
2.868 -6.986 4.554
2.914 -6.966 4.612
2.92 -6.85 4.62
2.936 -6.762 4.641
2.914 -6.587 4.613
2.923 -6.488 4.624
2.864 -6.239 4.548
2.875 -6.15 4.562
2.864 -6.016 4.548
2.875 -5.933 4.563
2.86 -5.795 4.542
2.875 -5.723 4.562
2.863 -5.598 4.546
2.873 -5.521 4.56
2.863 -5.404 4.547
2.874 -5.33 4.561
2.862 -5.216 4.546
2.877 -5.152 4.566
2.863 -5.037 4.547
2.877 -4.974 4.565
2.866 -4.869 4.551
2.408 -4.008 3.957
2.27 -3.709 3.779
2.444 -3.929 4.004
2.271 -3.584 3.781
2.256 -3.499 3.762
2.446 -3.732 4.007
2.892 -4.348 4.585
2.421 -3.567 3.975
2.363 -3.42 3.9
2.329 -3.31 3.856
2.474 -3.459 4.043
2.44 -3.351 3.999
2.456 -3.314 4.019
2.464 -3.267 4.031
2.473 -3.221 4.043
2.463 -3.151 4.029
2.427 -3.049 3.982
2.346 -2.893 3.878
2.355 -2.852 3.889
2.418 -2.877 3.971
2.452 -2.864 4.014
2.465 -2.827 4.031
2.513 -2.831 4.093
2.474 -2.735 4.044
2.509 -2.722 4.088
2.519 -2.682 4.102
2.532 -2.645 4.118
2.511 -2.574 4.091
2.525 -2.538 4.109
2.524 -2.488 4.108
2.529 -2.445 4.114
2.52 -2.388 4.103
2.53 -2.35 4.116
2.521 -2.295 4.105
2.534 -2.26 4.121
2.521 -2.202 4.104
2.527 -2.162 4.112
2.52 -2.111 4.103
2.53 -2.074 4.116
2.521 -2.023 4.105
2.532 -1.987 4.118
2.519 -1.933 4.101
2.529 -1.898 4.115
2.524 -1.85 4.108
2.537 -1.818 4.125
2.527 -1.768 4.112
2.537 -1.733 4.124
2.524 -1.682 4.108
2.533 -1.646 4.119
2.521 -1.598 4.104
2.534 -1.565 4.121
2.522 -1.517 4.105
2.535 -1.485 4.123
2.527 -1.44 4.113
2.535 -1.405 4.122
2.522 -1.358 4.106
2.535 -1.325 4.122
2.526 -1.282 4.111
2.533 -1.246 4.12
2.527 -1.204 4.112
2.533 -1.169 4.12
2.524 -1.126 4.108
2.536 -1.094 4.124
2.528 -1.052 4.114
2.53 -1.015 4.116
2.533 -0.979 4.12
2.544 -0.945 4.134
2.538 -0.905 4.126
2.549 -0.872 4.14
2.54 -0.831 4.128
2.549 -0.797 4.14
2.537 -0.756 4.124
2.55 -0.723 4.141
2.533 -0.682 4.12
2.55 -0.65 4.141
2.532 -0.609 4.119
2.537 -0.574 4.125
2.532 -0.536 4.118
2.544 -0.503 4.134
2.526 -0.463 4.111
2.537 -0.429 4.124
2.531 -0.392 4.117
2.535 -0.357 4.123
2.53 -0.32 4.116
2.537 -0.285 4.125
2.527 -0.249 4.112
2.533 -0.214 4.12
2.528 -0.178 4.114
2.535 -0.142 4.123
2.526 -0.106 4.111
2.531 -0.071 4.117
1.758 -0.025 3.116
1.632 -0 2.954
0 0 0
1.533 0.043 2.826
1.487 0.062 2.765
1.566 0.087 2.868
1.399 0.097 2.652
1.367 0.114 2.61
1.337 0.13 2.571
1.357 0.15 2.597
1.388 0.173 2.638
1.379 0.191 2.626
1.364 0.208 2.607
1.335 0.222 2.568
1.333 0.241 2.566
1.364 0.266 2.607
0 0 0
1.086 0.24 2.246
1.058 0.248 2.21
1.041 0.259 2.189
1.012 0.266 2.151
0.994 0.275 2.128
1.028 0.299 2.171
1.031 0.315 2.175
1.048 0.335 2.198
1.045 0.349 2.194
1.032 0.359 2.176
1.012 0.367 2.151
1.014 0.382 2.153
1.014 0.397 2.154
1.05 0.427 2.2
1.04 0.438 2.187
1.006 0.437 2.143
1.006 0.453 2.143
1.003 0.466 2.14
1 0.479 2.135
0.999 0.494 2.134
0.98 0.499 2.11
0.76 0.393 1.824
0.73 0.388 1.786
0.718 0.392 1.771
0.709 0.397 1.759
0.699 0.402 1.745
0.7 0.414 1.747
0.703 0.427 1.751
0.565 0.346 1.572
0.549 0.344 1.551
0.548 0.352 1.551
0.546 0.359 1.548
0.564 0.38 1.57
0.558 0.385 1.563
0.558 0.394 1.563
0.551 0.397 1.554
0.54 0.398 1.54
0.534 0.402 1.533
0.525 0.403 1.521
0.52 0.407 1.514
0.506 0.404 1.495
0.498 0.406 1.486
0.497 0.414 1.485
0.48 0.406 1.463
0.473 0.408 1.454
0.467 0.41 1.445
0.464 0.415 1.441
0.452 0.412 1.426
0.445 0.413 1.417
0.443 0.419 1.414
0.434 0.417 1.402
0.433 0.424 1.401
0.427 0.425 1.393
0.419 0.425 1.384
0.413 0.426 1.375
0.406 0.425 1.366
0.397 0.423 1.355
0.394 0.427 1.351
0.393 0.433 1.349
0.387 0.433 1.341
0.379 0.431 1.331
0.377 0.437 1.329
0.37 0.435 1.32
0.364 0.436 1.313
0.362 0.44 1.31
0.356 0.439 1.301
0.353 0.443 1.298
0.346 0.441 1.289
0.343 0.445 1.286
0.338 0.445 1.278
0.331 0.442 1.269
0.328 0.445 1.266
0.323 0.445 1.259
0.32 0.448 1.255
0.319 0.454 1.254
0.312 0.451 1.245
0.31 0.455 1.242
0.303 0.451 1.233
0.301 0.456 1.231
0.295 0.453 1.223
0.293 0.456 1.22
0.286 0.452 1.211
0.284 0.457 1.209
0.281 0.459 1.204
0.279 0.463 1.202
0.274 0.461 1.195
0.271 0.465 1.192
0.266 0.461 1.185
0.264 0.466 1.182
0.258 0.462 1.175
0.255 0.464 1.171
0.253 0.467 1.168
0.25 0.471 1.165
0.244 0.465 1.157
0.242 0.468 1.154
0.239 0.47 1.15
0.234 0.467 1.144
0.231 0.469 1.14
0.228 0.471 1.137
0.226 0.474 1.133
0.223 0.477 1.13
0.221 0.478 1.126
0.215 0.474 1.12
0.213 0.476 1.117
0.21 0.478 1.113
0.205 0.474 1.107
0.203 0.476 1.103
0.2 0.479 1.1
0.196 0.475 1.094
0.193 0.475 1.09
0.191 0.479 1.088
0.19 0.488 1.087
0.185 0.483 1.081
0.182 0.484 1.077
0.178 0.479 1.071
0.175 0.48 1.068
0.172 0.481 1.064
0.17 0.484 1.061
0.167 0.486 1.058
0.165 0.488 1.054
0.162 0.487 1.05
0.159 0.49 1.047
0.156 0.49 1.043
0.154 0.492 1.04
0.149 0.485 1.034
0.147 0.486 1.031
0.144 0.489 1.028
0.141 0.489 1.024
0.139 0.49 1.02
0.136 0.491 1.017
0.133 0.492 1.013
0.131 0.496 1.011
0.128 0.492 1.006
0.125 0.494 1.003
0.124 0.503 1.001
0.12 0.501 0.997
0.116 0.49 0.991
0.115 0.501 0.99
0.111 0.492 0.984
0.11 0.507 0.983
0.106 0.499 0.978
0.104 0.504 0.976
0.101 0.505 0.972
0.098 0.503 0.968
0.095 0.5 0.964
0.093 0.501 0.961
0.09 0.503 0.957
0.088 0.507 0.954
0.085 0.506 0.951
0.082 0.51 0.948
0.079 0.503 0.943
0.077 0.511 0.94
0.074 0.502 0.936
0.071 0.511 0.933
0.069 0.511 0.93
0.065 0.499 0.926
0.063 0.508 0.923
0.06 0.506 0.919
0.058 0.508 0.916
0.055 0.514 0.912
0.052 0.505 0.908
0.05 0.515 0.905
0.047 0.512 0.901
0.044 0.512 0.898
0.041 0.504 0.894
0.041 -0.837 0.895
0.045 -0.842 0.9
0.05 -0.846 0.906
0.054 -0.831 0.912
0.059 -0.836 0.918
0.063 -0.839 0.924
0.068 -0.842 0.93
0.073 -0.847 0.936
0.077 -0.852 0.942
0.082 -0.852 0.948
0.087 -0.858 0.954
0.091 -0.856 0.96
0.095 -0.847 0.965
0.1 -0.847 0.971
0.106 -0.87 0.979
0.111 -0.872 0.986
0.116 -0.876 0.992
0.122 -0.887 1
0.127 -0.891 1.007
0.489 -4.399 1.479
0.515 -4.415 1.512
0.541 -4.433 1.547
0.566 -4.44 1.58
0.592 -4.455 1.614
0.619 -4.467 1.648
0.645 -4.478 1.683
0.671 -4.486 1.717
0.697 -4.493 1.751
0.725 -4.51 1.787
0.753 -4.525 1.823
0.78 -4.534 1.859
0.809 -4.55 1.896
0.836 -4.557 1.932
0.865 -4.571 1.969
0.892 -4.578 2.005
0.922 -4.591 2.043
0.952 -4.608 2.083
0.981 -4.62 2.121
1.011 -4.632 2.16
1.041 -4.643 2.2
1.072 -4.656 2.24
1.103 -4.668 2.28
1.133 -4.678 2.32
1.167 -4.698 2.363
1.198 -4.706 2.404
1.232 -4.725 2.448
1.263 -4.73 2.488
1.297 -4.747 2.533
1.33 -4.759 2.576
1.365 -4.775 2.622
1.402 -4.796 2.67
1.436 -4.809 2.715
1.472 -4.822 2.761
1.508 -4.835 2.808
1.54 -4.836 2.85
2.153 -6.668 3.649
2.211 -6.708 3.725
2.267 -6.738 3.798
2.318 -6.753 3.865
2.374 -6.778 3.938
2.431 -6.805 4.013
2.489 -6.831 4.088
2.546 -6.854 4.163
2.602 -6.871 4.236
2.663 -6.896 4.315
2.722 -6.917 4.392
2.785 -6.945 4.474
2.851 -6.979 4.561
2.912 -6.997 4.64
2.883 -6.798 4.603
2.881 -6.666 4.599
2.827 -6.421 4.53
2.837 -6.327 4.543
2.825 -6.184 4.526
2.836 -6.097 4.541
2.824 -5.961 4.525
2.838 -5.884 4.543
2.822 -5.747 4.523
2.834 -5.67 4.539
2.823 -5.546 4.523
2.836 -5.475 4.541
2.824 -5.356 4.525
2.838 -5.288 4.543
2.825 -5.172 4.526
2.843 -5.115 4.55
2.829 -5.002 4.532
2.838 -4.931 4.544
2.83 -4.832 4.534
2.295 -3.837 3.835
2.267 -3.723 3.798
2.361 -3.813 3.921
2.262 -3.587 3.792
2.249 -3.505 3.775
2.424 -3.718 4.004
2.438 -3.675 4.022
2.313 -3.422 3.858
2.4 -3.491 3.972
2.373 -3.391 3.936
2.529 -3.555 4.14
2.433 -3.358 4.015
2.423 -3.285 4.002
2.483 -3.31 4.081
2.486 -3.254 4.084
2.56 -3.293 4.18
2.391 -3.019 3.961
2.436 -3.021 4.019
2.459 -2.995 4.049
2.473 -2.958 4.067
2.438 -2.863 4.022
2.411 -2.779 3.987
2.457 -2.781 4.046
2.478 -2.753 4.074
2.492 -2.718 4.092
2.485 -2.659 4.083
2.494 -2.618 4.094
2.487 -2.562 4.086
2.496 -2.522 4.098
2.488 -2.465 4.087
2.501 -2.429 4.104
2.49 -2.371 4.089
2.497 -2.331 4.099
2.485 -2.273 4.082
2.497 -2.237 4.098
2.489 -2.185 4.088
2.496 -2.146 4.098
2.488 -2.094 4.087
2.499 -2.058 4.101
2.487 -2.004 4.085
2.502 -1.973 4.105
2.492 -1.922 4.092
2.501 -1.886 4.104
2.49 -1.835 4.09
2.506 -1.804 4.111
2.492 -1.752 4.093
2.502 -1.717 4.105
2.492 -1.668 4.092
2.499 -1.632 4.101
2.493 -1.588 4.093
2.501 -1.552 4.104
2.495 -1.508 4.096
2.497 -1.469 4.099
2.49 -1.425 4.089
2.501 -1.392 4.104
2.488 -1.346 4.087
2.501 -1.314 4.104
2.49 -1.269 4.09
2.504 -1.238 4.108
2.492 -1.193 4.092
2.497 -1.158 4.099
2.504 -1.123 4.108
2.508 -1.087 4.113
2.503 -1.047 4.106
2.513 -1.013 4.12
2.505 -0.973 4.11
2.518 -0.94 4.125
2.506 -0.898 4.111
2.515 -0.864 4.122
2.507 -0.825 4.111
2.516 -0.791 4.124
2.498 -0.749 4.1
2.513 -0.716 4.119
2.494 -0.675 4.095
2.503 -0.641 4.107
2.493 -0.602 4.093
2.498 -0.568 4.1
2.494 -0.531 4.095
2.505 -0.497 4.109
2.499 -0.46 4.101
2.505 -0.426 4.109
2.497 -0.389 4.099
2.506 -0.354 4.11
2.497 -0.318 4.099
2.503 -0.283 4.106
2.493 -0.247 4.093
2.505 -0.212 4.109
2.496 -0.176 4.097
2.502 -0.141 4.105
2.491 -0.105 4.091
2.503 -0.071 4.106
2.483 -0.035 4.08
1.608 -0 2.938
1.586 0.022 2.91
1.525 0.043 2.831
1.485 0.062 2.778
1.478 0.082 2.769
1.401 0.098 2.669
1.364 0.114 2.62
1.34 0.131 2.589
1.356 0.151 2.61
1.365 0.171 2.622
1.363 0.19 2.62
1.342 0.206 2.591
1.321 0.221 2.564
1.329 0.241 2.575
1.335 0.261 2.583
0 0 0
1.073 0.238 2.241
1.051 0.248 2.212
1.03 0.257 2.185
1.013 0.267 2.163
0.994 0.276 2.138
1.033 0.302 2.188
1.044 0.32 2.203
1.032 0.332 2.188
1.043 0.35 2.201
1.035 0.362 2.191
1.011 0.368 2.16
1.011 0.383 2.16
1.03 0.405 2.185
1.032 0.421 2.187
1.026 0.434 2.18
1.026 0.449 2.18
0.997 0.45 2.141
1.006 0.47 2.153
0.996 0.48 2.141
0.998 0.496 2.143
0.975 0.499 2.114
0.745 0.387 1.813
0.72 0.384 1.781
0.715 0.392 1.774
0.705 0.397 1.761
0.699 0.404 1.752
0.703 0.418 1.759
0.706 0.43 1.761
0.644 0.4 1.681
0.545 0.343 1.552
0.542 0.35 1.548
0.538 0.355 1.543
0.558 0.378 1.569
0.561 0.389 1.573
0.552 0.391 1.561
0.548 0.398 1.556
0.537 0.398 1.542
0.53 0.401 1.533
0.523 0.404 1.524
0.515 0.406 1.513
0.502 0.403 1.497
0.496 0.406 1.488
0.491 0.41 1.481
0.483 0.411 1.471
0.476 0.413 1.462
0.469 0.415 1.453
0.461 0.415 1.442
0.45 0.412 1.428
0.443 0.413 1.42
0.438 0.416 1.413
0.437 0.423 1.412
0.427 0.419 1.398
0.419 0.419 1.387
0.412 0.419 1.379
0.41 0.424 1.376
0.404 0.426 1.368
0.394 0.422 1.356
0.393 0.428 1.354
0.386 0.428 1.345
0.384 0.432 1.342
0.377 0.431 1.332
0.375 0.437 1.331
0.369 0.436 1.322
0.362 0.434 1.313
0.36 0.44 1.31
0.353 0.438 1.301
0.348 0.438 1.295
0.347 0.445 1.294
0.342 0.446 1.287
0.336 0.444 1.279
0.333 0.448 1.276
0.327 0.446 1.268
0.325 0.452 1.266
0.319 0.449 1.257
0.316 0.453 1.254
0.31 0.451 1.246
0.309 0.455 1.244
0.301 0.45 1.234
0.299 0.456 1.232
0.294 0.453 1.224
0.291 0.457 1.221
0.285 0.453 1.213
0.283 0.457 1.21
0.28 0.46 1.206
0.278 0.464 1.204
0.272 0.461 1.196
0.27 0.464 1.193
0.264 0.462 1.186
0.262 0.466 1.183
0.257 0.462 1.176
0.254 0.464 1.172
0.251 0.466 1.168
0.245 0.462 1.161
0.243 0.465 1.158
0.24 0.467 1.154
0.237 0.47 1.151
0.235 0.473 1.148
0.23 0.469 1.141
0.227 0.471 1.138
0.221 0.466 1.13
0.222 0.477 1.131
0.217 0.472 1.124
0.214 0.472 1.12
0.212 0.476 1.117
0.21 0.48 1.114
0.207 0.481 1.111
0.199 0.47 1.101
0.199 0.479 1.101
0.196 0.479 1.097
0.194 0.483 1.094
0.192 0.486 1.091
0.187 0.481 1.085
0.184 0.484 1.082
0.182 0.485 1.078
0.179 0.487 1.075
0.174 0.48 1.068
0.174 0.491 1.068
0.169 0.484 1.062
0.167 0.486 1.058
0.164 0.487 1.055
0.161 0.489 1.051
0.156 0.482 1.045
0.155 0.488 1.043
0.153 0.493 1.041
0.15 0.493 1.037
0.147 0.494 1.033
0.143 0.487 1.028
0.14 0.488 1.024
0.138 0.49 1.021
0.135 0.491 1.017
0.132 0.492 1.014
0.13 0.497 1.011
0.127 0.491 1.006
0.124 0.493 1.003
0.122 0.496 1
0.12 0.5 0.997
0.117 0.501 0.994
0.113 0.492 0.988
0.111 0.502 0.987
0.11 0.509 0.984
0.106 0.499 0.979
0.103 0.504 0.976
0.1 0.503 0.972
0.098 0.503 0.969
0.095 0.502 0.965
0.092 0.501 0.961
0.089 0.503 0.958
0.087 0.507 0.955
0.084 0.505 0.951
0.082 0.511 0.948
0.079 0.502 0.944
0.076 0.51 0.941
0.074 0.511 0.937
0.071 0.51 0.934
0.068 0.509 0.93
0.065 0.508 0.926
0.063 0.507 0.923
0.06 0.505 0.919
0.057 0.506 0.916
0.055 0.514 0.912
0.052 0.504 0.909
0.049 0.515 0.905
0.046 0.512 0.902
0.044 0.512 0.898
0.041 0.514 0.895
0.04 -0.848 0.895
0.045 -0.838 0.901
0.049 -0.847 0.907
0.053 -0.832 0.912
0.058 -0.831 0.918
0.062 -0.837 0.924
0.067 -0.845 0.93
0.071 -0.834 0.936
0.076 -0.842 0.942
0.08 -0.843 0.948
0.085 -0.851 0.954
0.09 -0.851 0.96
0.094 -0.854 0.967
0.099 -0.851 0.972
0.104 -0.866 0.98
0.108 -0.859 0.985
0.114 -0.87 0.993
0.119 -0.875 0.999
0.125 -0.891 1.007
0.485 -4.407 1.483
0.51 -4.42 1.517
0.535 -4.43 1.55
0.562 -4.452 1.585
0.586 -4.454 1.618
0.613 -4.468 1.653
0.639 -4.478 1.687
0.664 -4.485 1.721
0.69 -4.493 1.756
0.718 -4.51 1.792
0.744 -4.517 1.827
0.772 -4.535 1.865
0.799 -4.543 1.9
0.828 -4.557 1.938
0.856 -4.573 1.976
0.884 -4.578 2.012
0.912 -4.59 2.05
0.94 -4.596 2.087
0.97 -4.611 2.126
1.001 -4.632 2.168
1.029 -4.636 2.205
1.061 -4.656 2.247
1.092 -4.668 2.288
1.122 -4.678 2.328
1.153 -4.689 2.369
1.186 -4.705 2.412
1.217 -4.715 2.454
1.25 -4.73 2.497
1.284 -4.746 2.542
1.318 -4.762 2.587
1.351 -4.775 2.631
1.388 -4.797 2.68
1.422 -4.809 2.725
1.458 -4.823 2.772
1.493 -4.835 2.819
1.528 -4.845 2.865
2.132 -6.668 3.665
2.186 -6.696 3.736
2.242 -6.729 3.811
2.295 -6.749 3.881
2.35 -6.774 3.954
2.404 -6.795 4.026
2.461 -6.819 4.1
2.518 -6.844 4.177
2.576 -6.868 4.254
2.637 -6.896 4.334
2.696 -6.917 4.412
2.758 -6.945 4.494
2.82 -6.97 4.577
2.885 -6.999 4.662
2.773 -6.599 4.514
2.785 -6.506 4.53
2.776 -6.365 4.518
2.784 -6.268 4.529
2.773 -6.129 4.514
2.786 -6.048 4.532
2.773 -5.911 4.515
2.786 -5.832 4.531
2.777 -5.71 4.52
2.788 -5.631 4.534
2.774 -5.503 4.515
2.786 -5.43 4.531
2.775 -5.314 4.517
2.787 -5.244 4.533
2.774 -5.129 4.516
2.787 -5.062 4.533
2.781 -4.963 4.525
2.792 -4.898 4.54
2.778 -4.788 4.521
2.265 -3.824 3.842
2.245 -3.723 3.815
2.27 -3.701 3.849
2.207 -3.534 3.765
2.229 -3.507 3.793
2.369 -3.667 3.979
2.349 -3.573 3.953
2.296 -3.43 3.882
2.275 -3.339 3.854
2.354 -3.397 3.959
2.425 -3.441 4.054
2.386 -3.325 4.002
2.428 -3.325 4.057
2.476 -3.332 4.121
2.457 -3.247 4.095
2.62 -3.406 4.312
2.845 -3.637 4.61
2.522 -3.161 4.182
2.385 -2.932 4
2.41 -2.91 4.034
2.413 -2.861 4.038
2.434 -2.834 4.066
2.444 -2.793 4.078
2.441 -2.739 4.075
2.45 -2.697 4.086
2.444 -2.64 4.078
2.447 -2.594 4.082
2.442 -2.539 4.076
2.451 -2.5 4.087
2.445 -2.445 4.079
2.452 -2.405 4.09
2.446 -2.352 4.081
2.453 -2.312 4.091
2.442 -2.255 4.076
2.452 -2.219 4.09
2.446 -2.168 4.081
2.451 -2.128 4.088
2.446 -2.078 4.081
2.452 -2.039 4.089
2.447 -1.991 4.082
2.457 -1.956 4.096
2.447 -1.905 4.082
2.456 -1.87 4.095
2.446 -1.82 4.082
2.461 -1.788 4.101
2.448 -1.737 4.084
2.458 -1.703 4.097
2.447 -1.654 4.082
2.455 -1.619 4.093
2.444 -1.571 4.078
2.458 -1.54 4.097
2.445 -1.492 4.079
2.453 -1.457 4.09
2.443 -1.412 4.077
2.456 -1.38 4.094
2.443 -1.334 4.077
2.453 -1.301 4.09
2.452 -1.262 4.089
2.462 -1.229 4.102
2.454 -1.187 4.092
2.467 -1.155 4.109
2.456 -1.112 4.094
2.47 -1.08 4.113
2.46 -1.038 4.099
2.468 -1.005 4.111
2.458 -0.963 4.097
2.468 -0.93 4.11
2.452 -0.887 4.089
2.468 -0.856 4.11
2.45 -0.814 4.086
2.461 -0.781 4.101
2.446 -0.74 4.081
2.458 -0.708 4.098
2.448 -0.669 4.084
2.463 -0.637 4.104
2.453 -0.598 4.09
2.468 -0.566 4.111
2.447 -0.526 4.082
2.461 -0.493 4.101
2.453 -0.456 4.09
2.461 -0.422 4.101
2.451 -0.385 4.088
2.461 -0.351 4.1
2.451 -0.315 4.088
2.463 -0.281 4.103
2.447 -0.244 4.083
2.46 -0.21 4.1
2.45 -0.175 4.087
2.46 -0.14 4.1
2.45 -0.105 4.087
2.456 -0.07 4.095
2.452 -0.035 4.089
1.588 -0 2.945
1.568 0.022 2.918
1.515 0.043 2.848
1.478 0.062 2.799
1.426 0.08 2.73
1.388 0.098 2.679
1.356 0.114 2.637
1.329 0.131 2.601
1.337 0.15 2.612
1.317 0.167 2.586
1.328 0.187 2.6
1.305 0.202 2.569
1.308 0.221 2.574
1.306 0.239 2.571
1.298 0.256 2.561
0 0 0
1.068 0.24 2.256
1.05 0.25 2.232
1.028 0.26 2.203
1.005 0.268 2.172
0.984 0.276 2.145
1.019 0.301 2.191
1.039 0.322 2.217
1.027 0.333 2.202
1.019 0.345 2.192
1.014 0.358 2.184
1.019 0.375 2.191
1.022 0.391 2.195
1.017 0.404 2.188
1.016 0.419 2.187
1.013 0.432 2.183
1.011 0.447 2.181
1.006 0.46 2.174
1.001 0.472 2.167
0.979 0.476 2.138
0.982 0.493 2.142
0.946 0.488 2.094
0.739 0.388 1.82
0.722 0.39 1.798
0.713 0.396 1.786
0.701 0.399 1.769
0.695 0.406 1.762
0.7 0.42 1.768
0.704 0.434 1.773
0.702 0.444 1.772
0.595 0.382 1.63
0.533 0.347 1.548
0.527 0.351 1.54
0.532 0.364 1.547
0.555 0.389 1.577
0.543 0.389 1.561
0.542 0.397 1.559
0.536 0.401 1.551
0.524 0.4 1.536
0.517 0.403 1.526
0.511 0.406 1.518
0.498 0.404 1.501
0.495 0.409 1.497
0.485 0.409 1.484
0.477 0.41 1.473
0.471 0.413 1.465
0.464 0.414 1.456
0.457 0.415 1.446
0.446 0.413 1.432
0.439 0.414 1.423
0.433 0.415 1.414
0.428 0.418 1.408
0.422 0.419 1.4
0.42 0.425 1.398
0.413 0.425 1.388
0.408 0.427 1.382
0.399 0.425 1.37
0.393 0.426 1.362
0.389 0.428 1.357
0.382 0.428 1.348
0.38 0.433 1.345
0.378 0.438 1.342
0.367 0.431 1.328
0.364 0.435 1.323
0.358 0.434 1.315
0.356 0.439 1.312
0.354 0.445 1.311
0.344 0.438 1.297
0.341 0.441 1.293
0.334 0.439 1.284
0.332 0.444 1.281
0.325 0.441 1.273
0.324 0.446 1.27
0.322 0.451 1.267
0.316 0.449 1.26
0.314 0.454 1.257
0.307 0.451 1.248
0.305 0.455 1.245
0.298 0.451 1.237
0.296 0.456 1.234
0.291 0.454 1.227
0.289 0.458 1.224
0.282 0.453 1.215
0.28 0.457 1.212
0.277 0.46 1.208
0.275 0.464 1.206
0.269 0.461 1.198
0.267 0.465 1.195
0.262 0.462 1.188
0.259 0.465 1.185
0.254 0.462 1.178
0.251 0.463 1.173
0.251 0.473 1.174
0.245 0.468 1.166
0.244 0.473 1.164
0.237 0.466 1.155
0.235 0.47 1.153
0.229 0.465 1.145
0.227 0.468 1.142
0.225 0.471 1.139
0.222 0.472 1.135
0.22 0.477 1.133
0.214 0.472 1.125
0.211 0.472 1.121
0.209 0.476 1.119
0.207 0.479 1.116
0.201 0.472 1.108
0.2 0.478 1.106
0.197 0.478 1.102
0.194 0.481 1.099
0.192 0.483 1.096
0.187 0.478 1.089
0.185 0.481 1.086
0.182 0.484 1.083
0.18 0.486 1.08
0.175 0.478 1.073
0.172 0.481 1.07
0.169 0.481 1.066
0.167 0.484 1.063
0.165 0.487 1.06
0.162 0.486 1.056
0.159 0.488 1.052
0.154 0.481 1.046
0.153 0.489 1.045
0.149 0.484 1.039
0.147 0.485 1.036
0.144 0.486 1.032
0.141 0.487 1.029
0.139 0.489 1.026
0.136 0.489 1.022
0.133 0.49 1.018
0.131 0.493 1.015
0.129 0.496 1.012
0.125 0.491 1.007
0.123 0.494 1.004
0.12 0.496 1.001
0.118 0.499 0.998
0.115 0.5 0.994
0.113 0.503 0.991
0.11 0.504 0.988
0.107 0.497 0.983
0.104 0.499 0.979
0.102 0.502 0.976
0.099 0.504 0.973
0.096 0.502 0.969
0.094 0.502 0.966
0.091 0.499 0.962
0.088 0.503 0.958
0.086 0.506 0.955
0.083 0.505 0.952
0.08 0.503 0.948
0.077 0.502 0.944
0.075 0.508 0.941
0.073 0.511 0.938
0.07 0.51 0.934
0.067 0.507 0.93
0.064 0.509 0.927
0.062 0.506 0.923
0.059 0.504 0.919
0.056 0.506 0.916
0.054 0.504 0.912
0.051 0.504 0.909
0.048 0.505 0.905
0.046 0.502 0.902
0.043 0.512 0.898
0.04 0.514 0.895
0.04 -0.844 0.895
0.044 -0.85 0.901
0.048 -0.842 0.907
0.053 -0.829 0.913
0.057 -0.839 0.919
0.062 -0.841 0.925
0.066 -0.845 0.931
0.07 -0.844 0.937
0.075 -0.852 0.943
0.079 -0.849 0.949
0.084 -0.851 0.955
0.089 -0.856 0.961
0.093 -0.855 0.967
0.098 -0.859 0.974
0.102 -0.856 0.979
0.108 -0.869 0.987
0.113 -0.876 0.994
0.118 -0.878 1
0.124 -0.895 1.009
0.48 -4.41 1.487
0.505 -4.422 1.521
0.53 -4.436 1.555
0.555 -4.442 1.588
0.58 -4.455 1.622
0.606 -4.468 1.657
0.632 -4.477 1.692
0.657 -4.485 1.726
0.683 -4.493 1.761
0.711 -4.51 1.797
0.737 -4.518 1.833
0.765 -4.535 1.87
0.791 -4.543 1.906
0.819 -4.557 1.944
0.848 -4.574 1.982
0.875 -4.579 2.019
0.903 -4.591 2.057
0.931 -4.598 2.094
0.96 -4.611 2.133
0.991 -4.632 2.175
1.019 -4.636 2.213
1.049 -4.648 2.253
1.081 -4.668 2.296
1.111 -4.679 2.336
1.142 -4.689 2.377
1.174 -4.706 2.421
1.205 -4.716 2.463
1.238 -4.731 2.507
1.271 -4.747 2.551
1.305 -4.761 2.596
1.338 -4.775 2.641
1.372 -4.789 2.687
1.407 -4.803 2.733
1.441 -4.815 2.78
1.478 -4.835 2.83
1.513 -4.847 2.877
1.544 -4.842 2.918
2.16 -6.682 3.746
2.218 -6.725 3.825
2.271 -6.747 3.896
2.326 -6.772 3.97
2.378 -6.789 4.04
2.436 -6.819 4.118
2.494 -6.844 4.195
2.548 -6.859 4.268
2.609 -6.891 4.351
2.668 -6.915 4.43
2.729 -6.939 4.511
2.79 -6.963 4.593
2.743 -6.716 4.53
2.722 -6.54 4.502
2.739 -6.46 4.525
2.729 -6.318 4.511
2.737 -6.221 4.522
2.726 -6.084 4.508
2.736 -5.997 4.521
2.724 -5.864 4.506
2.734 -5.779 4.518
2.725 -5.657 4.506
2.735 -5.579 4.521
2.726 -5.461 4.507
2.738 -5.388 4.523
2.728 -5.274 4.51
2.739 -5.204 4.526
2.724 -5.085 4.506
2.738 -5.022 4.524
2.726 -4.912 4.507
2.738 -4.85 4.524
2.266 -3.932 3.89
2.236 -3.811 3.848
2.229 -3.734 3.84
2.275 -3.746 3.901
2.193 -3.547 3.791
2.212 -3.515 3.816
2.322 -3.63 3.964
2.346 -3.604 3.997
2.268 -3.423 3.892
2.246 -3.329 3.862
2.326 -3.39 3.97
2.343 -3.355 3.992
2.367 -3.331 4.025
2.573 -3.562 4.302
2.465 -3.351 4.157
2.758 -3.688 4.55
2.43 -3.186 4.109
2.464 -3.175 4.156
2.395 -3.029 4.062
2.401 -2.982 4.071
2.392 -2.918 4.059
2.403 -2.877 4.073
2.398 -2.819 4.066
2.409 -2.781 4.082
2.398 -2.716 4.066
2.406 -2.675 4.078
2.396 -2.614 4.064
2.41 -2.579 4.082
2.399 -2.519 4.068
2.408 -2.48 4.08
2.397 -2.421 4.066
2.407 -2.384 4.078
2.403 -2.333 4.074
2.411 -2.294 4.084
2.4 -2.238 4.069
2.411 -2.203 4.084
2.4 -2.148 4.07
2.412 -2.114 4.085
2.402 -2.061 4.073
2.413 -2.027 4.087
2.404 -1.975 4.074
2.413 -1.94 4.087
2.403 -1.89 4.074
2.413 -1.855 4.087
2.407 -1.808 4.079
2.412 -1.77 4.086
2.406 -1.724 4.077
2.414 -1.689 4.088
2.407 -1.644 4.079
2.412 -1.606 4.086
2.404 -1.561 4.075
2.407 -1.523 4.079
2.398 -1.478 4.067
2.411 -1.446 4.084
2.409 -1.406 4.082
2.413 -1.369 4.086
2.413 -1.331 4.087
2.42 -1.296 4.097
2.412 -1.254 4.086
2.424 -1.222 4.101
2.416 -1.18 4.091
2.422 -1.145 4.099
2.414 -1.104 4.089
2.426 -1.072 4.105
2.408 -1.026 4.08
2.422 -0.996 4.099
2.408 -0.953 4.08
2.414 -0.919 4.088
2.403 -0.878 4.074
2.41 -0.845 4.084
2.41 -0.808 4.082
2.417 -0.774 4.092
2.415 -0.738 4.089
2.421 -0.704 4.098
2.411 -0.665 4.084
2.419 -0.632 4.096
2.412 -0.594 4.086
2.421 -0.561 4.098
2.405 -0.522 4.077
2.42 -0.49 4.096
2.412 -0.453 4.086
2.42 -0.419 4.097
2.406 -0.382 4.077
2.419 -0.349 4.094
2.41 -0.313 4.083
2.416 -0.279 4.092
2.408 -0.243 4.08
2.414 -0.209 4.089
2.409 -0.173 4.081
2.415 -0.139 4.09
2.405 -0.104 4.076
2.416 -0.07 4.091
2.405 -0.035 4.076
1.663 -0 3.078
1.544 0.022 2.919
0 0 0
1.464 0.063 2.811
1.421 0.081 2.753
1.383 0.098 2.702
1.348 0.115 2.654
1.32 0.131 2.616
1.31 0.149 2.604
1.298 0.166 2.588
1.306 0.186 2.599
1.296 0.203 2.585
1.292 0.221 2.579
1.286 0.238 2.572
1.294 0.258 2.582
0 0 0
1.06 0.24 2.268
1.035 0.249 2.234
1.017 0.26 2.21
0.997 0.268 2.182
0.977 0.277 2.156
1.002 0.299 2.19
1.025 0.321 2.22
1.006 0.329 2.194
1.011 0.346 2.202
1 0.357 2.187
1.008 0.375 2.198
1.008 0.39 2.197
1 0.401 2.187
0.996 0.414 2.181
0.999 0.431 2.186
0.998 0.445 2.183
1 0.461 2.186
0.988 0.471 2.17
0.988 0.486 2.171
0.968 0.49 2.143
0.887 0.462 2.035
0.726 0.385 1.818
0.713 0.389 1.801
0.706 0.396 1.792
0.69 0.397 1.77
0.693 0.409 1.774
0.694 0.421 1.775
0.698 0.434 1.78
0.696 0.445 1.778
0.681 0.445 1.757
0.524 0.345 1.547
0.519 0.349 1.54
0.521 0.359 1.542
0.533 0.377 1.559
0.544 0.394 1.573
0.536 0.397 1.563
0.528 0.399 1.552
0.525 0.406 1.548
0.514 0.405 1.533
0.506 0.407 1.522
0.499 0.409 1.512
0.486 0.406 1.495
0.481 0.41 1.488
0.473 0.411 1.478
0.465 0.412 1.468
0.459 0.414 1.459
0.452 0.416 1.45
0.447 0.418 1.443
0.439 0.419 1.433
0.433 0.42 1.424
0.424 0.418 1.412
0.417 0.418 1.402
0.414 0.423 1.399
0.409 0.425 1.392
0.402 0.426 1.383
0.395 0.425 1.373
0.389 0.425 1.365
0.384 0.427 1.358
0.378 0.428 1.351
0.375 0.432 1.347
0.369 0.432 1.338
0.367 0.436 1.335
0.361 0.435 1.327
0.359 0.441 1.325
0.352 0.44 1.316
0.345 0.438 1.306
0.344 0.443 1.304
0.337 0.441 1.295
0.335 0.446 1.293
0.329 0.444 1.284
0.326 0.447 1.28
0.32 0.446 1.272
0.318 0.451 1.27
0.313 0.45 1.263
0.31 0.454 1.259
0.304 0.451 1.251
0.302 0.455 1.247
0.295 0.451 1.239
0.294 0.456 1.237
0.288 0.454 1.229
0.285 0.457 1.225
0.283 0.461 1.223
0.277 0.457 1.214
0.274 0.46 1.21
0.269 0.457 1.203
0.267 0.461 1.2
0.261 0.459 1.193
0.258 0.46 1.189
0.257 0.466 1.187
0.251 0.461 1.179
0.248 0.464 1.176
0.246 0.467 1.172
0.243 0.468 1.168
0.237 0.465 1.161
0.238 0.474 1.162
0.232 0.469 1.154
0.229 0.472 1.15
0.225 0.469 1.144
0.222 0.47 1.14
0.219 0.472 1.137
0.217 0.476 1.134
0.215 0.479 1.131
0.209 0.473 1.123
0.207 0.476 1.12
0.204 0.478 1.117
0.202 0.481 1.114
0.197 0.477 1.107
0.194 0.477 1.103
0.192 0.481 1.1
0.19 0.483 1.097
0.185 0.478 1.09
0.183 0.481 1.087
0.18 0.483 1.084
0.178 0.485 1.081
0.175 0.488 1.078
0.17 0.48 1.071
0.168 0.483 1.068
0.165 0.485 1.064
0.163 0.486 1.061
0.16 0.486 1.057
0.157 0.489 1.054
0.155 0.489 1.05
0.15 0.483 1.044
0.149 0.492 1.043
0.145 0.486 1.037
0.142 0.486 1.033
0.139 0.486 1.029
0.137 0.488 1.026
0.135 0.49 1.023
0.132 0.49 1.019
0.129 0.492 1.016
0.127 0.494 1.013
0.124 0.491 1.008
0.122 0.495 1.005
0.119 0.495 1.002
0.117 0.499 0.999
0.113 0.493 0.994
0.112 0.504 0.992
0.109 0.504 0.988
0.105 0.495 0.983
0.103 0.499 0.98
0.101 0.503 0.977
0.098 0.503 0.974
0.095 0.502 0.97
0.092 0.501 0.966
0.09 0.5 0.962
0.087 0.504 0.959
0.085 0.506 0.956
0.082 0.504 0.952
0.079 0.503 0.948
0.077 0.51 0.945
0.074 0.502 0.941
0.072 0.509 0.938
0.069 0.511 0.935
0.066 0.507 0.931
0.064 0.509 0.927
0.061 0.505 0.923
0.058 0.503 0.92
0.055 0.504 0.916
0.053 0.514 0.913
0.05 0.505 0.909
0.048 0.513 0.906
0.045 0.512 0.902
0.042 0.519 0.899
0.04 0.513 0.895
0.039 -0.844 0.895
0.043 -0.85 0.901
0.048 -0.861 0.908
0.052 -0.844 0.913
0.056 -0.85 0.919
0.061 -0.837 0.925
0.065 -0.836 0.931
0.069 -0.834 0.937
0.074 -0.839 0.943
0.078 -0.849 0.949
0.083 -0.848 0.955
0.087 -0.851 0.962
0.092 -0.849 0.967
0.096 -0.851 0.974
0.102 -0.866 0.981
0.107 -0.877 0.989
0.112 -0.882 0.995
0.117 -0.879 1.001
0.125 -0.918 1.013
0.475 -4.41 1.491
0.499 -4.417 1.524
0.524 -4.428 1.558
0.549 -4.443 1.592
0.574 -4.455 1.627
0.599 -4.459 1.66
0.625 -4.477 1.696
0.651 -4.485 1.731
0.676 -4.493 1.766
0.702 -4.502 1.801
0.729 -4.517 1.838
0.757 -4.535 1.876
0.783 -4.542 1.912
0.811 -4.557 1.95
0.838 -4.565 1.986
0.866 -4.579 2.025
0.895 -4.593 2.064
0.921 -4.596 2.1
0.95 -4.611 2.14
0.98 -4.625 2.18
1.009 -4.637 2.22
1.038 -4.648 2.26
1.07 -4.668 2.304
1.1 -4.679 2.345
1.13 -4.688 2.385
1.161 -4.699 2.427
1.193 -4.715 2.471
1.223 -4.722 2.513
1.256 -4.739 2.558
1.289 -4.753 2.603
1.323 -4.768 2.649
1.358 -4.788 2.697
1.392 -4.802 2.743
1.426 -4.815 2.79
1.461 -4.827 2.837
1.496 -4.839 2.885
1.53 -4.849 2.932
2.137 -6.678 3.76
2.197 -6.727 3.842
2.247 -6.741 3.91
2.299 -6.762 3.982
2.354 -6.786 4.056
2.409 -6.811 4.132
2.465 -6.833 4.208
2.522 -6.857 4.286
2.582 -6.889 4.368
2.641 -6.912 4.448
2.703 -6.943 4.533
2.747 -6.925 4.594
2.683 -6.636 4.506
2.677 -6.497 4.498
2.688 -6.404 4.513
2.676 -6.257 4.496
2.687 -6.168 4.511
2.676 -6.033 4.497
2.687 -5.948 4.512
2.674 -5.811 4.493
2.687 -5.738 4.512
2.676 -5.611 4.496
2.691 -5.543 4.517
2.676 -5.414 4.496
2.689 -5.346 4.515
2.679 -5.232 4.5
2.691 -5.164 4.517
2.682 -5.057 4.505
2.693 -4.989 4.519
2.678 -4.874 4.499
2.689 -4.811 4.515
2.205 -3.864 3.854
2.261 -3.895 3.93
2.222 -3.76 3.877
2.254 -3.75 3.921
2.179 -3.559 3.818
2.193 -3.521 3.837
2.242 -3.539 3.904
2.346 -3.641 4.046
2.218 -3.38 3.871
2.231 -3.341 3.889
2.305 -3.393 3.99
2.317 -3.351 4.006
2.341 -3.327 4.038
2.429 -3.394 4.159
2.363 -3.243 4.069
2.392 -3.225 4.108
2.349 -3.11 4.05
2.356 -3.064 4.06
2.354 -3.007 4.057
2.361 -2.962 4.066
2.352 -2.897 4.055
2.366 -2.861 4.073
2.355 -2.796 4.058
2.364 -2.755 4.07
2.355 -2.694 4.058
2.369 -2.66 4.077
2.358 -2.598 4.062
2.367 -2.559 4.074
2.358 -2.5 4.062
2.37 -2.466 4.079
2.359 -2.406 4.063
2.368 -2.369 4.076
2.357 -2.311 4.061
2.369 -2.276 4.077
2.356 -2.218 4.059
2.365 -2.183 4.072
2.357 -2.131 4.061
2.368 -2.096 4.076
2.358 -2.044 4.063
2.369 -2.009 4.077
2.36 -1.958 4.064
2.37 -1.924 4.078
2.36 -1.874 4.065
2.369 -1.839 4.078
2.363 -1.793 4.069
2.368 -1.755 4.077
2.36 -1.708 4.064
2.369 -1.674 4.078
2.357 -1.625 4.06
2.367 -1.592 4.074
2.363 -1.55 4.069
2.367 -1.512 4.074
2.369 -1.474 4.077
2.377 -1.441 4.089
2.365 -1.394 4.072
2.376 -1.362 4.086
2.368 -1.319 4.076
2.38 -1.287 4.092
2.375 -1.246 4.085
2.377 -1.21 4.088
2.367 -1.167 4.075
2.375 -1.134 4.085
2.367 -1.093 4.074
2.373 -1.058 4.082
2.361 -1.017 4.067
2.37 -0.984 4.078
2.362 -0.944 4.068
2.373 -0.912 4.083
2.373 -0.876 4.082
2.373 -0.84 4.082
2.37 -0.803 4.078
2.379 -0.77 4.09
2.368 -0.731 4.076
2.377 -0.698 4.088
2.365 -0.659 4.071
2.379 -0.627 4.091
2.366 -0.589 4.074
2.38 -0.557 4.093
2.371 -0.52 4.08
2.376 -0.486 4.087
2.367 -0.449 4.075
2.38 -0.417 4.093
2.366 -0.379 4.073
2.379 -0.347 4.091
2.364 -0.31 4.071
2.376 -0.277 4.087
2.367 -0.241 4.074
2.373 -0.207 4.083
2.368 -0.172 4.076
2.375 -0.138 4.085
2.364 -0.103 4.071
2.368 -0.069 4.076
2.365 -0.034 4.072
1.754 -0 3.238
1.522 0.022 2.92
0 0 0
1.445 0.062 2.815
1.409 0.081 2.766
1.367 0.098 2.709
1.334 0.115 2.664
1.317 0.132 2.641
1.303 0.15 2.621
1.289 0.166 2.602
1.278 0.184 2.588
1.256 0.198 2.558
1.265 0.218 2.57
1.253 0.234 2.553
1.264 0.255 2.568
1.199 0.259 2.48
1.055 0.242 2.282
1.032 0.251 2.252
1.005 0.259 2.215
0.991 0.27 2.196
0.975 0.279 2.173
0.983 0.296 2.185
0.987 0.312 2.19
0.989 0.327 2.193
0.99 0.342 2.194
0.979 0.353 2.179
0.988 0.371 2.192
0.982 0.383 2.183
0.999 0.405 2.207
0.986 0.414 2.188
0.987 0.43 2.191
0.973 0.438 2.17
0.989 0.461 2.193
0.983 0.473 2.185
0.962 0.478 2.156
0.948 0.485 2.137
0.835 0.438 1.983
0.721 0.386 1.827
0.708 0.39 1.809
0.697 0.394 1.794
0.688 0.4 1.782
0.688 0.411 1.782
0.691 0.424 1.786
0.701 0.441 1.799
0.695 0.449 1.792
0.705 0.467 1.805
0.546 0.364 1.588
0.512 0.348 1.541
0.51 0.355 1.539
0.514 0.367 1.544
0.542 0.397 1.583
0.536 0.401 1.574
0.527 0.403 1.563
0.515 0.402 1.545
0.513 0.409 1.542
0.501 0.407 1.527
0.494 0.409 1.517
0.481 0.406 1.499
0.475 0.409 1.491
0.468 0.411 1.481
0.462 0.413 1.473
0.454 0.414 1.463
0.444 0.412 1.448
0.437 0.413 1.44
0.43 0.414 1.43
0.429 0.42 1.428
0.419 0.418 1.414
0.416 0.422 1.41
0.41 0.424 1.402
0.404 0.425 1.394
0.399 0.426 1.386
0.391 0.424 1.376
0.385 0.426 1.368
0.381 0.429 1.363
0.379 0.433 1.359
0.372 0.433 1.351
0.365 0.432 1.341
0.358 0.43 1.332
0.357 0.435 1.329
0.351 0.435 1.321
0.348 0.439 1.318
0.342 0.438 1.31
0.34 0.443 1.307
0.338 0.448 1.304
0.328 0.44 1.29
0.326 0.445 1.287
0.322 0.447 1.283
0.317 0.446 1.275
0.315 0.451 1.272
0.309 0.449 1.264
0.307 0.453 1.261
0.301 0.451 1.253
0.298 0.455 1.25
0.296 0.458 1.246
0.29 0.456 1.238
0.284 0.453 1.23
0.282 0.457 1.227
0.276 0.454 1.219
0.274 0.457 1.216
0.271 0.461 1.213
0.269 0.465 1.21
0.263 0.461 1.202
0.258 0.459 1.195
0.256 0.462 1.192
0.251 0.459 1.185
0.248 0.461 1.181
0.245 0.462 1.177
0.242 0.465 1.173
0.24 0.468 1.17
0.238 0.472 1.167
0.232 0.467 1.159
0.229 0.469 1.155
0.227 0.473 1.153
0.222 0.467 1.145
0.219 0.47 1.142
0.218 0.475 1.14
0.215 0.476 1.135
0.211 0.477 1.131
0.209 0.48 1.128
0.204 0.476 1.121
0.203 0.48 1.119
0.2 0.482 1.116
0.197 0.484 1.112
0.192 0.478 1.105
0.19 0.479 1.101
0.187 0.483 1.098
0.182 0.477 1.091
0.18 0.479 1.088
0.178 0.483 1.085
0.176 0.485 1.082
0.171 0.479 1.076
0.169 0.481 1.072
0.166 0.483 1.069
0.163 0.484 1.065
0.159 0.478 1.059
0.158 0.486 1.058
0.156 0.489 1.055
0.153 0.488 1.051
0.148 0.483 1.045
0.146 0.483 1.041
0.143 0.485 1.038
0.141 0.486 1.034
0.138 0.486 1.03
0.135 0.488 1.027
0.133 0.491 1.024
0.13 0.49 1.02
0.128 0.492 1.017
0.126 0.496 1.014
0.122 0.491 1.009
0.12 0.494 1.006
0.117 0.496 1.003
0.116 0.502 1
0.113 0.501 0.996
0.109 0.491 0.991
0.107 0.496 0.988
0.105 0.503 0.985
0.102 0.499 0.981
0.099 0.502 0.978
0.096 0.501 0.974
0.094 0.5 0.97
0.091 0.501 0.967
0.088 0.501 0.963
0.086 0.503 0.96
0.083 0.504 0.956
0.081 0.504 0.953
0.079 0.51 0.95
0.076 0.51 0.946
0.073 0.51 0.942
0.07 0.508 0.939
0.068 0.51 0.935
0.065 0.507 0.931
0.063 0.508 0.928
0.06 0.506 0.924
0.057 0.514 0.921
0.055 0.514 0.917
0.052 0.514 0.914
0.05 0.515 0.91
0.047 0.514 0.906
0.044 0.513 0.903
0.042 0.513 0.899
0.039 0.513 0.895
0.039 -0.861 0.896
0.043 -0.837 0.902
0.047 -0.842 0.907
0.051 -0.839 0.913
0.056 -0.841 0.919
0.06 -0.826 0.925
0.064 -0.835 0.931
0.069 -0.852 0.938
0.074 -0.863 0.944
0.078 -0.852 0.95
0.083 -0.858 0.956
0.087 -0.851 0.962
0.091 -0.853 0.968
0.096 -0.854 0.974
0.101 -0.87 0.982
0.106 -0.869 0.988
0.112 -0.886 0.996
0.118 -0.9 1.004
0.123 -0.912 1.012
0.472 -4.408 1.492
0.497 -4.421 1.526
0.521 -4.43 1.56
0.546 -4.443 1.594
0.571 -4.455 1.629
0.596 -4.459 1.662
0.621 -4.469 1.697
0.647 -4.486 1.733
0.672 -4.492 1.768
0.7 -4.511 1.805
0.725 -4.518 1.841
0.751 -4.524 1.876
0.779 -4.541 1.914
0.807 -4.557 1.953
0.834 -4.567 1.99
0.861 -4.577 2.028
0.89 -4.592 2.067
0.917 -4.598 2.104
0.945 -4.61 2.143
0.976 -4.632 2.186
1.003 -4.635 2.223
1.033 -4.648 2.264
1.063 -4.66 2.305
1.092 -4.671 2.346
1.125 -4.69 2.39
1.155 -4.7 2.432
1.187 -4.715 2.476
1.217 -4.722 2.517
1.25 -4.74 2.563
1.283 -4.754 2.608
1.316 -4.768 2.654
1.351 -4.789 2.702
1.385 -4.802 2.749
1.419 -4.814 2.795
1.453 -4.826 2.842
1.488 -4.839 2.89
1.521 -4.846 2.936
2.126 -6.68 3.769
2.182 -6.716 3.846
2.233 -6.735 3.916
2.287 -6.762 3.991
2.341 -6.785 4.065
2.394 -6.803 4.138
2.45 -6.828 4.215
2.506 -6.849 4.291
2.566 -6.88 4.374
2.624 -6.905 4.454
2.684 -6.932 4.537
2.654 -6.722 4.495
2.65 -6.587 4.49
2.641 -6.443 4.478
2.652 -6.349 4.492
2.645 -6.217 4.483
2.655 -6.127 4.497
2.643 -5.987 4.48
2.653 -5.903 4.494
2.643 -5.774 4.48
2.654 -5.695 4.495
2.645 -5.575 4.483
2.653 -5.493 4.494
2.643 -5.374 4.48
2.654 -5.303 4.495
2.647 -5.195 4.485
2.655 -5.12 4.496
2.648 -5.017 4.487
2.654 -4.942 4.495
2.645 -4.839 4.483
2.654 -4.772 4.496
2.126 -3.742 3.769
2.297 -3.979 4.005
2.228 -3.791 3.909
2.282 -3.817 3.984
2.185 -3.589 3.851
2.188 -3.531 3.854
2.202 -3.493 3.873
2.254 -3.514 3.945
2.273 -3.483 3.971
2.229 -3.355 3.91
2.284 -3.379 3.986
2.309 -3.358 4.021
2.319 -3.314 4.035
2.352 -3.302 4.079
2.318 -3.197 4.033
2.325 -3.15 4.042
2.326 -3.096 4.044
2.335 -3.052 4.056
2.324 -2.984 4.042
2.331 -2.939 4.051
2.323 -2.876 4.04
2.333 -2.836 4.054
2.324 -2.773 4.041
2.333 -2.734 4.054
2.324 -2.672 4.041
2.333 -2.633 4.054
2.328 -2.578 4.047
2.337 -2.539 4.059
2.322 -2.475 4.039
2.335 -2.441 4.056
2.329 -2.388 4.049
2.335 -2.348 4.056
2.33 -2.296 4.049
2.337 -2.257 4.059
2.327 -2.203 4.045
2.339 -2.169 4.061
2.331 -2.118 4.051
2.336 -2.078 4.058
2.327 -2.027 4.046
2.338 -1.993 4.061
2.328 -1.942 4.047
2.338 -1.908 4.06
2.334 -1.862 4.054
2.338 -1.824 4.06
2.333 -1.779 4.053
2.334 -1.739 4.055
2.328 -1.694 4.047
2.332 -1.656 4.052
2.335 -1.618 4.056
2.345 -1.586 4.071
2.332 -1.537 4.053
2.343 -1.505 4.068
2.337 -1.462 4.059
2.345 -1.428 4.07
2.339 -1.386 4.062
2.346 -1.351 4.071
2.338 -1.309 4.06
2.346 -1.275 4.071
2.33 -1.229 4.049
2.347 -1.2 4.072
2.328 -1.154 4.047
2.335 -1.12 4.056
2.336 -1.084 4.058
2.342 -1.05 4.066
2.338 -1.012 4.06
2.346 -0.979 4.072
2.338 -0.939 4.061
2.349 -0.907 4.076
2.333 -0.865 4.053
2.348 -0.835 4.074
2.337 -0.796 4.06
2.346 -0.763 4.071
