# .PCD v0.7 - Point Cloud Data file format
VERSION 0.7
FIELDS x y z
SIZE 4 4 4
TYPE F F F
COUNT 1 1 1
WIDTH 2500
HEIGHT 1
VIEWPOINT 0 0 0 1 0 0 0
POINTS 2500
DATA ascii
0.156 -0.585 0.61
0.16 -0.579 0.609
0.167 -0.583 0.609
0.173 -0.587 0.609
0.179 -0.589 0.608
0.186 -0.594 0.608
0.192 -0.597 0.607
0.198 -0.598 0.607
0.206 -0.606 0.606
0.211 -0.605 0.606
0.216 -0.602 0.605
0.221 -0.601 0.605
0.232 -0.615 0.604
0.238 -0.615 0.604
0.243 -0.612 0.604
0.252 -0.62 0.603
0.257 -0.619 0.603
0.264 -0.62 0.602
0.27 -0.621 0.602
0.276 -0.62 0.601
0.285 -0.626 0.601
0.292 -0.627 0.6
0.302 -0.636 0.599
0.308 -0.636 0.599
0.318 -0.643 0.598
0.322 -0.638 0.598
0.332 -0.643 0.597
0.337 -0.64 0.597
0.345 -0.643 0.596
0.356 -0.65 0.595
0.363 -0.65 0.595
0.375 -0.66 0.594
0.385 -0.666 0.593
0.389 -0.659 0.593
0.402 -0.668 0.592
0.415 -0.677 0.591
0.417 -0.669 0.591
0.43 -0.676 0.59
0.467 -0.725 0.587
0.593 -0.917 0.578
0.612 -0.93 0.577
0.628 -0.938 0.576
0.633 -0.927 0.575
0.608 -0.871 0.577
0.595 -0.836 0.578
0.599 -0.827 0.578
0.6 -0.813 0.578
0.609 -0.81 0.577
0.609 -0.796 0.577
0.615 -0.789 0.577
0.62 -0.782 0.576
0.617 -0.764 0.577
0.624 -0.76 0.576
0.63 -0.753 0.576
0.63 -0.74 0.576
0.633 -0.731 0.575
0.638 -0.723 0.575
0.64 -0.713 0.575
0.644 -0.706 0.575
0.648 -0.698 0.574
0.651 -0.689 0.574
0.652 -0.678 0.574
0.654 -0.668 0.574
0.661 -0.664 0.573
0.659 -0.651 0.573
0.67 -0.65 0.573
0.668 -0.637 0.573
0.67 -0.628 0.573
0.675 -0.622 0.572
0.675 -0.611 0.572
0.679 -0.604 0.572
0.679 -0.594 0.572
0.675 -0.58 0.572
0.681 -0.575 0.572
0.684 -0.568 0.572
0.685 -0.559 0.572
0.693 -0.555 0.571
0.694 -0.547 0.571
0.694 -0.537 0.571
0.702 -0.534 0.57
0.697 -0.52 0.571
0.708 -0.52 0.57
0.712 -0.513 0.57
0.71 -0.503 0.57
0.718 -0.499 0.569
0.726 -0.496 0.569
0.724 -0.485 0.569
0.731 -0.481 0.568
0.725 -0.468 0.569
0.729 -0.463 0.568
0.692 -0.429 0.571
0.772 -0.472 0.565
0.798 -0.48 0.564
0.827 -0.488 0.561
0.874 -0.507 0.558
0.91 -0.518 0.555
0.953 -0.533 0.552
1.232 -0.681 0.532
1.499 -0.815 0.513
1.526 -0.813 0.511
1.526 -0.796 0.511
1.531 -0.782 0.511
1.536 -0.768 0.51
1.547 -0.757 0.509
1.64 -0.786 0.503
1.81 -0.85 0.49
1.939 -0.891 0.481
3.607 -1.633 0.361
3.941 -1.745 0.337
3.905 -1.688 0.339
3.85 -1.625 0.343
3.896 -1.605 0.34
3.859 -1.55 0.343
3.713 -1.454 0.353
3.722 -1.42 0.353
3.797 -1.411 0.347
3.87 -1.4 0.342
3.903 -1.374 0.34
3.874 -1.326 0.342
3.96 -1.317 0.335
4.012 -1.296 0.332
4.01 -1.257 0.332
3.943 -1.199 0.337
4.02 -1.184 0.331
4.037 -1.151 0.33
4.045 -1.116 0.329
4.024 -1.072 0.331
3.977 -1.023 0.334
3.985 -0.988 0.334
3.225 -0.769 0.388
3.198 -0.733 0.39
3.205 -0.705 0.39
3.222 -0.68 0.389
3.228 -0.652 0.388
3.233 -0.624 0.388
3.239 -0.596 0.387
3.253 -0.569 0.386
3.282 -0.545 0.384
3.285 -0.517 0.384
3.301 -0.49 0.383
3.302 -0.461 0.383
3.318 -0.434 0.382
3.331 -0.406 0.381
3.335 -0.377 0.381
3.347 -0.349 0.38
3.351 -0.32 0.379
3.364 -0.292 0.378
3.378 -0.264 0.377
3.388 -0.235 0.377
3.39 -0.206 0.377
3.392 -0.177 0.376
3.416 -0.148 0.375
3.967 -0.138 0.335
4.103 -0.107 0.325
4.128 -0.072 0.323
4.027 -0.035 0.331
4 -0 0.333
4.04 0.035 0.33
3.999 0.069 0.333
3.3 0.086 0.383
3.199 0.111 0.39
3.171 0.137 0.392
3.112 0.162 0.397
3.036 0.184 0.402
2.985 0.207 0.406
2.934 0.229 0.409
2.859 0.248 0.415
2.743 0.262 0.423
2.683 0.279 0.428
2.651 0.299 0.43
2.586 0.314 0.435
2.528 0.329 0.439
2.469 0.343 0.443
2.383 0.352 0.449
2.329 0.365 0.453
2.326 0.385 0.453
2.295 0.4 0.456
2.215 0.406 0.461
2.19 0.421 0.463
2.163 0.435 0.465
2.129 0.447 0.468
2.1 0.46 0.47
2.066 0.471 0.472
1.996 0.473 0.477
1.955 0.481 0.48
1.952 0.498 0.48
1.941 0.513 0.481
1.882 0.514 0.485
1.858 0.525 0.487
1.851 0.54 0.488
1.825 0.549 0.489
1.794 0.557 0.492
1.768 0.566 0.494
1.746 0.575 0.495
1.72 0.582 0.497
1.687 0.588 0.499
1.673 0.599 0.5
1.65 0.606 0.502
1.626 0.613 0.504
1.604 0.62 0.505
1.58 0.627 0.507
1.57 0.639 0.508
1.562 0.651 0.508
1.549 0.661 0.509
1.533 0.67 0.51
1.518 0.679 0.512
1.51 0.691 0.512
1.512 0.707 0.512
1.522 0.729 0.511
1.524 0.746 0.511
1.534 0.767 0.51
1.539 0.786 0.51
1.546 0.807 0.51
1.55 0.826 0.509
1.552 0.845 0.509
1.559 0.866 0.509
1.568 0.889 0.508
1.572 0.909 0.508
1.572 0.928 0.508
1.583 0.953 0.507
1.583 0.971 0.507
1.594 0.997 0.506
1.591 1.015 0.506
1.609 1.046 0.505
1.608 1.065 0.505
1.617 1.092 0.504
1.625 1.118 0.504
1.623 1.138 0.504
1.63 1.164 0.503
1.637 1.19 0.503
1.638 1.213 0.503
1.654 1.247 0.502
1.689 1.298 0.499
1.759 1.377 0.494
1.835 1.463 0.489
1.532 1.24 0.511
1.439 1.183 0.517
1.422 1.19 0.519
1.402 1.194 0.52
1.386 1.201 0.521
1.367 1.204 0.522
1.35 1.211 0.524
1.331 1.214 0.525
1.279 1.186 0.529
1.03 0.966 0.547
0.986 0.939 0.55
0.969 0.939 0.551
0.959 0.946 0.552
0.95 0.952 0.553
0.94 0.959 0.553
0.924 0.958 0.554
0.91 0.961 0.555
0.897 0.962 0.556
0.894 0.976 0.557
0.882 0.98 0.557
0.893 1.01 0.557
0.884 1.018 0.557
0.894 1.048 0.557
0.893 1.065 0.557
0.913 1.11 0.555
0.915 1.133 0.555
0.92 1.159 0.555
0.916 1.176 0.555
0.908 1.186 0.556
0.897 1.193 0.556
0.904 1.225 0.556
0.893 1.233 0.557
0.892 1.254 0.557
0.881 1.261 0.558
0.884 1.289 0.557
0.876 1.302 0.558
0.878 1.331 0.558
0.866 1.338 0.559
0.857 1.35 0.559
0.85 1.365 0.56
0.84 1.374 0.56
0.822 1.372 0.562
0.815 1.387 0.562
0.799 1.386 0.563
0.787 1.393 0.564
0.673 1.208 0.573
0.604 1.101 0.577
0.587 1.091 0.579
0.608 1.157 0.577
0.619 1.206 0.576
0.673 1.346 0.573
0.6 1.22 0.578
0.513 1.056 0.584
0.464 0.972 0.588
0.448 0.957 0.589
0.452 0.991 0.588
0.441 0.989 0.589
0.425 0.974 0.59
0.422 0.992 0.591
0.421 1.016 0.591
0.41 1.013 0.591
0.399 1.009 0.592
0.39 1.011 0.593
0.38 1.011 0.594
0.368 1.006 0.594
0.359 1.008 0.595
0.353 1.02 0.596
0.342 1.016 0.596
0.33 1.009 0.597
0.316 0.993 0.598
0.312 1.012 0.599
0.308 1.03 0.599
0.305 1.057 0.599
0.295 1.055 0.6
0.287 1.062 0.6
0.278 1.067 0.601
0.27 1.075 0.602
0.259 1.069 0.602
0.251 1.077 0.603
0.24 1.073 0.604
0.233 1.084 0.604
0.223 1.083 0.605
0.214 1.085 0.606
0.204 1.085 0.606
0.196 1.097 0.607
0.186 1.097 0.608
0.177 1.1 0.608
0.167 1.1 0.609
0.157 1.1 0.61
0.149 1.11 0.61
0.139 1.115 0.611
0.13 1.113 0.612
0.121 1.125 0.612
0.111 1.123 0.613
0.102 1.148 0.614
0.093 1.157 0.614
0.082 1.145 0.615
0.071 1.107 0.616
0.06 1.074 0.617
0.05 1.026 0.617
0.041 0.992 0.618
0.032 0.204 0.619
0.032 -0.401 0.619
0.036 -0.463 0.619
0.041 -0.493 0.619
0.046 -0.523 0.618
0.051 -0.532 0.618
0.056 -0.541 0.618
0.061 -0.541 0.617
0.065 -0.543 0.617
0.07 -0.544 0.617
0.076 -0.555 0.617
0.081 -0.555 0.616
0.086 -0.556 0.616
0.09 -0.549 0.616
0.096 -0.559 0.615
0.101 -0.558 0.615
0.107 -0.566 0.615
0.112 -0.565 0.614
0.116 -0.564 0.614
0.122 -0.571 0.614
0.127 -0.569 0.613
0.134 -0.576 0.613
0.14 -0.584 0.613
0.145 -0.582 0.612
0.152 -0.589 0.612
0.157 -0.588 0.612
0.162 -0.588 0.611
0.167 -0.584 0.611
0.172 -0.585 0.611
0.181 -0.598 0.61
0.187 -0.598 0.61
0.192 -0.597 0.61
0.198 -0.598 0.609
0.203 -0.596 0.609
0.211 -0.604 0.608
0.216 -0.602 0.608
0.227 -0.619 0.607
0.229 -0.606 0.607
0.237 -0.614 0.607
0.243 -0.614 0.606
0.248 -0.612 0.606
0.258 -0.62 0.606
0.264 -0.622 0.605
0.271 -0.624 0.605
0.277 -0.622 0.604
0.286 -0.63 0.604
0.291 -0.625 0.604
0.301 -0.634 0.603
0.308 -0.636 0.603
0.314 -0.635 0.602
0.327 -0.649 0.601
0.331 -0.643 0.601
0.339 -0.644 0.601
0.348 -0.648 0.6
0.356 -0.65 0.6
0.365 -0.654 0.599
0.377 -0.663 0.599
0.381 -0.658 0.598
0.393 -0.666 0.598
0.398 -0.66 0.597
0.413 -0.674 0.596
0.42 -0.672 0.596
0.434 -0.683 0.595
0.473 -0.735 0.593
0.607 -0.94 0.585
0.62 -0.942 0.584
0.634 -0.946 0.583
0.639 -0.937 0.583
0.611 -0.876 0.585
0.597 -0.838 0.585
0.599 -0.826 0.585
0.606 -0.821 0.585
0.608 -0.809 0.585
0.611 -0.798 0.584
0.614 -0.788 0.584
0.616 -0.775 0.584
0.623 -0.772 0.584
0.625 -0.76 0.584
0.624 -0.745 0.584
0.632 -0.742 0.583
0.633 -0.731 0.583
0.632 -0.716 0.583
0.64 -0.713 0.583
0.639 -0.699 0.583
0.648 -0.697 0.582
0.647 -0.684 0.582
0.659 -0.686 0.582
0.65 -0.663 0.582
0.655 -0.657 0.582
0.667 -0.658 0.581
0.663 -0.643 0.581
0.669 -0.638 0.581
0.669 -0.627 0.581
0.669 -0.616 0.581
0.674 -0.61 0.581
0.68 -0.605 0.58
0.678 -0.593 0.58
0.678 -0.583 0.58
0.683 -0.576 0.58
0.688 -0.571 0.58
0.684 -0.558 0.58
0.689 -0.552 0.58
0.695 -0.547 0.579
0.697 -0.539 0.579
0.702 -0.534 0.579
0.707 -0.528 0.579
0.709 -0.52 0.579
0.714 -0.515 0.578
0.71 -0.503 0.579
0.717 -0.498 0.578
0.721 -0.492 0.578
0.726 -0.486 0.578
0.722 -0.475 0.578
0.726 -0.469 0.578
0.729 -0.462 0.577
0.699 -0.434 0.579
0.764 -0.467 0.575
0.805 -0.484 0.573
0.847 -0.5 0.57
0.869 -0.504 0.569
0.916 -0.522 0.566
0.944 -0.527 0.565
1.285 -0.71 0.544
1.504 -0.817 0.531
1.518 -0.808 0.53
1.521 -0.793 0.53
1.534 -0.783 0.529
1.54 -0.77 0.529
1.557 -0.762 0.528
1.653 -0.792 0.522
1.812 -0.85 0.513
1.955 -0.898 0.504
3.62 -1.638 0.405
4.124 -1.825 0.374
4.131 -1.785 0.374
4.147 -1.75 0.373
4.144 -1.706 0.373
4.068 -1.633 0.378
3.722 -1.456 0.398
3.743 -1.427 0.397
4.244 -1.578 0.367
4.229 -1.53 0.368
4.268 -1.503 0.366
4.247 -1.454 0.367
4.257 -1.416 0.366
4.132 -1.334 0.374
4.082 -1.279 0.377
3.973 -1.207 0.383
4.022 -1.184 0.38
4.231 -1.206 0.368
4.276 -1.179 0.365
4.225 -1.125 0.368
4.19 -1.077 0.37
4.18 -1.036 0.371
3.226 -0.768 0.428
3.202 -0.733 0.43
3.208 -0.705 0.429
3.214 -0.678 0.429
3.221 -0.65 0.428
3.236 -0.624 0.427
3.242 -0.596 0.427
3.258 -0.57 0.426
3.273 -0.543 0.425
3.289 -0.517 0.424
3.293 -0.488 0.424
3.306 -0.461 0.423
3.311 -0.432 0.423
3.325 -0.405 0.422
3.338 -0.377 0.421
3.35 -0.349 0.421
3.354 -0.32 0.42
3.358 -0.291 0.42
3.371 -0.263 0.419
3.382 -0.235 0.419
3.394 -0.206 0.418
3.396 -0.177 0.418
3.414 -0.148 0.417
4.187 -0.145 0.371
4.338 -0.113 0.362
4.424 -0.077 0.356
4.251 -0.037 0.367
4.217 -0 0.369
4.25 0.037 0.367
4.218 0.073 0.369
3.37 0.088 0.419
3.22 0.112 0.428
3.173 0.137 0.431
3.105 0.161 0.435
3.019 0.183 0.44
2.98 0.206 0.443
2.927 0.228 0.446
2.855 0.247 0.45
2.744 0.262 0.457
2.687 0.28 0.46
2.644 0.298 0.463
2.582 0.314 0.467
2.525 0.329 0.47
2.48 0.345 0.473
2.403 0.355 0.477
2.33 0.365 0.482
2.329 0.385 0.482
2.298 0.4 0.484
2.227 0.407 0.488
2.204 0.423 0.489
2.174 0.437 0.491
2.13 0.447 0.494
2.09 0.457 0.496
2.068 0.471 0.497
2.015 0.477 0.501
1.957 0.481 0.504
1.934 0.493 0.505
1.935 0.511 0.505
1.874 0.512 0.509
1.86 0.525 0.51
1.853 0.54 0.51
1.817 0.547 0.512
1.794 0.557 0.514
1.77 0.566 0.515
1.747 0.575 0.517
1.723 0.583 0.518
1.699 0.591 0.519
1.675 0.599 0.521
1.66 0.61 0.522
1.637 0.617 0.523
1.624 0.628 0.524
1.59 0.63 0.526
1.575 0.64 0.527
1.566 0.652 0.527
1.553 0.662 0.528
1.536 0.671 0.529
1.529 0.683 0.53
1.53 0.7 0.53
1.523 0.712 0.53
1.526 0.73 0.53
1.529 0.747 0.53
1.532 0.765 0.529
1.542 0.787 0.529
1.553 0.81 0.528
1.555 0.828 0.528
1.564 0.85 0.528
1.564 0.868 0.527
1.574 0.892 0.527
1.574 0.91 0.527
1.585 0.935 0.526
1.585 0.954 0.526
1.595 0.978 0.526
1.596 0.998 0.526
1.602 1.021 0.525
1.611 1.047 0.525
1.61 1.066 0.525
1.62 1.093 0.524
1.626 1.118 0.524
1.628 1.141 0.524
1.632 1.164 0.523
1.639 1.191 0.523
1.642 1.215 0.523
1.646 1.241 0.523
1.66 1.274 0.522
1.739 1.36 0.517
1.837 1.464 0.511
1.536 1.242 0.529
1.433 1.178 0.535
1.423 1.19 0.536
1.405 1.195 0.537
1.387 1.201 0.538
1.369 1.206 0.539
1.351 1.211 0.54
1.333 1.215 0.541
1.307 1.212 0.543
1.033 0.968 0.559
0.991 0.944 0.562
0.977 0.947 0.563
0.959 0.945 0.564
0.95 0.952 0.564
0.947 0.966 0.564
0.938 0.973 0.565
0.946 0.999 0.564
0.937 1.006 0.565
0.937 1.025 0.565
0.937 1.043 0.565
0.968 1.097 0.563
0.967 1.116 0.563
0.973 1.144 0.563
0.963 1.152 0.563
0.966 1.176 0.563
0.956 1.184 0.564
0.944 1.191 0.565
0.936 1.201 0.565
0.939 1.228 0.565
0.928 1.235 0.566
0.932 1.264 0.565
0.923 1.275 0.566
0.928 1.305 0.566
0.917 1.315 0.566
0.914 1.335 0.566
0.902 1.342 0.567
0.888 1.345 0.568
0.881 1.361 0.568
0.864 1.36 0.569
0.852 1.367 0.57
0.841 1.375 0.571
0.824 1.374 0.572
0.778 1.32 0.575
0.8 1.387 0.573
0.788 1.395 0.574
0.758 1.367 0.576
0.613 1.119 0.584
0.586 1.088 0.586
0.594 1.129 0.586
0.601 1.168 0.585
0.642 1.282 0.583
0.586 1.189 0.586
0.527 1.088 0.589
0.472 0.988 0.593
0.456 0.976 0.594
0.448 0.982 0.594
0.435 0.975 0.595
0.42 0.961 0.596
0.421 0.989 0.596
0.417 1.005 0.596
0.411 1.015 0.596
0.401 1.015 0.597
0.39 1.011 0.598
0.377 1.002 0.599
0.369 1.007 0.599
0.359 1.009 0.6
0.353 1.02 0.6
0.342 1.017 0.601
0.331 1.011 0.601
0.319 1.003 0.602
0.312 1.012 0.602
0.308 1.03 0.603
0.306 1.06 0.603
0.295 1.056 0.603
0.287 1.062 0.604
0.278 1.066 0.604
0.27 1.073 0.605
0.261 1.077 0.605
0.251 1.078 0.606
0.241 1.077 0.607
0.232 1.078 0.607
0.223 1.086 0.608
0.214 1.088 0.608
0.204 1.089 0.609
0.196 1.1 0.609
0.187 1.1 0.61
0.177 1.101 0.61
0.167 1.103 0.611
0.159 1.115 0.612
0.149 1.114 0.612
0.139 1.115 0.613
0.13 1.117 0.613
0.121 1.128 0.614
0.111 1.125 0.614
0.102 1.151 0.615
0.093 1.162 0.615
0.082 1.144 0.616
0.071 1.12 0.617
0.06 1.071 0.617
0.05 1.039 0.618
0.041 0.986 0.619
0.032 0.181 0.619
0.032 -0.402 0.619
0.036 -0.463 0.619
0.041 -0.494 0.619
0.045 -0.514 0.619
0.051 -0.531 0.618
0.056 -0.541 0.618
0.06 -0.541 0.618
0.066 -0.553 0.618
0.07 -0.545 0.617
0.075 -0.545 0.617
0.081 -0.556 0.617
0.085 -0.546 0.617
0.091 -0.558 0.616
0.094 -0.548 0.616
0.1 -0.558 0.616
0.105 -0.557 0.616
0.111 -0.565 0.615
0.118 -0.574 0.615
0.122 -0.571 0.615
0.129 -0.578 0.614
0.134 -0.576 0.614
0.138 -0.573 0.614
0.145 -0.581 0.613
0.15 -0.578 0.613
0.156 -0.584 0.613
0.162 -0.587 0.613
0.167 -0.586 0.612
0.175 -0.597 0.612
0.181 -0.6 0.612
0.186 -0.596 0.611
0.193 -0.6 0.611
0.198 -0.597 0.611
0.206 -0.607 0.61
0.211 -0.605 0.61
0.216 -0.602 0.61
0.224 -0.609 0.609
0.232 -0.617 0.609
0.238 -0.615 0.609
0.242 -0.612 0.608
0.252 -0.621 0.608
0.257 -0.62 0.608
0.264 -0.622 0.607
0.27 -0.622 0.607
0.276 -0.621 0.607
0.285 -0.628 0.606
0.295 -0.636 0.606
0.302 -0.636 0.605
0.307 -0.634 0.605
0.317 -0.64 0.604
0.325 -0.643 0.604
0.334 -0.648 0.604
0.339 -0.645 0.603
0.347 -0.646 0.603
0.356 -0.65 0.602
0.365 -0.655 0.602
0.375 -0.659 0.601
0.381 -0.658 0.601
0.392 -0.664 0.6
0.402 -0.668 0.6
0.412 -0.673 0.599
0.42 -0.672 0.599
0.433 -0.682 0.598
0.486 -0.756 0.596
0.619 -0.958 0.589
0.627 -0.953 0.588
0.642 -0.958 0.587
0.64 -0.937 0.588
0.601 -0.861 0.59
0.596 -0.837 0.59
0.599 -0.827 0.59
0.605 -0.819 0.589
0.608 -0.809 0.589
0.605 -0.79 0.589
0.615 -0.789 0.589
0.617 -0.777 0.589
0.617 -0.763 0.589
0.625 -0.76 0.588
0.631 -0.754 0.588
0.632 -0.742 0.588
0.633 -0.73 0.588
0.638 -0.723 0.588
0.639 -0.712 0.588
0.645 -0.706 0.587
0.648 -0.697 0.587
0.652 -0.69 0.587
0.653 -0.679 0.587
0.656 -0.67 0.587
0.661 -0.664 0.586
0.661 -0.652 0.586
0.67 -0.65 0.586
0.67 -0.639 0.586
0.67 -0.627 0.586
0.67 -0.617 0.586
0.675 -0.611 0.586
0.68 -0.605 0.585
0.679 -0.594 0.585
0.678 -0.582 0.586
0.675 -0.57 0.586
0.688 -0.571 0.585
0.684 -0.558 0.585
0.688 -0.552 0.585
0.696 -0.548 0.585
0.697 -0.539 0.584
0.703 -0.534 0.584
0.7 -0.523 0.584
0.709 -0.52 0.584
0.706 -0.509 0.584
0.71 -0.503 0.584
0.716 -0.498 0.583
0.718 -0.49 0.583
0.726 -0.486 0.583
0.73 -0.48 0.583
0.727 -0.469 0.583
0.727 -0.46 0.583
0.701 -0.435 0.584
0.767 -0.469 0.581
0.798 -0.48 0.579
0.836 -0.493 0.577
0.873 -0.506 0.575
0.917 -0.522 0.573
0.956 -0.534 0.571
1.291 -0.714 0.553
1.499 -0.814 0.542
1.52 -0.809 0.541
1.53 -0.798 0.541
1.526 -0.779 0.541
1.54 -0.77 0.54
1.552 -0.759 0.54
1.673 -0.801 0.533
1.819 -0.853 0.526
1.958 -0.899 0.518
3.62 -1.637 0.431
4.239 -1.875 0.399
4.258 -1.84 0.398
4.227 -1.783 0.4
4.175 -1.718 0.402
4.217 -1.693 0.4
3.906 -1.528 0.416
4.257 -1.624 0.398
4.338 -1.612 0.394
4.322 -1.563 0.395
4.361 -1.535 0.392
4.331 -1.482 0.394
4.321 -1.437 0.395
4.24 -1.369 0.399
4.22 -1.322 0.4
3.952 -1.2 0.414
4.085 -1.202 0.407
4.338 -1.237 0.394
4.385 -1.209 0.391
4.342 -1.156 0.393
4.315 -1.109 0.395
4.296 -1.065 0.396
3.235 -0.77 0.452
3.211 -0.735 0.453
3.217 -0.707 0.452
3.223 -0.679 0.452
3.23 -0.652 0.452
3.236 -0.624 0.451
3.251 -0.597 0.451
3.257 -0.569 0.45
3.283 -0.545 0.449
3.289 -0.517 0.449
3.302 -0.489 0.448
3.315 -0.462 0.447
3.32 -0.433 0.447
3.333 -0.406 0.446
3.346 -0.378 0.446
3.349 -0.349 0.446
3.354 -0.32 0.445
3.367 -0.292 0.445
3.379 -0.264 0.444
3.392 -0.235 0.443
3.402 -0.206 0.443
3.405 -0.177 0.443
3.415 -0.148 0.442
4.311 -0.15 0.395
4.425 -0.115 0.389
4.431 -0.077 0.389
4.355 -0.038 0.393
4.325 -0 0.394
4.484 0.039 0.386
4.488 0.078 0.386
3.404 0.088 0.443
3.226 0.112 0.452
3.174 0.137 0.455
3.107 0.161 0.458
3.025 0.183 0.462
2.987 0.207 0.464
2.928 0.228 0.468
2.856 0.247 0.471
2.745 0.262 0.477
2.685 0.279 0.48
2.649 0.299 0.482
2.584 0.314 0.486
2.53 0.329 0.488
2.485 0.345 0.491
2.413 0.356 0.495
2.349 0.367 0.498
2.338 0.386 0.499
2.305 0.401 0.5
2.243 0.41 0.503
2.211 0.424 0.505
2.176 0.437 0.507
2.142 0.449 0.509
2.097 0.458 0.511
2.082 0.474 0.512
2.036 0.482 0.514
1.975 0.485 0.518
1.955 0.498 0.519
1.932 0.51 0.52
1.891 0.516 0.522
1.869 0.528 0.523
1.859 0.542 0.524
1.822 0.548 0.526
1.801 0.558 0.527
1.776 0.567 0.528
1.755 0.577 0.529
1.73 0.585 0.53
1.706 0.594 0.532
1.681 0.601 0.533
1.665 0.611 0.534
1.642 0.619 0.535
1.626 0.629 0.536
1.605 0.636 0.537
1.589 0.646 0.538
1.569 0.653 0.539
1.561 0.666 0.539
1.547 0.676 0.54
1.54 0.688 0.54
1.533 0.701 0.541
1.533 0.717 0.541
1.527 0.73 0.541
1.54 0.753 0.54
1.54 0.77 0.54
1.553 0.793 0.54
1.553 0.81 0.54
1.556 0.829 0.539
1.557 0.846 0.539
1.565 0.869 0.539
1.575 0.892 0.538
1.577 0.912 0.538
1.587 0.935 0.538
1.589 0.956 0.538
1.597 0.979 0.537
1.606 1.004 0.537
1.605 1.023 0.537
1.613 1.048 0.536
1.62 1.073 0.536
1.62 1.093 0.536
1.63 1.121 0.536
1.637 1.146 0.535
1.635 1.166 0.535
1.639 1.191 0.535
1.649 1.22 0.535
1.642 1.237 0.535
1.659 1.273 0.534
1.73 1.353 0.53
1.829 1.458 0.525
1.536 1.242 0.541
1.446 1.188 0.545
1.429 1.194 0.546
1.411 1.2 0.547
1.392 1.205 0.548
1.374 1.21 0.549
1.356 1.215 0.55
1.338 1.219 0.551
1.319 1.223 0.552
1.059 0.993 0.566
1.014 0.967 0.568
0.976 0.945 0.57
0.981 0.967 0.57
0.97 0.973 0.57
0.974 0.994 0.57
0.956 0.992 0.571
0.975 1.031 0.57
0.976 1.049 0.57
0.996 1.09 0.569
0.993 1.107 0.569
1.003 1.138 0.568
0.988 1.141 0.569
0.993 1.167 0.569
0.982 1.175 0.57
0.977 1.19 0.57
0.962 1.191 0.571
0.965 1.217 0.57
0.953 1.224 0.571
0.954 1.248 0.571
0.948 1.262 0.571
0.949 1.288 0.571
0.946 1.307 0.571
0.938 1.319 0.572
0.932 1.336 0.572
0.924 1.349 0.573
0.912 1.357 0.573
0.897 1.36 0.574
0.885 1.367 0.575
0.873 1.374 0.575
0.856 1.373 0.576
0.844 1.38 0.577
0.827 1.38 0.578
0.749 1.269 0.582
0.802 1.392 0.579
0.791 1.399 0.58
0.768 1.386 0.581
0.617 1.125 0.589
0.572 1.06 0.591
0.604 1.149 0.589
0.588 1.141 0.59
0.627 1.248 0.588
0.577 1.171 0.591
0.518 1.067 0.594
0.476 0.999 0.596
0.462 0.99 0.597
0.448 0.981 0.598
0.438 0.981 0.598
0.417 0.955 0.599
0.42 0.986 0.599
0.415 1 0.599
0.407 1.004 0.6
0.401 1.015 0.6
0.391 1.015 0.601
0.38 1.013 0.601
0.372 1.018 0.602
0.363 1.02 0.602
0.356 1.029 0.602
0.344 1.022 0.603
0.331 1.011 0.604
0.319 1.004 0.604
0.312 1.011 0.605
0.307 1.028 0.605
0.306 1.06 0.605
0.297 1.065 0.605
0.287 1.062 0.606
0.278 1.065 0.606
0.269 1.072 0.607
0.259 1.071 0.607
0.251 1.077 0.608
0.241 1.078 0.608
0.233 1.086 0.609
0.224 1.087 0.609
0.214 1.087 0.61
0.206 1.097 0.61
0.196 1.1 0.611
0.187 1.101 0.611
0.177 1.102 0.612
0.168 1.113 0.612
0.159 1.114 0.613
0.149 1.115 0.613
0.139 1.116 0.614
0.13 1.116 0.614
0.121 1.126 0.615
0.111 1.126 0.615
0.102 1.15 0.616
0.093 1.162 0.616
0.082 1.146 0.617
0.071 1.11 0.617
0.06 1.069 0.618
0.05 1.034 0.618
0.041 0.982 0.619
0.032 0.203 0.619
0.032 -0.403 0.62
0.036 -0.462 0.619
0.041 -0.498 0.619
0.046 -0.521 0.619
0.05 -0.531 0.619
0.056 -0.541 0.618
0.06 -0.542 0.618
0.066 -0.553 0.618
0.071 -0.555 0.618
0.076 -0.554 0.617
0.08 -0.555 0.617
0.085 -0.556 0.617
0.091 -0.559 0.617
0.095 -0.557 0.616
0.1 -0.558 0.616
0.105 -0.557 0.616
0.111 -0.566 0.616
0.116 -0.564 0.616
0.122 -0.572 0.615
0.129 -0.578 0.615
0.133 -0.576 0.615
0.14 -0.583 0.614
0.145 -0.582 0.614
0.15 -0.579 0.614
0.156 -0.586 0.614
0.163 -0.59 0.613
0.167 -0.586 0.613
0.172 -0.585 0.613
0.179 -0.592 0.612
0.187 -0.598 0.612
0.192 -0.599 0.612
0.198 -0.598 0.612
0.203 -0.596 0.611
0.211 -0.605 0.611
0.216 -0.602 0.611
0.224 -0.61 0.61
0.232 -0.617 0.61
0.236 -0.612 0.61
0.243 -0.614 0.609
0.249 -0.613 0.609
0.257 -0.62 0.609
0.264 -0.622 0.608
0.271 -0.623 0.608
0.279 -0.629 0.608
0.286 -0.63 0.607
0.292 -0.627 0.607
0.302 -0.636 0.607
0.31 -0.639 0.606
0.318 -0.644 0.606
0.325 -0.643 0.606
0.334 -0.648 0.605
0.34 -0.647 0.605
0.349 -0.652 0.604
0.357 -0.652 0.604
0.365 -0.655 0.604
0.376 -0.661 0.603
0.382 -0.66 0.603
0.391 -0.662 0.602
0.402 -0.668 0.602
0.413 -0.675 0.601
0.421 -0.674 0.601
0.433 -0.682 0.6
0.485 -0.754 0.598
0.619 -0.959 0.592
0.636 -0.968 0.591
0.647 -0.967 0.59
0.647 -0.948 0.59
0.611 -0.876 0.592
0.597 -0.839 0.593
0.598 -0.824 0.593
0.606 -0.821 0.592
0.609 -0.81 0.592
0.611 -0.798 0.592
0.614 -0.788 0.592
0.617 -0.778 0.592
0.622 -0.77 0.591
0.625 -0.76 0.591
0.625 -0.747 0.591
0.632 -0.742 0.591
0.632 -0.729 0.591
0.638 -0.723 0.591
0.639 -0.711 0.591
0.645 -0.706 0.59
0.648 -0.697 0.59
0.651 -0.688 0.59
0.653 -0.678 0.59
0.65 -0.663 0.59
0.654 -0.656 0.59
0.661 -0.652 0.59
0.663 -0.643 0.59
0.67 -0.639 0.589
0.669 -0.627 0.589
0.671 -0.618 0.589
0.675 -0.611 0.589
0.679 -0.604 0.589
0.679 -0.593 0.589
0.679 -0.583 0.589
0.683 -0.576 0.589
0.68 -0.564 0.589
0.684 -0.558 0.588
0.689 -0.552 0.588
0.696 -0.548 0.588
0.697 -0.539 0.588
0.696 -0.529 0.588
0.701 -0.523 0.588
0.702 -0.514 0.588
0.714 -0.515 0.587
0.71 -0.503 0.587
0.724 -0.503 0.587
0.725 -0.495 0.587
0.726 -0.486 0.587
0.723 -0.475 0.587
0.728 -0.47 0.586
0.725 -0.459 0.587
0.699 -0.434 0.588
0.772 -0.472 0.584
0.808 -0.485 0.583
0.839 -0.495 0.581
0.871 -0.505 0.58
0.92 -0.524 0.577
0.954 -0.533 0.576
1.315 -0.727 0.559
1.499 -0.814 0.55
1.515 -0.806 0.549
1.523 -0.794 0.549
1.526 -0.779 0.549
1.533 -0.765 0.548
1.553 -0.759 0.547
1.683 -0.806 0.541
1.819 -0.853 0.535
1.96 -0.9 0.528
3.635 -1.644 0.448
4.343 -1.921 0.415
4.42 -1.91 0.411
4.299 -1.813 0.417
4.181 -1.721 0.422
4.314 -1.732 0.416
0 0 0
4.381 -1.671 0.413
4.463 -1.659 0.409
4.435 -1.604 0.41
4.504 -1.585 0.407
4.455 -1.525 0.409
4.358 -1.449 0.414
4.252 -1.373 0.419
4.331 -1.357 0.415
4.005 -1.216 0.431
4.311 -1.269 0.416
4.476 -1.276 0.408
4.478 -1.234 0.408
4.421 -1.177 0.411
4.41 -1.133 0.411
4.375 -1.084 0.413
3.248 -0.773 0.467
3.212 -0.735 0.468
3.218 -0.707 0.468
3.224 -0.679 0.468
3.231 -0.652 0.467
3.235 -0.623 0.467
3.243 -0.596 0.467
3.258 -0.569 0.466
3.285 -0.545 0.465
3.29 -0.517 0.465
3.302 -0.489 0.464
3.316 -0.462 0.463
3.321 -0.433 0.463
3.332 -0.406 0.463
3.337 -0.377 0.462
3.351 -0.349 0.462
3.354 -0.32 0.462
3.367 -0.292 0.461
3.38 -0.264 0.46
3.392 -0.235 0.46
3.403 -0.206 0.459
3.406 -0.177 0.459
3.409 -0.148 0.459
4.441 -0.154 0.41
4.651 -0.121 0.4
4.522 -0.078 0.406
4.488 -0.039 0.408
4.428 -0 0.411
4.628 0.04 0.401
4.63 0.08 0.401
3.516 0.091 0.454
3.229 0.112 0.468
3.173 0.137 0.47
3.106 0.161 0.473
3.026 0.183 0.477
2.987 0.207 0.479
2.928 0.228 0.482
2.849 0.247 0.486
2.754 0.262 0.49
2.686 0.279 0.493
2.647 0.298 0.495
2.585 0.314 0.498
2.532 0.329 0.501
2.485 0.345 0.503
2.426 0.358 0.506
2.348 0.367 0.509
2.337 0.386 0.51
2.305 0.401 0.511
2.252 0.412 0.514
2.212 0.424 0.516
2.189 0.439 0.517
2.141 0.449 0.519
2.107 0.461 0.521
2.073 0.472 0.523
2.039 0.482 0.524
1.975 0.485 0.527
1.956 0.498 0.528
1.935 0.51 0.529
1.9 0.519 0.531
1.869 0.527 0.532
1.86 0.542 0.533
1.833 0.551 0.534
1.801 0.558 0.535
1.777 0.568 0.537
1.755 0.577 0.538
1.731 0.586 0.539
1.706 0.594 0.54
1.69 0.604 0.541
1.675 0.615 0.541
1.651 0.622 0.543
1.636 0.633 0.543
1.612 0.639 0.544
1.598 0.649 0.545
1.58 0.658 0.546
1.564 0.667 0.547
1.554 0.678 0.547
1.541 0.688 0.548
1.534 0.701 0.548
1.535 0.718 0.548
1.538 0.736 0.548
1.54 0.753 0.548
1.549 0.774 0.547
1.552 0.792 0.547
1.555 0.811 0.547
1.568 0.835 0.546
1.566 0.851 0.547
1.576 0.875 0.546
1.578 0.894 0.546
1.586 0.917 0.546
1.589 0.937 0.545
1.597 0.96 0.545
1.599 0.98 0.545
1.606 1.004 0.545
1.605 1.023 0.545
1.616 1.05 0.544
1.622 1.074 0.544
1.631 1.101 0.543
1.631 1.121 0.544
1.639 1.147 0.543
1.637 1.167 0.543
1.645 1.195 0.543
1.653 1.223 0.542
1.648 1.241 0.543
1.66 1.273 0.542
1.715 1.34 0.54
1.817 1.447 0.535
1.533 1.238 0.548
1.446 1.188 0.552
1.429 1.194 0.553
1.411 1.2 0.554
1.393 1.205 0.555
1.374 1.21 0.556
1.357 1.215 0.557
1.338 1.219 0.557
1.319 1.223 0.558
1.078 1.011 0.57
1.044 0.996 0.571
1.002 0.972 0.573
1.006 0.992 0.573
0.987 0.991 0.574
1.003 1.024 0.573
0.99 1.028 0.574
1.02 1.079 0.573
1.016 1.095 0.573
1.03 1.129 0.572
1.016 1.134 0.573
1.015 1.152 0.573
1.005 1.161 0.573
0.998 1.173 0.574
0.987 1.181 0.574
0.99 1.205 0.574
0.982 1.217 0.574
0.981 1.238 0.574
0.967 1.243 0.575
0.974 1.275 0.575
0.969 1.291 0.575
0.97 1.317 0.575
0.955 1.32 0.576
0.947 1.333 0.576
0.936 1.342 0.577
0.926 1.353 0.577
0.914 1.36 0.578
0.897 1.359 0.578
0.885 1.367 0.579
0.868 1.366 0.58
0.856 1.372 0.58
0.844 1.38 0.581
0.822 1.369 0.582
0.776 1.316 0.584
0.782 1.355 0.584
0.788 1.394 0.584
0.77 1.39 0.584
0.614 1.119 0.592
0.567 1.051 0.594
0.614 1.169 0.592
0.577 1.118 0.594
0.608 1.209 0.592
0.575 1.166 0.594
0.518 1.067 0.596
0.478 1.004 0.598
0.463 0.991 0.599
0.449 0.983 0.6
0.438 0.981 0.6
0.417 0.955 0.601
0.405 0.948 0.602
0.416 1.001 0.601
0.409 1.009 0.602
0.401 1.015 0.602
0.388 1.008 0.603
0.38 1.013 0.603
0.372 1.018 0.603
0.363 1.02 0.604
0.356 1.03 0.604
0.344 1.021 0.605
0.33 1.007 0.605
0.319 1.002 0.606
0.312 1.01 0.606
0.307 1.028 0.606
0.306 1.06 0.606
0.295 1.057 0.607
0.287 1.062 0.607
0.278 1.066 0.608
0.269 1.071 0.608
0.259 1.07 0.609
0.252 1.081 0.609
0.241 1.078 0.61
0.233 1.086 0.61
0.224 1.088 0.61
0.214 1.089 0.611
0.206 1.098 0.611
0.196 1.1 0.612
0.186 1.1 0.612
0.177 1.102 0.613
0.167 1.102 0.613
0.157 1.103 0.614
0.149 1.116 0.614
0.139 1.117 0.614
0.13 1.117 0.615
0.121 1.127 0.615
0.111 1.125 0.616
0.102 1.15 0.616
0.093 1.162 0.617
0.082 1.136 0.617
0.071 1.118 0.618
0.06 1.072 0.618
0.05 1.028 0.619
0.041 0.986 0.619
0.032 0.224 0.62
0.032 -0.401 0.62
0.036 -0.461 0.62
0.04 -0.493 0.619
0.045 -0.514 0.619
0.051 -0.542 0.619
0.055 -0.542 0.619
0.06 -0.543 0.619
0.065 -0.544 0.618
0.071 -0.554 0.618
0.075 -0.555 0.618
0.08 -0.556 0.618
0.084 -0.546 0.618
0.091 -0.559 0.617
0.095 -0.558 0.617
0.1 -0.558 0.617
0.105 -0.556 0.617
0.111 -0.565 0.617
0.116 -0.564 0.616
0.122 -0.572 0.616
0.128 -0.578 0.616
0.133 -0.576 0.616
0.138 -0.573 0.615
0.144 -0.58 0.615
0.15 -0.579 0.615
0.157 -0.589 0.615
0.161 -0.585 0.615
0.167 -0.586 0.614
0.173 -0.587 0.614
0.181 -0.598 0.614
0.186 -0.596 0.614
0.192 -0.599 0.613
0.197 -0.597 0.613
0.202 -0.595 0.613
0.211 -0.605 0.613
0.216 -0.602 0.612
0.224 -0.61 0.612
0.229 -0.606 0.612
0.238 -0.616 0.611
0.242 -0.612 0.611
0.252 -0.621 0.611
0.257 -0.62 0.611
0.265 -0.624 0.61
0.271 -0.624 0.61
0.277 -0.623 0.61
0.286 -0.63 0.61
0.292 -0.628 0.609
0.302 -0.636 0.609
0.307 -0.634 0.609
0.318 -0.644 0.608
0.324 -0.642 0.608
0.331 -0.642 0.608
0.341 -0.648 0.607
0.348 -0.648 0.607
0.355 -0.649 0.607
0.365 -0.655 0.606
0.375 -0.659 0.606
0.381 -0.658 0.606
0.392 -0.664 0.605
0.401 -0.666 0.605
0.413 -0.674 0.604
0.42 -0.672 0.604
0.433 -0.682 0.604
0.49 -0.763 0.601
0.63 -0.976 0.596
0.636 -0.968 0.595
0.648 -0.968 0.595
0.651 -0.954 0.595
0.604 -0.866 0.597
0.597 -0.839 0.597
0.598 -0.824 0.597
0.605 -0.819 0.597
0.608 -0.808 0.597
0.61 -0.796 0.597
0.614 -0.788 0.596
0.617 -0.777 0.596
0.617 -0.763 0.596
0.619 -0.753 0.596
0.625 -0.746 0.596
0.626 -0.734 0.596
0.632 -0.728 0.596
0.637 -0.722 0.595
0.639 -0.711 0.595
0.639 -0.699 0.595
0.647 -0.696 0.595
0.651 -0.688 0.595
0.648 -0.673 0.595
0.656 -0.67 0.595
0.66 -0.663 0.595
0.659 -0.65 0.595
0.664 -0.644 0.594
0.67 -0.639 0.594
0.668 -0.626 0.594
0.663 -0.61 0.594
0.669 -0.605 0.594
0.672 -0.597 0.594
0.678 -0.592 0.594
0.685 -0.589 0.594
0.683 -0.576 0.594
0.688 -0.571 0.593
0.684 -0.557 0.594
0.687 -0.55 0.593
0.695 -0.547 0.593
0.691 -0.534 0.593
0.695 -0.528 0.593
0.702 -0.524 0.593
0.709 -0.52 0.593
0.707 -0.509 0.593
0.71 -0.502 0.593
0.717 -0.498 0.592
0.722 -0.492 0.592
0.719 -0.482 0.592
0.722 -0.475 0.592
0.719 -0.464 0.592
0.727 -0.46 0.592
0.701 -0.435 0.593
0.769 -0.47 0.59
0.803 -0.482 0.589
0.842 -0.497 0.587
0.871 -0.505 0.586
0.909 -0.517 0.585
0.951 -0.531 0.583
1.315 -0.726 0.568
1.502 -0.815 0.561
1.515 -0.806 0.56
1.525 -0.794 0.56
1.527 -0.779 0.56
1.534 -0.766 0.559
1.556 -0.76 0.559
1.684 -0.807 0.553
1.82 -0.854 0.548
1.961 -0.9 0.542
3.673 -1.661 0.474
4.068 -1.799 0.458
4.527 -1.956 0.439
4.506 -1.901 0.44
4.187 -1.722 0.453
4.352 -1.747 0.446
3.928 -1.536 0.463
4.38 -1.67 0.445
4.452 -1.654 0.442
4.601 -1.664 0.436
4.652 -1.637 0.434
4.611 -1.578 0.436
4.394 -1.461 0.445
4.256 -1.374 0.45
4.308 -1.349 0.448
4.109 -1.248 0.456
4.617 -1.359 0.436
4.569 -1.302 0.438
4.553 -1.255 0.438
4.483 -1.194 0.441
4.417 -1.135 0.444
4.421 -1.095 0.444
3.255 -0.774 0.49
3.202 -0.732 0.493
3.208 -0.705 0.492
3.225 -0.679 0.492
3.231 -0.651 0.491
3.236 -0.623 0.491
3.243 -0.596 0.491
3.258 -0.569 0.49
3.274 -0.543 0.49
3.289 -0.516 0.489
3.304 -0.489 0.488
3.308 -0.461 0.488
3.322 -0.433 0.488
3.324 -0.405 0.488
3.338 -0.377 0.487
3.351 -0.349 0.487
3.354 -0.32 0.486
3.358 -0.291 0.486
3.371 -0.263 0.486
3.383 -0.235 0.485
3.394 -0.206 0.485
3.396 -0.176 0.485
3.415 -0.148 0.484
4.76 -0.165 0.43
4.697 -0.122 0.433
4.62 -0.08 0.436
4.788 -0.042 0.429
4.738 -0 0.431
4.782 0.041 0.429
4.769 0.083 0.43
4.03 0.105 0.459
3.241 0.112 0.491
3.173 0.137 0.494
3.105 0.161 0.496
3.03 0.184 0.499
2.987 0.207 0.501
2.917 0.227 0.504
2.841 0.246 0.507
2.756 0.263 0.51
2.687 0.279 0.513
2.645 0.298 0.515
2.577 0.313 0.518
2.533 0.33 0.519
2.488 0.345 0.521
2.43 0.359 0.523
2.347 0.367 0.527
2.338 0.386 0.527
2.306 0.401 0.528
2.251 0.412 0.531
2.213 0.424 0.532
2.192 0.44 0.533
2.143 0.449 0.535
2.108 0.461 0.536
2.074 0.472 0.538
2.041 0.483 0.539
1.985 0.487 0.541
1.956 0.498 0.543
1.937 0.511 0.543
1.899 0.518 0.545
1.879 0.53 0.546
1.852 0.54 0.547
1.823 0.548 0.548
1.801 0.558 0.549
1.787 0.571 0.549
1.756 0.577 0.551
1.731 0.586 0.552
1.715 0.597 0.552
1.696 0.606 0.553
1.674 0.615 0.554
1.661 0.626 0.554
1.636 0.633 0.555
1.612 0.639 0.556
1.598 0.649 0.557
1.583 0.659 0.557
1.573 0.671 0.558
1.564 0.683 0.558
1.548 0.692 0.559
1.542 0.705 0.559
1.545 0.722 0.559
1.547 0.74 0.559
1.55 0.758 0.559
1.551 0.775 0.559
1.562 0.797 0.558
1.555 0.811 0.559
1.569 0.835 0.558
1.57 0.853 0.558
1.579 0.876 0.558
1.581 0.895 0.558
1.591 0.919 0.557
1.59 0.937 0.557
1.599 0.961 0.557
1.6 0.981 0.557
1.608 1.005 0.557
1.616 1.029 0.556
1.615 1.049 0.556
1.624 1.075 0.556
1.633 1.102 0.555
1.633 1.122 0.555
1.639 1.147 0.555
1.645 1.173 0.555
1.647 1.196 0.555
1.65 1.22 0.555
1.651 1.243 0.555
1.652 1.267 0.555
1.7 1.328 0.553
1.794 1.428 0.549
1.541 1.245 0.559
1.447 1.189 0.563
1.428 1.194 0.564
1.411 1.2 0.564
1.393 1.205 0.565
1.374 1.21 0.566
1.356 1.215 0.567
1.338 1.219 0.567
1.32 1.224 0.568
1.124 1.056 0.576
1.099 1.05 0.577
1.061 1.03 0.578
1.076 1.063 0.578
1.029 1.034 0.58
1.057 1.081 0.579
1.045 1.088 0.579
1.059 1.122 0.579
1.043 1.124 0.579
1.042 1.143 0.579
1.032 1.152 0.58
1.025 1.163 0.58
1.015 1.173 0.58
1.016 1.195 0.58
1.009 1.208 0.581
1.012 1.233 0.58
0.998 1.238 0.581
1.001 1.265 0.581
0.994 1.278 0.581
0.998 1.307 0.581
0.984 1.312 0.582
0.975 1.323 0.582
0.964 1.333 0.582
0.954 1.343 0.583
0.943 1.352 0.583
0.926 1.353 0.584
0.915 1.36 0.584
0.897 1.36 0.585
0.885 1.367 0.585
0.873 1.374 0.586
0.856 1.373 0.587
0.844 1.38 0.587
0.817 1.361 0.588
0.777 1.319 0.59
0.715 1.233 0.592
0.775 1.369 0.59
0.775 1.399 0.59
0.613 1.117 0.596
0.563 1.042 0.598
0.614 1.168 0.596
0.569 1.103 0.598
0.586 1.163 0.597
0.566 1.147 0.598
0.516 1.064 0.6
0.477 1 0.602
0.468 1.005 0.602
0.45 0.985 0.603
0.438 0.981 0.603
0.418 0.957 0.604
0.41 0.96 0.605
0.414 0.995 0.604
0.408 1.007 0.605
0.401 1.016 0.605
0.389 1.01 0.605
0.381 1.015 0.606
0.372 1.018 0.606
0.363 1.02 0.606
0.353 1.02 0.607
0.344 1.022 0.607
0.33 1.008 0.608
0.319 1.003 0.608
0.312 1.011 0.608
0.307 1.029 0.609
0.305 1.058 0.609
0.297 1.065 0.609
0.287 1.062 0.61
0.278 1.067 0.61
0.269 1.072 0.61
0.26 1.073 0.611
0.249 1.069 0.611
0.241 1.078 0.611
0.233 1.086 0.612
0.224 1.088 0.612
0.212 1.08 0.612
0.204 1.09 0.613
0.196 1.099 0.613
0.186 1.1 0.614
0.178 1.112 0.614
0.168 1.114 0.614
0.159 1.115 0.615
0.149 1.115 0.615
0.139 1.115 0.615
0.129 1.117 0.616
0.12 1.127 0.616
0.11 1.125 0.617
0.102 1.15 0.617
0.093 1.172 0.617
0.081 1.136 0.618
0.071 1.121 0.618
0.06 1.072 0.619
0.05 1.038 0.619
0.04 0.994 0.619
0.032 0.2 0.62
0.032 -0.402 0.62
0.036 -0.454 0.62
0.04 -0.494 0.62
0.045 -0.522 0.619
0.05 -0.532 0.619
0.055 -0.541 0.619
0.06 -0.541 0.619
0.066 -0.553 0.619
0.07 -0.555 0.619
0.075 -0.554 0.618
0.08 -0.555 0.618
0.085 -0.556 0.618
0.089 -0.549 0.618
0.095 -0.558 0.618
0.1 -0.558 0.617
0.106 -0.566 0.617
0.111 -0.565 0.617
0.117 -0.573 0.617
0.122 -0.572 0.617
0.127 -0.569 0.617
0.133 -0.576 0.616
0.138 -0.574 0.616
0.144 -0.58 0.616
0.151 -0.589 0.616
0.157 -0.588 0.615
0.161 -0.585 0.615
0.167 -0.586 0.615
0.175 -0.595 0.615
0.181 -0.6 0.615
0.186 -0.596 0.614
0.192 -0.597 0.614
0.197 -0.596 0.614
0.205 -0.606 0.614
0.21 -0.603 0.614
0.216 -0.602 0.613
0.224 -0.609 0.613
0.232 -0.615 0.613
0.238 -0.615 0.613
0.242 -0.612 0.612
0.252 -0.621 0.612
0.257 -0.62 0.612
0.263 -0.618 0.612
0.272 -0.625 0.611
0.278 -0.626 0.611
0.286 -0.63 0.611
0.292 -0.628 0.611
0.302 -0.636 0.61
0.308 -0.636 0.61
0.318 -0.644 0.61
0.325 -0.644 0.61
0.334 -0.649 0.609
0.344 -0.654 0.609
0.348 -0.648 0.609
0.355 -0.65 0.608
0.364 -0.653 0.608
0.376 -0.661 0.608
0.382 -0.66 0.608
0.391 -0.662 0.607
0.401 -0.666 0.607
0.413 -0.674 0.606
0.424 -0.68 0.606
0.436 -0.687 0.606
0.498 -0.777 0.603
0.632 -0.981 0.599
0.646 -0.984 0.598
0.654 -0.977 0.598
0.659 -0.966 0.598
0.606 -0.868 0.6
0.597 -0.838 0.6
0.598 -0.824 0.6
0.6 -0.813 0.6
0.603 -0.801 0.6
0.61 -0.797 0.599
0.613 -0.786 0.599
0.618 -0.778 0.599
0.617 -0.763 0.599
0.625 -0.76 0.599
0.625 -0.746 0.599
0.626 -0.734 0.599
0.632 -0.728 0.599
0.637 -0.722 0.599
0.639 -0.711 0.599
0.64 -0.7 0.598
0.648 -0.697 0.598
0.648 -0.685 0.598
0.648 -0.673 0.598
0.656 -0.67 0.598
0.659 -0.662 0.598
0.659 -0.65 0.598
0.664 -0.643 0.598
0.671 -0.639 0.597
0.67 -0.628 0.597
0.669 -0.616 0.597
0.667 -0.604 0.597
0.68 -0.605 0.597
0.677 -0.592 0.597
0.676 -0.581 0.597
0.682 -0.576 0.597
0.686 -0.569 0.597
0.69 -0.562 0.597
0.696 -0.558 0.596
0.693 -0.546 0.597
0.698 -0.54 0.596
0.695 -0.528 0.597
0.701 -0.523 0.596
0.708 -0.519 0.596
0.713 -0.514 0.596
0.711 -0.503 0.596
0.714 -0.496 0.596
0.722 -0.492 0.596
0.719 -0.482 0.596
0.721 -0.474 0.596
0.728 -0.47 0.595
0.723 -0.458 0.596
0.69 -0.428 0.597
0.781 -0.478 0.593
0.803 -0.482 0.593
0.839 -0.495 0.591
0.874 -0.506 0.59
0.912 -0.519 0.589
0.942 -0.526 0.588
1.336 -0.738 0.574
1.503 -0.816 0.568
1.518 -0.807 0.568
1.524 -0.794 0.567
1.528 -0.779 0.567
1.536 -0.767 0.567
1.558 -0.761 0.566
1.693 -0.811 0.561
1.821 -0.854 0.557
1.981 -0.909 0.551
3.708 -1.676 0.49
3.884 -1.716 0.484
3.93 -1.696 0.482
4.199 -1.77 0.473
4.106 -1.689 0.476
4.259 -1.709 0.471
3.966 -1.551 0.481
3.982 -1.517 0.481
4.212 -1.564 0.473
4.763 -1.723 0.453
4.793 -1.687 0.452
4.745 -1.624 0.454
4.607 -1.532 0.459
4.257 -1.374 0.471
4.198 -1.314 0.473
4.518 -1.372 0.462
4.73 -1.393 0.454
4.69 -1.337 0.456
4.696 -1.294 0.455
4.552 -1.212 0.461
4.408 -1.132 0.466
4.428 -1.097 0.465
3.251 -0.773 0.506
3.202 -0.732 0.508
3.209 -0.705 0.508
3.215 -0.677 0.508
3.22 -0.649 0.507
3.237 -0.623 0.507
3.244 -0.596 0.507
3.259 -0.569 0.506
3.275 -0.543 0.506
3.29 -0.516 0.505
3.293 -0.488 0.505
3.307 -0.461 0.504
3.322 -0.433 0.504
3.325 -0.405 0.504
3.338 -0.377 0.503
3.351 -0.349 0.503
3.354 -0.32 0.503
3.369 -0.292 0.502
3.371 -0.263 0.502
3.393 -0.235 0.501
3.394 -0.206 0.501
3.397 -0.176 0.501
3.417 -0.148 0.501
4.875 -0.169 0.449
4.704 -0.122 0.455
4.635 -0.08 0.458
4.87 -0.042 0.449
4.857 -0 0.45
4.895 0.042 0.448
4.888 0.085 0.449
3.719 0.097 0.49
3.242 0.112 0.507
3.173 0.137 0.509
3.097 0.161 0.512
3.029 0.183 0.514
2.978 0.206 0.516
2.918 0.227 0.518
2.842 0.246 0.521
2.755 0.262 0.524
2.686 0.279 0.526
2.644 0.298 0.528
2.577 0.313 0.53
2.534 0.33 0.532
2.489 0.346 0.533
2.435 0.359 0.535
2.348 0.367 0.538
2.338 0.386 0.539
2.306 0.401 0.54
2.252 0.412 0.542
2.214 0.424 0.543
2.194 0.44 0.544
2.146 0.45 0.545
2.108 0.461 0.547
2.076 0.472 0.548
2.05 0.485 0.549
1.984 0.487 0.551
1.955 0.498 0.552
1.937 0.511 0.553
1.91 0.521 0.554
1.879 0.53 0.555
1.852 0.54 0.556
1.834 0.551 0.556
1.811 0.561 0.557
1.787 0.571 0.558
1.765 0.58 0.559
1.741 0.589 0.56
1.725 0.6 0.56
1.695 0.606 0.561
1.675 0.615 0.562
1.662 0.626 0.562
1.645 0.636 0.563
1.622 0.643 0.564
1.607 0.653 0.564
1.593 0.663 0.565
1.583 0.675 0.565
1.567 0.684 0.566
1.558 0.696 0.566
1.551 0.709 0.566
1.554 0.727 0.566
1.549 0.74 0.566
1.558 0.761 0.566
1.552 0.775 0.566
1.562 0.797 0.566
1.566 0.816 0.566
1.569 0.835 0.566
1.579 0.858 0.565
1.588 0.881 0.565
1.59 0.901 0.565
1.592 0.92 0.565
1.6 0.943 0.565
1.601 0.962 0.565
1.61 0.987 0.564
1.61 1.006 0.564
1.618 1.031 0.564
1.626 1.056 0.564
1.624 1.075 0.564
1.635 1.103 0.563
1.633 1.122 0.563
1.642 1.149 0.563
1.654 1.179 0.563
1.65 1.199 0.563
1.65 1.22 0.563
1.653 1.245 0.563
1.654 1.268 0.563
1.682 1.314 0.562
1.771 1.409 0.559
1.541 1.245 0.567
1.447 1.189 0.57
1.428 1.194 0.571
1.411 1.2 0.571
1.392 1.205 0.572
1.375 1.21 0.573
1.357 1.215 0.573
1.339 1.219 0.574
1.321 1.224 0.574
1.17 1.1 0.58
1.236 1.184 0.577
1.165 1.133 0.58
1.117 1.105 0.582
1.086 1.093 0.583
1.086 1.111 0.583
1.076 1.12 0.583
1.071 1.135 0.583
1.06 1.143 0.584
1.048 1.149 0.584
1.041 1.162 0.584
1.046 1.188 0.584
1.031 1.192 0.585
1.034 1.216 0.585
1.025 1.228 0.585
1.027 1.252 0.585
1.023 1.269 0.585
1.019 1.288 0.585
1.013 1.303 0.585
1.007 1.319 0.586
0.993 1.324 0.586
0.984 1.336 0.586
0.967 1.336 0.587
0.955 1.344 0.587
0.938 1.345 0.588
0.926 1.353 0.588
0.915 1.36 0.589
0.897 1.36 0.589
0.885 1.366 0.59
0.868 1.366 0.59
0.856 1.373 0.591
0.844 1.38 0.591
0.815 1.358 0.592
0.766 1.299 0.594
0.687 1.182 0.597
0.714 1.258 0.596
0.773 1.394 0.594
0.614 1.119 0.599
0.563 1.043 0.601
0.612 1.164 0.599
0.562 1.088 0.601
0.574 1.137 0.601
0.552 1.117 0.602
0.519 1.07 0.603
0.477 1.001 0.604
0.47 1.009 0.604
0.455 0.998 0.605
0.438 0.981 0.606
0.423 0.969 0.606
0.417 0.978 0.606
0.414 0.995 0.606
0.409 1.011 0.607
0.403 1.021 0.607
0.389 1.011 0.607
0.381 1.014 0.608
0.372 1.018 0.608
0.363 1.02 0.608
0.353 1.02 0.609
0.344 1.022 0.609
0.33 1.008 0.609
0.319 1.003 0.61
0.312 1.012 0.61
0.307 1.029 0.61
0.305 1.059 0.61
0.297 1.066 0.611
0.286 1.062 0.611
0.278 1.066 0.611
0.269 1.073 0.612
0.259 1.069 0.612
0.251 1.078 0.612
0.241 1.077 0.613
0.231 1.077 0.613
0.223 1.088 0.613
0.214 1.089 0.613
0.204 1.089 0.614
0.196 1.099 0.614
0.186 1.1 0.614
0.177 1.101 0.615
0.168 1.112 0.615
0.157 1.103 0.615
0.149 1.115 0.616
0.139 1.117 0.616
0.129 1.117 0.616
0.12 1.126 0.617
0.11 1.125 0.617
0.102 1.15 0.617
0.093 1.172 0.618
0.082 1.147 0.618
0.071 1.119 0.619
0.06 1.077 0.619
0.05 1.039 0.619
0.04 0.982 0.62
0.032 0.21 0.62
0.032 -0.413 0.62
0.036 -0.463 0.62
0.04 -0.493 0.62
0.045 -0.522 0.62
0.05 -0.532 0.62
0.055 -0.54 0.619
0.06 -0.541 0.619
0.065 -0.553 0.619
0.07 -0.555 0.619
0.075 -0.554 0.619
0.08 -0.556 0.619
0.085 -0.557 0.619
0.09 -0.558 0.618
0.095 -0.558 0.618
0.1 -0.558 0.618
0.105 -0.557 0.618
0.111 -0.566 0.618
0.116 -0.564 0.618
0.122 -0.572 0.618
0.128 -0.578 0.617
0.133 -0.575 0.617
0.14 -0.583 0.617
0.144 -0.58 0.617
0.149 -0.579 0.617
0.157 -0.589 0.617
0.162 -0.588 0.616
0.166 -0.584 0.616
0.174 -0.595 0.616
0.181 -0.6 0.616
0.186 -0.598 0.616
0.191 -0.597 0.616
0.197 -0.596 0.616
0.205 -0.605 0.615
0.211 -0.605 0.615
0.216 -0.602 0.615
0.224 -0.609 0.615
0.229 -0.608 0.615
0.234 -0.604 0.614
0.241 -0.61 0.614
0.247 -0.608 0.614
0.256 -0.617 0.614
0.263 -0.62 0.614
0.268 -0.616 0.614
0.278 -0.626 0.613
0.286 -0.63 0.613
0.293 -0.632 0.613
0.303 -0.64 0.613
0.309 -0.637 0.612
0.319 -0.647 0.612
0.324 -0.642 0.612
0.33 -0.64 0.612
0.339 -0.645 0.612
0.348 -0.648 0.611
0.355 -0.649 0.611
0.364 -0.653 0.611
0.375 -0.659 0.611
0.381 -0.658 0.61
0.393 -0.665 0.61
0.406 -0.676 0.61
0.411 -0.671 0.61
0.424 -0.681 0.609
0.443 -0.699 0.609
0.505 -0.789 0.607
0.645 -1.001 0.603
0.655 -0.997 0.603
0.666 -0.996 0.602
0.654 -0.959 0.603
0.6 -0.859 0.604
0.597 -0.839 0.604
0.599 -0.826 0.604
0.606 -0.821 0.604
0.603 -0.802 0.604
0.604 -0.789 0.604
0.618 -0.793 0.604
0.618 -0.778 0.604
0.618 -0.765 0.604
0.625 -0.76 0.604
0.624 -0.745 0.604
0.632 -0.742 0.603
0.632 -0.729 0.603
0.638 -0.723 0.603
0.64 -0.713 0.603
0.644 -0.705 0.603
0.648 -0.697 0.603
0.652 -0.69 0.603
0.654 -0.679 0.603
0.655 -0.668 0.603
0.66 -0.662 0.603
0.659 -0.65 0.603
0.664 -0.643 0.603
0.663 -0.631 0.603
0.671 -0.629 0.602
0.669 -0.615 0.602
0.667 -0.603 0.602
0.673 -0.598 0.602
0.678 -0.592 0.602
0.684 -0.587 0.602
0.682 -0.576 0.602
0.687 -0.57 0.602
0.684 -0.557 0.602
0.69 -0.553 0.602
0.694 -0.546 0.602
0.698 -0.54 0.602
0.697 -0.529 0.602
0.701 -0.523 0.601
0.709 -0.52 0.601
0.706 -0.509 0.601
0.71 -0.502 0.601
0.724 -0.503 0.601
0.721 -0.492 0.601
0.719 -0.482 0.601
0.73 -0.48 0.601
0.72 -0.465 0.601
0.729 -0.462 0.601
0.696 -0.431 0.602
0.769 -0.47 0.6
0.805 -0.483 0.599
0.842 -0.497 0.598
0.87 -0.504 0.597
0.914 -0.52 0.596
0.951 -0.531 0.595
1.347 -0.745 0.583
1.497 -0.813 0.579
1.518 -0.807 0.579
1.525 -0.794 0.579
1.53 -0.78 0.578
1.536 -0.767 0.578
1.567 -0.766 0.577
1.694 -0.811 0.574
1.813 -0.85 0.571
1.843 -0.845 0.57
3.726 -1.684 0.517
3.869 -1.709 0.513
3.895 -1.681 0.512
3.946 -1.662 0.511
3.963 -1.629 0.511
4 -1.604 0.51
3.921 -1.533 0.512
3.937 -1.5 0.511
4.031 -1.496 0.509
4.85 -1.755 0.486
4.796 -1.688 0.487
4.793 -1.64 0.487
4.752 -1.58 0.489
4.291 -1.384 0.501
4.865 -1.525 0.485
4.806 -1.46 0.487
4.81 -1.416 0.487
4.8 -1.368 0.487
4.854 -1.338 0.486
4.597 -1.224 0.493
4.392 -1.128 0.499
4.397 -1.089 0.498
3.252 -0.773 0.53
3.202 -0.732 0.532
3.209 -0.705 0.532
3.215 -0.677 0.531
3.223 -0.65 0.531
3.237 -0.623 0.531
3.245 -0.596 0.531
3.26 -0.569 0.53
3.276 -0.543 0.53
3.291 -0.516 0.529
3.294 -0.488 0.529
3.308 -0.461 0.529
3.313 -0.432 0.529
3.327 -0.405 0.528
3.34 -0.377 0.528
3.352 -0.349 0.528
3.357 -0.32 0.527
3.36 -0.291 0.527
3.372 -0.263 0.527
3.384 -0.235 0.527
3.396 -0.206 0.526
3.399 -0.177 0.526
3.504 -0.152 0.523
5.031 -0.175 0.481
4.713 -0.123 0.49
4.627 -0.08 0.492
5.036 -0.044 0.481
4.967 -0 0.483
5.018 0.044 0.481
4.984 0.086 0.482
3.739 0.097 0.517
3.242 0.112 0.531
3.173 0.137 0.533
3.097 0.161 0.535
3.021 0.183 0.537
2.983 0.206 0.538
2.911 0.227 0.54
2.844 0.246 0.542
2.767 0.263 0.544
2.697 0.28 0.546
2.646 0.298 0.547
2.588 0.314 0.549
2.525 0.328 0.551
2.487 0.345 0.552
2.438 0.36 0.553
2.349 0.367 0.556
2.329 0.385 0.556
2.307 0.401 0.557
2.253 0.412 0.558
2.214 0.424 0.559
2.187 0.439 0.56
2.148 0.45 0.561
2.108 0.461 0.562
2.076 0.472 0.563
2.052 0.485 0.564
2.001 0.491 0.565
1.955 0.498 0.567
1.94 0.511 0.567
1.912 0.522 0.568
1.879 0.53 0.569
1.862 0.542 0.569
1.835 0.552 0.57
1.811 0.561 0.571
1.787 0.571 0.571
1.766 0.581 0.572
1.742 0.589 0.572
1.725 0.6 0.573
1.705 0.609 0.573
1.683 0.618 0.574
1.661 0.626 0.575
1.645 0.636 0.575
1.631 0.647 0.576
1.613 0.655 0.576
1.6 0.666 0.576
1.585 0.676 0.577
1.577 0.688 0.577
1.568 0.7 0.577
1.56 0.713 0.578
1.555 0.727 0.578
1.556 0.744 0.578
1.559 0.762 0.578
1.56 0.779 0.578
1.571 0.802 0.577
1.573 0.82 0.577
1.576 0.839 0.577
1.576 0.857 0.577
1.588 0.881 0.577
1.591 0.901 0.577
1.601 0.925 0.576
1.609 0.948 0.576
1.611 0.968 0.576
1.61 0.987 0.576
1.619 1.012 0.576
1.619 1.031 0.576
1.627 1.056 0.576
1.633 1.081 0.575
1.637 1.104 0.575
1.642 1.128 0.575
1.65 1.155 0.575
1.653 1.179 0.575
1.652 1.199 0.575
1.657 1.225 0.575
1.653 1.244 0.575
1.646 1.261 0.575
1.674 1.307 0.574
1.763 1.403 0.572
1.542 1.245 0.578
1.448 1.189 0.581
1.429 1.194 0.581
1.411 1.2 0.582
1.393 1.205 0.582
1.375 1.21 0.583
1.357 1.215 0.583
1.339 1.219 0.584
1.322 1.225 0.584
1.296 1.221 0.585
1.285 1.232 0.585
1.183 1.152 0.588
1.161 1.15 0.589
1.099 1.106 0.59
1.098 1.124 0.59
1.081 1.126 0.591
1.08 1.144 0.591
1.063 1.146 0.591
1.066 1.169 0.591
1.059 1.182 0.592
1.064 1.21 0.591
1.055 1.22 0.592
1.055 1.242 0.592
1.054 1.264 0.592
1.05 1.28 0.592
1.04 1.292 0.592
1.03 1.301 0.592
1.017 1.308 0.593
1.022 1.338 0.593
0.998 1.33 0.593
0.984 1.336 0.594
0.967 1.336 0.594
0.955 1.344 0.594
0.943 1.352 0.595
0.926 1.353 0.595
0.915 1.36 0.596
0.897 1.36 0.596
0.885 1.367 0.596
0.874 1.374 0.597
0.856 1.372 0.597
0.844 1.38 0.597
0.829 1.382 0.598
0.731 1.237 0.601
0.691 1.189 0.602
0.671 1.178 0.602
0.758 1.366 0.6
0.617 1.125 0.604
0.558 1.034 0.605
0.607 1.155 0.604
0.558 1.079 0.605
0.545 1.078 0.606
0.537 1.085 0.606
0.517 1.066 0.607
0.478 1.002 0.608
0.468 1.004 0.608
0.456 1.001 0.608
0.443 0.994 0.609
0.426 0.975 0.609
0.418 0.981 0.609
0.416 1.002 0.609
0.412 1.018 0.61
0.401 1.017 0.61
0.39 1.011 0.61
0.38 1.014 0.61
0.373 1.019 0.611
0.363 1.021 0.611
0.354 1.021 0.611
0.344 1.023 0.611
0.33 1.008 0.612
0.319 1.002 0.612
0.312 1.011 0.612
0.307 1.029 0.612
0.306 1.06 0.612
0.295 1.056 0.613
0.289 1.072 0.613
0.278 1.067 0.613
0.269 1.072 0.614
0.259 1.071 0.614
0.251 1.078 0.614
0.241 1.078 0.614
0.233 1.086 0.615
0.222 1.078 0.615
0.214 1.089 0.615
0.205 1.098 0.615
0.196 1.1 0.616
0.186 1.101 0.616
0.177 1.102 0.616
0.167 1.105 0.616
0.157 1.104 0.617
0.149 1.115 0.617
0.139 1.116 0.617
0.129 1.116 0.617
0.12 1.126 0.618
0.11 1.125 0.618
0.102 1.15 0.618
0.093 1.164 0.618
0.081 1.137 0.619
0.07 1.11 0.619
0.06 1.071 0.619
