# .PCD v0.7 - Point Cloud Data file format
VERSION 0.7
FIELDS x y z
SIZE 4 4 4
TYPE F F F
COUNT 1 1 1
WIDTH 2496
HEIGHT 1
VIEWPOINT 0 0 0 1 0 0 0
POINTS 2496
DATA ascii
2.219 -1.328 2.027
2.251 -1.319 2.048
2.284 -1.309 2.069
2.326 -1.304 2.095
2.358 -1.293 2.116
2.399 -1.286 2.142
2.431 -1.273 2.162
2.473 -1.264 2.188
2.506 -1.251 2.209
2.547 -1.241 2.235
2.588 -1.23 2.261
2.623 -1.215 2.283
2.672 -1.207 2.314
2.715 -1.194 2.341
2.755 -1.18 2.366
2.804 -1.168 2.397
2.851 -1.155 2.427
2.899 -1.142 2.457
2.947 -1.127 2.488
3.003 -1.115 2.523
3.058 -1.1 2.558
3.115 -1.086 2.594
3.164 -1.068 2.625
3.223 -1.052 2.662
3.286 -1.037 2.702
3.36 -1.024 2.749
3.416 -1.003 2.784
3.483 -0.985 2.826
3.548 -0.965 2.868
3.625 -0.947 2.916
3.688 -0.924 2.956
3.767 -0.903 3.006
3.844 -0.881 3.055
3.93 -0.859 3.109
4.01 -0.833 3.16
4.101 -0.809 3.217
4.198 -0.784 3.278
4.297 -0.757 3.341
4.388 -0.727 3.398
4.495 -0.698 3.466
4.605 -0.667 3.536
4.725 -0.635 3.612
4.85 -0.601 3.69
4.972 -0.565 3.768
5.108 -0.527 3.854
5.256 -0.488 3.947
5.318 -0.439 3.986
5.305 -0.383 3.978
5.289 -0.327 3.968
5.283 -0.272 3.964
5.266 -0.217 3.954
5.26 -0.162 3.95
5.243 -0.108 3.939
5.235 -0.054 3.934
5.217 -0 3.923
5.208 0.054 3.917
5.199 0.107 3.911
5.189 0.16 3.905
5.179 0.213 3.899
5.17 0.266 3.893
5.156 0.319 3.884
5.146 0.371 3.877
5.135 0.424 3.871
5.122 0.476 3.863
5.11 0.527 3.855
5.099 0.579 3.848
5.087 0.631 3.84
5.082 0.683 3.837
5.068 0.734 3.829
5.055 0.785 3.82
5.041 0.836 3.811
5.029 0.887 3.804
5.032 0.94 3.806
5.01 0.989 3.792
4.995 1.039 3.783
4.986 1.09 3.777
4.974 1.14 3.769
4.969 1.192 3.766
4.95 1.241 3.754
4.937 1.291 3.745
4.931 1.343 3.742
4.928 1.395 3.74
4.911 1.444 3.729
4.908 1.497 3.727
4.892 1.546 3.717
4.888 1.599 3.714
4.876 1.649 3.707
4.862 1.698 3.698
4.856 1.751 3.695
4.842 1.801 3.686
4.828 1.85 3.677
4.822 1.903 3.673
4.806 1.951 3.663
4.8 2.005 3.659
4.791 2.057 3.653
4.776 2.106 3.644
4.767 2.158 3.638
4.762 2.212 3.635
4.743 2.26 3.623
4.74 2.316 3.621
4.651 2.328 3.565
4.412 2.262 3.414
4.208 2.209 3.285
4.015 2.156 3.163
3.836 2.108 3.05
3.667 2.061 2.943
3.526 2.026 2.854
3.378 1.984 2.76
3.235 1.941 2.67
3.116 1.91 2.595
3.012 1.885 2.529
2.9 1.853 2.458
2.796 1.824 2.392
2.696 1.794 2.329
2.606 1.77 2.272
2.523 1.748 2.22
2.436 1.721 2.165
2.366 1.704 2.12
2.295 1.685 2.075
2.224 1.665 2.031
2.154 1.644 1.987
2.092 1.627 1.947
2.037 1.613 1.912
1.974 1.593 1.873
1.918 1.577 1.838
1.868 1.564 1.806
1.816 1.548 1.773
1.77 1.536 1.744
1.726 1.525 1.716
1.681 1.512 1.687
1.635 1.497 1.658
1.597 1.489 1.635
1.559 1.48 1.611
1.521 1.469 1.586
1.482 1.457 1.562
1.445 1.445 1.538
1.415 1.439 1.519
1.377 1.426 1.496
1.347 1.419 1.477
1.314 1.409 1.456
1.285 1.402 1.437
1.257 1.394 1.419
1.228 1.386 1.401
1.199 1.377 1.383
1.176 1.374 1.368
1.148 1.364 1.351
1.119 1.353 1.332
1.098 1.351 1.319
1.071 1.339 1.302
1.05 1.336 1.288
1.029 1.332 1.275
1.007 1.327 1.262
0.987 1.322 1.248
0.966 1.317 1.235
0.945 1.311 1.222
0.677 0.95 1.053
0.512 0.726 0.948
0.451 0.649 0.91
0.442 0.647 0.904
0.429 0.639 0.896
0.418 0.633 0.889
0.404 0.621 0.88
0.397 0.622 0.876
0.388 0.618 0.87
0.383 0.623 0.867
0.374 0.618 0.861
0.362 0.609 0.854
0.359 0.615 0.852
0.344 0.6 0.842
0.342 0.607 0.841
0.331 0.598 0.834
0.326 0.6 0.831
0.318 0.596 0.826
0.309 0.59 0.82
0.301 0.585 0.815
0.293 0.581 0.81
0.287 0.58 0.806
0.279 0.576 0.801
0.272 0.572 0.797
0.268 0.574 0.794
0.26 0.569 0.789
0.252 0.563 0.784
0.247 0.563 0.781
0.242 0.563 0.778
0.233 0.553 0.772
0.226 0.549 0.768
0.222 0.551 0.765
0.217 0.55 0.762
0.212 0.55 0.759
0.205 0.542 0.754
0.201 0.543 0.752
0.194 0.538 0.748
0.191 0.541 0.745
0.184 0.534 0.741
0.18 0.536 0.738
0.173 0.529 0.734
0.167 0.522 0.73
0.163 0.523 0.728
0.159 0.524 0.725
0.155 0.525 0.723
0.148 0.516 0.719
0.145 0.519 0.716
0.139 0.512 0.713
0.135 0.513 0.71
0.129 0.505 0.707
0.126 0.508 0.705
0.123 0.511 0.702
0.117 0.502 0.699
0.113 0.504 0.696
0.108 0.495 0.693
0.104 0.496 0.691
0.1 0.497 0.688
0.097 0.498 0.686
0.092 0.49 0.683
0.088 0.489 0.68
0.084 0.49 0.678
0.079 0.481 0.675
0.076 0.482 0.673
0.072 0.482 0.671
0.069 0.485 0.668
0.065 0.477 0.666
0.061 0.478 0.663
0.057 0.478 0.661
0.053 0.468 0.658
0.05 0.469 0.656
0.046 0.469 0.654
0.043 0.468 0.652
0.039 0.466 0.65
0.036 0.471 0.648
0.032 0.459 0.645
0.029 0.459 0.643
0.025 0.451 0.641
0.021 0.426 0.638
0.018 0.403 0.636
0.015 0.366 0.634
0.015 -0.43 0.634
0.021 -0.841 0.638
0.028 -0.912 0.643
0.036 -0.965 0.648
0.045 -1.012 0.653
0.054 -1.056 0.659
0.063 -1.096 0.665
0.074 -1.151 0.672
0.087 -1.221 0.68
0.1 -1.285 0.689
0.115 -1.356 0.698
0.13 -1.42 0.708
0.147 -1.494 0.719
0.167 -1.588 0.732
0.19 -1.694 0.746
0.183 -1.519 0.742
0.182 -1.409 0.741
0.166 -1.198 0.731
0.171 -1.167 0.734
0.181 -1.182 0.741
0.19 -1.181 0.746
0.196 -1.159 0.75
0.202 -1.145 0.754
0.21 -1.138 0.759
0.218 -1.136 0.764
0.226 -1.129 0.769
0.233 -1.121 0.774
0.247 -1.146 0.783
0.28 -1.26 0.804
0.31 -1.353 0.823
0.333 -1.409 0.838
0.378 -1.554 0.866
0.394 -1.571 0.877
0.405 -1.563 0.884
0.416 -1.558 0.891
0.43 -1.563 0.9
0.442 -1.562 0.908
0.456 -1.565 0.916
0.465 -1.552 0.922
0.481 -1.561 0.932
0.486 -1.537 0.936
0.482 -1.484 0.933
0.432 -1.29 0.901
0.429 -1.249 0.899
0.451 -1.282 0.913
0.596 -1.666 1.006
0.642 -1.753 1.035
0.657 -1.753 1.045
0.671 -1.749 1.054
0.684 -1.742 1.062
0.7 -1.744 1.072
0.713 -1.737 1.08
0.726 -1.729 1.089
0.742 -1.731 1.099
0.755 -1.723 1.107
0.767 -1.715 1.115
0.784 -1.717 1.126
0.797 -1.709 1.134
0.813 -1.71 1.145
0.826 -1.702 1.153
0.843 -1.702 1.163
0.855 -1.693 1.171
0.872 -1.693 1.182
0.884 -1.684 1.19
0.901 -1.683 1.201
0.914 -1.675 1.209
0.931 -1.675 1.22
0.948 -1.674 1.231
0.961 -1.664 1.239
0.951 -1.617 1.233
0.957 -1.597 1.236
0.985 -1.614 1.254
0.997 -1.604 1.262
1.014 -1.602 1.273
1.026 -1.592 1.281
1.044 -1.592 1.292
1.056 -1.581 1.299
1.072 -1.578 1.31
1.088 -1.573 1.32
1.105 -1.569 1.331
1.122 -1.566 1.342
1.129 -1.548 1.346
1.15 -1.55 1.36
1.167 -1.545 1.37
1.184 -1.541 1.381
1.201 -1.536 1.392
1.218 -1.531 1.403
1.221 -1.508 1.405
1.245 -1.511 1.42
1.312 -1.566 1.463
1.33 -1.561 1.475
1.347 -1.553 1.485
1.371 -1.555 1.501
1.389 -1.547 1.512
1.407 -1.541 1.524
1.431 -1.54 1.539
1.448 -1.532 1.55
1.472 -1.53 1.566
1.49 -1.522 1.577
1.508 -1.514 1.589
1.532 -1.511 1.604
1.551 -1.502 1.616
1.575 -1.5 1.632
1.593 -1.49 1.643
1.618 -1.486 1.659
1.642 -1.482 1.674
1.666 -1.477 1.69
1.683 -1.465 1.7
1.716 -1.467 1.721
1.733 -1.455 1.732
1.765 -1.454 1.752
1.782 -1.441 1.763
1.805 -1.433 1.778
1.83 -1.426 1.794
1.862 -1.424 1.815
1.888 -1.416 1.831
1.911 -1.406 1.846
1.943 -1.402 1.866
1.966 -1.392 1.881
1.998 -1.386 1.901
2.022 -1.375 1.917
2.057 -1.371 1.939
2.088 -1.364 1.959
2.121 -1.357 1.98
2.153 -1.349 2.001
2.18 -1.338 2.018
2.221 -1.334 2.044
2.246 -1.32 2.06
2.286 -1.315 2.086
2.32 -1.305 2.107
2.352 -1.293 2.128
2.392 -1.286 2.153
2.425 -1.273 2.174
2.466 -1.265 2.201
2.499 -1.251 2.221
2.539 -1.241 2.247
2.581 -1.231 2.274
2.623 -1.219 2.301
2.664 -1.207 2.327
2.706 -1.194 2.354
2.747 -1.18 2.38
2.796 -1.169 2.411
2.843 -1.156 2.442
2.891 -1.142 2.472
2.946 -1.13 2.507
2.994 -1.115 2.538
3.049 -1.101 2.573
3.105 -1.086 2.609
3.162 -1.071 2.645
3.221 -1.055 2.683
3.276 -1.037 2.718
3.35 -1.024 2.765
3.415 -1.006 2.807
3.472 -0.985 2.843
3.538 -0.965 2.886
3.613 -0.947 2.934
3.685 -0.926 2.98
3.765 -0.905 3.03
3.833 -0.881 3.074
3.918 -0.859 3.128
4.006 -0.835 3.184
4.088 -0.809 3.237
4.185 -0.784 3.299
4.284 -0.757 3.362
4.383 -0.729 3.426
4.481 -0.698 3.488
4.592 -0.667 3.559
4.718 -0.636 3.639
4.835 -0.601 3.714
4.957 -0.565 3.792
5.092 -0.527 3.878
5.239 -0.488 3.973
5.311 -0.439 4.018
5.297 -0.383 4.009
5.282 -0.328 4
5.275 -0.273 3.995
5.259 -0.217 3.985
5.252 -0.163 3.981
5.235 -0.108 3.97
5.227 -0.054 3.965
5.21 -0 3.954
5.2 0.054 3.948
5.192 0.107 3.943
5.183 0.161 3.937
5.171 0.214 3.929
5.162 0.267 3.923
5.14 0.319 3.909
5.137 0.372 3.907
5.12 0.424 3.896
5.116 0.476 3.894
5.103 0.528 3.885
5.092 0.58 3.879
5.078 0.632 3.87
5.073 0.684 3.867
5.053 0.734 3.854
5.049 0.787 3.851
5.033 0.837 3.841
5.023 0.888 3.834
5.019 0.94 3.832
5.002 0.99 3.821
4.99 1.041 3.813
4.98 1.092 3.807
4.967 1.142 3.799
4.956 1.193 3.792
4.943 1.243 3.783
4.931 1.293 3.776
4.917 1.343 3.766
4.911 1.395 3.763
4.905 1.447 3.759
4.903 1.5 3.758
4.886 1.549 3.747
4.874 1.599 3.739
4.862 1.649 3.732
4.855 1.701 3.727
4.841 1.751 3.718
4.834 1.803 3.714
4.821 1.853 3.705
4.807 1.903 3.697
4.8 1.955 3.692
4.792 2.008 3.687
4.778 2.057 3.678
4.769 2.109 3.672
4.761 2.162 3.667
4.754 2.215 3.662
4.736 2.264 3.651
4.726 2.316 3.644
4.63 2.325 3.583
4.39 2.258 3.43
4.195 2.209 3.305
4.002 2.156 3.182
3.817 2.104 3.064
3.657 2.062 2.962
3.515 2.026 2.871
3.368 1.984 2.777
3.225 1.941 2.685
3.106 1.91 2.61
2.995 1.88 2.538
2.891 1.853 2.472
2.787 1.824 2.406
2.687 1.794 2.342
2.589 1.764 2.279
2.508 1.743 2.228
2.429 1.721 2.177
2.35 1.698 2.126
2.287 1.685 2.086
2.21 1.66 2.037
2.148 1.644 1.998
2.086 1.627 1.958
2.031 1.614 1.923
1.968 1.593 1.882
1.912 1.577 1.847
1.862 1.563 1.814
1.811 1.548 1.782
1.765 1.537 1.753
1.719 1.524 1.724
1.675 1.512 1.695
1.63 1.498 1.667
1.593 1.49 1.643
1.555 1.48 1.619
1.517 1.469 1.594
1.479 1.458 1.57
1.441 1.446 1.546
1.404 1.433 1.522
1.381 1.434 1.507
1.344 1.421 1.484
1.31 1.409 1.462
1.282 1.402 1.444
1.253 1.394 1.425
1.224 1.386 1.407
1.195 1.377 1.389
1.173 1.375 1.375
1.145 1.365 1.357
1.116 1.354 1.338
1.095 1.351 1.325
1.073 1.347 1.311
1.046 1.335 1.293
1.026 1.332 1.28
1.004 1.327 1.267
0.983 1.322 1.253
0.963 1.317 1.24
0.942 1.311 1.227
0.662 0.932 1.048
0.509 0.724 0.95
0.445 0.643 0.91
0.437 0.641 0.904
0.428 0.639 0.898
0.415 0.63 0.89
0.405 0.626 0.884
0.395 0.621 0.877
0.385 0.616 0.871
0.38 0.619 0.868
0.374 0.62 0.864
0.364 0.613 0.857
0.357 0.613 0.853
0.347 0.607 0.847
0.339 0.605 0.842
0.33 0.598 0.836
0.324 0.599 0.832
0.316 0.595 0.827
0.304 0.582 0.819
0.301 0.589 0.817
0.291 0.58 0.811
0.289 0.586 0.809
0.283 0.587 0.806
0.271 0.571 0.798
0.267 0.574 0.795
0.259 0.569 0.791
0.255 0.571 0.788
0.245 0.559 0.781
0.24 0.561 0.779
0.232 0.553 0.773
0.226 0.55 0.769
0.222 0.552 0.767
0.216 0.55 0.763
0.211 0.55 0.76
0.204 0.541 0.755
0.2 0.545 0.753
0.193 0.537 0.748
0.19 0.541 0.746
0.183 0.534 0.742
0.179 0.536 0.739
0.175 0.538 0.737
0.169 0.53 0.733
0.162 0.523 0.729
0.158 0.524 0.726
0.152 0.515 0.722
0.148 0.517 0.72
0.145 0.521 0.717
0.139 0.512 0.713
0.135 0.514 0.711
0.131 0.515 0.709
0.126 0.51 0.705
0.122 0.511 0.703
0.116 0.502 0.699
0.113 0.504 0.697
0.109 0.505 0.695
0.104 0.496 0.691
0.1 0.499 0.689
0.096 0.498 0.686
0.093 0.498 0.684
0.086 0.48 0.68
0.084 0.49 0.679
0.079 0.482 0.675
0.075 0.482 0.673
0.072 0.482 0.671
0.068 0.476 0.668
0.064 0.477 0.666
0.061 0.477 0.664
0.057 0.478 0.661
0.054 0.48 0.659
0.049 0.469 0.656
0.046 0.468 0.654
0.042 0.467 0.652
0.039 0.466 0.65
0.035 0.461 0.647
0.032 0.459 0.645
0.028 0.458 0.643
0.025 0.441 0.641
0.021 0.426 0.638
0.018 0.403 0.636
0.015 0.376 0.634
0.015 -0.422 0.634
0.021 -0.837 0.638
0.028 -0.92 0.643
0.036 -0.965 0.648
0.044 -1.008 0.654
0.053 -1.056 0.66
0.063 -1.106 0.666
0.074 -1.164 0.673
0.086 -1.219 0.681
0.099 -1.285 0.69
0.114 -1.356 0.699
0.129 -1.42 0.709
0.146 -1.494 0.72
0.166 -1.586 0.733
0.188 -1.686 0.747
0.184 -1.537 0.745
0.181 -1.415 0.743
0.165 -1.198 0.732
0.169 -1.162 0.735
0.181 -1.184 0.742
0.188 -1.17 0.747
0.194 -1.155 0.751
0.201 -1.145 0.756
0.209 -1.139 0.761
0.216 -1.133 0.766
0.224 -1.128 0.771
0.233 -1.13 0.777
0.25 -1.172 0.788
0.285 -1.295 0.81
0.314 -1.379 0.829
0.339 -1.445 0.845
0.381 -1.574 0.872
0.393 -1.575 0.88
0.403 -1.562 0.886
0.416 -1.566 0.895
0.428 -1.565 0.903
0.44 -1.562 0.911
0.454 -1.567 0.92
0.466 -1.562 0.927
0.476 -1.553 0.934
0.486 -1.544 0.941
0.482 -1.492 0.938
0.432 -1.297 0.906
0.424 -1.24 0.901
0.445 -1.269 0.914
0.581 -1.632 1.003
0.638 -1.752 1.039
0.654 -1.753 1.05
0.667 -1.749 1.058
0.681 -1.743 1.067
0.696 -1.744 1.077
0.709 -1.737 1.086
0.722 -1.729 1.094
0.739 -1.732 1.105
0.751 -1.723 1.113
0.764 -1.716 1.121
0.78 -1.717 1.132
0.793 -1.71 1.14
0.809 -1.71 1.151
0.822 -1.702 1.159
0.839 -1.702 1.17
0.851 -1.694 1.178
0.868 -1.693 1.189
0.88 -1.685 1.197
0.898 -1.685 1.208
0.909 -1.675 1.216
0.927 -1.675 1.227
0.944 -1.674 1.238
0.955 -1.663 1.245
0.948 -1.619 1.241
0.953 -1.597 1.244
0.984 -1.621 1.264
0.993 -1.605 1.27
1.01 -1.604 1.281
1.022 -1.594 1.289
1.039 -1.591 1.3
1.055 -1.589 1.31
1.067 -1.578 1.318
1.083 -1.573 1.328
1.1 -1.569 1.339
1.112 -1.56 1.347
1.133 -1.562 1.361
1.146 -1.552 1.369
1.162 -1.546 1.379
1.178 -1.541 1.39
1.195 -1.536 1.401
1.21 -1.529 1.411
1.215 -1.509 1.414
1.238 -1.511 1.429
1.306 -1.567 1.473
1.323 -1.561 1.484
1.341 -1.554 1.496
1.365 -1.555 1.511
1.383 -1.548 1.523
1.4 -1.541 1.534
1.424 -1.54 1.55
1.442 -1.532 1.561
1.466 -1.531 1.577
1.483 -1.522 1.588
1.501 -1.514 1.6
1.525 -1.511 1.615
1.544 -1.503 1.628
1.568 -1.5 1.643
1.585 -1.49 1.654
1.61 -1.486 1.671
1.634 -1.482 1.686
1.658 -1.477 1.702
1.676 -1.466 1.713
1.7 -1.46 1.729
1.732 -1.461 1.75
1.75 -1.449 1.761
1.773 -1.441 1.776
1.797 -1.434 1.792
1.822 -1.426 1.808
1.852 -1.423 1.828
1.878 -1.416 1.845
1.901 -1.406 1.86
1.933 -1.402 1.88
1.964 -1.397 1.901
1.989 -1.387 1.917
2.022 -1.382 1.938
2.047 -1.371 1.954
2.078 -1.364 1.974
2.103 -1.352 1.991
2.135 -1.345 2.012
2.17 -1.338 2.034
2.203 -1.329 2.055
2.235 -1.32 2.076
2.275 -1.315 2.103
2.309 -1.305 2.124
2.341 -1.294 2.145
2.381 -1.286 2.171
2.413 -1.273 2.192
2.453 -1.264 2.218
2.487 -1.251 2.24
2.527 -1.241 2.266
2.569 -1.231 2.293
2.611 -1.219 2.32
2.652 -1.207 2.347
2.693 -1.194 2.374
2.742 -1.184 2.406
2.782 -1.169 2.432
2.83 -1.156 2.463
2.878 -1.142 2.494
2.931 -1.13 2.529
2.987 -1.117 2.565
3.034 -1.101 2.595
3.09 -1.086 2.632
3.147 -1.071 2.669
3.205 -1.055 2.707
3.269 -1.04 2.748
3.334 -1.024 2.79
3.39 -1.003 2.827
3.455 -0.985 2.869
3.521 -0.965 2.912
3.597 -0.947 2.961
3.668 -0.926 3.007
3.747 -0.905 3.058
3.822 -0.882 3.107
3.899 -0.858 3.157
3.986 -0.835 3.214
4.077 -0.811 3.273
4.165 -0.784 3.33
4.263 -0.757 3.393
4.362 -0.729 3.458
4.468 -0.699 3.527
4.578 -0.668 3.598
4.695 -0.636 3.674
4.813 -0.601 3.751
4.942 -0.566 3.834
5.069 -0.527 3.917
5.222 -0.489 4.016
5.294 -0.44 4.063
5.28 -0.384 4.054
5.266 -0.328 4.045
5.25 -0.273 4.034
5.244 -0.218 4.03
5.227 -0.163 4.019
5.219 -0.108 4.014
5.211 -0.054 4.009
5.194 -0 3.998
5.185 0.054 3.992
5.175 0.107 3.986
5.157 0.161 3.974
5.147 0.214 3.967
5.136 0.267 3.961
5.126 0.319 3.954
5.123 0.373 3.952
5.103 0.424 3.939
5.099 0.477 3.936
5.087 0.529 3.928
5.075 0.581 3.921
5.062 0.633 3.913
5.058 0.685 3.91
5.04 0.736 3.898
5.033 0.788 3.893
5.011 0.837 3.879
5.006 0.89 3.876
5.004 0.942 3.874
4.977 0.99 3.857
4.968 1.042 3.852
4.965 1.094 3.849
4.952 1.144 3.841
4.942 1.195 3.835
4.926 1.245 3.824
4.906 1.293 3.811
4.9 1.345 3.807
4.895 1.397 3.804
4.891 1.45 3.802
4.88 1.5 3.794
4.871 1.552 3.788
4.86 1.602 3.781
4.845 1.652 3.772
4.839 1.704 3.767
4.826 1.754 3.759
4.82 1.807 3.755
4.798 1.853 3.741
4.792 1.906 3.737
4.784 1.958 3.732
4.77 2.008 3.723
4.762 2.06 3.718
4.755 2.113 3.713
4.739 2.162 3.703
4.732 2.215 3.698
4.722 2.268 3.692
4.711 2.319 3.684
4.606 2.324 3.616
4.369 2.257 3.462
4.167 2.205 3.331
3.975 2.152 3.206
3.798 2.104 3.092
3.631 2.057 2.983
3.492 2.022 2.893
3.344 1.979 2.797
3.211 1.942 2.71
3.091 1.91 2.633
2.98 1.88 2.56
2.87 1.849 2.489
2.775 1.824 2.427
2.668 1.79 2.358
2.579 1.766 2.3
2.497 1.743 2.246
2.418 1.722 2.195
2.339 1.699 2.144
2.269 1.68 2.099
2.2 1.66 2.054
2.139 1.645 2.014
2.076 1.627 1.973
2.012 1.607 1.932
1.958 1.593 1.897
1.904 1.577 1.861
1.853 1.564 1.829
1.802 1.549 1.796
1.757 1.537 1.766
1.712 1.525 1.737
1.667 1.512 1.708
1.623 1.499 1.679
1.585 1.49 1.654
1.547 1.48 1.63
1.502 1.462 1.601
1.472 1.458 1.581
1.435 1.446 1.557
1.404 1.44 1.537
1.368 1.427 1.513
1.338 1.421 1.494
1.304 1.409 1.472
1.275 1.402 1.453
1.246 1.393 1.434
1.218 1.386 1.416
1.19 1.377 1.398
1.161 1.368 1.379
1.14 1.365 1.365
1.111 1.354 1.347
1.09 1.351 1.333
1.062 1.34 1.315
1.041 1.336 1.301
1.021 1.332 1.288
1 1.328 1.274
0.979 1.322 1.261
0.953 1.31 1.244
0.936 1.31 1.233
0.642 0.907 1.042
0.5 0.714 0.949
0.448 0.65 0.916
0.435 0.642 0.908
0.427 0.641 0.902
0.415 0.634 0.895
0.406 0.63 0.888
0.39 0.616 0.878
0.39 0.627 0.878
0.379 0.621 0.871
0.37 0.616 0.865
0.362 0.613 0.86
0.353 0.61 0.855
0.345 0.607 0.849
0.337 0.603 0.844
0.328 0.598 0.838
0.323 0.6 0.835
0.311 0.588 0.827
0.307 0.591 0.824
0.298 0.585 0.819
0.29 0.581 0.814
0.284 0.579 0.809
0.277 0.577 0.805
0.272 0.578 0.802
0.264 0.572 0.797
0.257 0.568 0.792
0.25 0.562 0.787
0.243 0.559 0.783
0.238 0.56 0.78
0.231 0.553 0.775
0.225 0.55 0.771
0.221 0.552 0.768
0.215 0.55 0.765
0.21 0.55 0.762
0.203 0.541 0.757
0.199 0.544 0.754
0.195 0.546 0.752
0.189 0.541 0.748
0.182 0.533 0.743
0.178 0.535 0.74
0.171 0.528 0.736
0.168 0.53 0.734
0.162 0.524 0.73
0.158 0.525 0.727
0.153 0.525 0.725
0.149 0.526 0.722
0.144 0.521 0.718
0.138 0.512 0.715
0.134 0.514 0.712
0.13 0.516 0.71
0.125 0.51 0.706
0.119 0.502 0.703
0.116 0.503 0.7
0.112 0.504 0.698
0.107 0.495 0.694
0.103 0.496 0.692
0.099 0.497 0.69
0.096 0.498 0.687
0.091 0.489 0.684
0.088 0.499 0.682
0.083 0.491 0.679
0.08 0.491 0.677
0.075 0.483 0.674
0.071 0.482 0.671
0.067 0.476 0.669
0.065 0.486 0.667
0.06 0.478 0.664
0.057 0.478 0.662
0.053 0.479 0.66
0.05 0.479 0.657
0.045 0.469 0.655
0.042 0.467 0.652
0.038 0.465 0.65
0.035 0.471 0.648
0.031 0.461 0.645
0.028 0.459 0.643
0.024 0.452 0.641
0.021 0.426 0.639
0.018 0.405 0.636
0.015 0.366 0.634
0.014 -0.421 0.635
0.02 -0.835 0.639
0.028 -0.913 0.643
0.036 -0.965 0.648
0.044 -1.009 0.654
0.053 -1.048 0.66
0.063 -1.105 0.666
0.074 -1.164 0.674
0.086 -1.224 0.682
0.099 -1.287 0.69
0.113 -1.354 0.7
0.129 -1.419 0.71
0.146 -1.494 0.721
0.166 -1.587 0.734
0.187 -1.685 0.748
0.186 -1.562 0.747
0.182 -1.424 0.744
0.163 -1.188 0.732
0.166 -1.145 0.734
0.178 -1.173 0.742
0.186 -1.161 0.747
0.192 -1.145 0.751
0.199 -1.136 0.756
0.208 -1.136 0.761
0.215 -1.129 0.766
0.222 -1.123 0.771
0.233 -1.134 0.778
0.264 -1.244 0.798
0.294 -1.342 0.818
0.32 -1.412 0.835
0.355 -1.519 0.858
0.379 -1.574 0.874
0.389 -1.564 0.881
0.401 -1.561 0.888
0.414 -1.565 0.897
0.426 -1.563 0.905
0.438 -1.56 0.913
0.45 -1.556 0.92
0.461 -1.551 0.928
0.474 -1.553 0.936
0.49 -1.562 0.947
0.487 -1.511 0.945
0.433 -1.305 0.91
0.426 -1.249 0.905
0.443 -1.269 0.916
0.573 -1.614 1.001
0.635 -1.75 1.042
0.651 -1.751 1.052
0.664 -1.746 1.061
0.677 -1.74 1.07
0.69 -1.733 1.078
0.706 -1.734 1.088
0.719 -1.727 1.097
0.735 -1.729 1.108
0.748 -1.722 1.116
0.76 -1.714 1.124
0.777 -1.716 1.135
0.789 -1.708 1.143
0.806 -1.708 1.154
0.818 -1.7 1.162
0.835 -1.701 1.174
0.847 -1.691 1.181
0.864 -1.691 1.192
0.877 -1.683 1.201
0.893 -1.682 1.211
0.905 -1.673 1.22
0.923 -1.673 1.231
0.939 -1.672 1.242
0.952 -1.662 1.25
0.949 -1.628 1.249
0.95 -1.599 1.249
0.976 -1.614 1.266
0.994 -1.612 1.278
1.006 -1.603 1.286
1.024 -1.602 1.297
1.035 -1.591 1.305
1.047 -1.581 1.312
1.063 -1.578 1.323
1.08 -1.574 1.334
1.095 -1.569 1.344
1.113 -1.566 1.356
1.125 -1.556 1.364
1.141 -1.55 1.374
1.157 -1.545 1.385
1.174 -1.541 1.396
1.19 -1.534 1.406
1.204 -1.526 1.415
1.206 -1.502 1.417
1.233 -1.509 1.434
1.295 -1.558 1.475
1.318 -1.559 1.49
1.334 -1.552 1.501
1.36 -1.554 1.518
1.376 -1.546 1.529
1.394 -1.539 1.541
1.417 -1.538 1.556
1.436 -1.531 1.568
1.459 -1.529 1.583
1.477 -1.521 1.595
1.495 -1.513 1.607
1.519 -1.51 1.622
1.537 -1.501 1.634
1.562 -1.499 1.651
1.585 -1.495 1.666
1.603 -1.485 1.678
1.627 -1.48 1.693
1.651 -1.475 1.709
1.675 -1.47 1.725
1.694 -1.459 1.737
1.718 -1.453 1.753
1.742 -1.447 1.769
1.766 -1.44 1.784
1.79 -1.433 1.8
1.814 -1.425 1.816
1.846 -1.423 1.837
1.871 -1.415 1.853
1.901 -1.41 1.873
1.925 -1.401 1.889
1.957 -1.396 1.91
1.981 -1.386 1.926
2.015 -1.382 1.948
2.038 -1.37 1.964
2.07 -1.363 1.984
2.102 -1.356 2.005
2.135 -1.349 2.027
2.168 -1.341 2.049
2.201 -1.333 2.07
2.234 -1.324 2.092
2.259 -1.309 2.108
2.299 -1.304 2.135
2.332 -1.293 2.156
2.372 -1.285 2.182
2.404 -1.273 2.203
2.444 -1.264 2.23
2.485 -1.255 2.257
2.518 -1.241 2.278
2.56 -1.23 2.306
2.601 -1.219 2.333
2.642 -1.207 2.36
2.684 -1.194 2.387
2.724 -1.18 2.413
2.772 -1.168 2.445
2.819 -1.155 2.476
2.874 -1.145 2.512
2.921 -1.13 2.543
2.976 -1.117 2.579
3.023 -1.1 2.61
3.079 -1.086 2.647
3.136 -1.071 2.684
3.194 -1.055 2.722
3.258 -1.04 2.764
3.321 -1.023 2.806
3.386 -1.006 2.848
3.451 -0.987 2.891
3.517 -0.967 2.934
3.583 -0.946 2.978
3.655 -0.926 3.025
3.733 -0.905 3.076
3.801 -0.881 3.121
3.893 -0.86 3.181
3.973 -0.835 3.234
4.062 -0.81 3.292
4.159 -0.785 3.356
4.257 -0.759 3.42
4.348 -0.729 3.48
4.453 -0.699 3.549
4.562 -0.668 3.62
4.688 -0.637 3.703
4.804 -0.602 3.779
4.925 -0.566 3.859
5.06 -0.528 3.947
5.204 -0.489 4.042
5.275 -0.44 4.089
5.271 -0.385 4.086
5.256 -0.329 4.076
5.241 -0.273 4.066
5.226 -0.218 4.056
5.218 -0.163 4.051
5.211 -0.109 4.046
5.194 -0.054 4.035
5.185 -0 4.029
5.177 0.054 4.024
5.158 0.107 4.012
5.149 0.161 4.006
5.139 0.214 3.999
5.128 0.267 3.992
5.117 0.32 3.985
5.107 0.373 3.978
5.094 0.425 3.969
5.081 0.477 3.961
5.071 0.529 3.954
5.059 0.581 3.947
5.045 0.633 3.937
5.042 0.685 3.935
5.029 0.737 3.927
5.014 0.787 3.917
5.002 0.839 3.909
4.997 0.891 3.906
4.986 0.942 3.899
4.968 0.992 3.887
4.959 1.043 3.881
4.948 1.094 3.874
4.938 1.145 3.867
4.927 1.196 3.86
4.917 1.247 3.854
4.895 1.294 3.839
4.892 1.347 3.837
4.886 1.399 3.833
4.875 1.45 3.826
4.871 1.503 3.823
4.856 1.552 3.813
4.851 1.604 3.81
4.836 1.654 3.8
4.823 1.704 3.792
4.808 1.753 3.782
4.803 1.806 3.779
4.791 1.857 3.771
4.783 1.909 3.765
4.768 1.958 3.756
4.76 2.011 3.751
4.746 2.06 3.741
4.746 2.116 3.741
4.731 2.166 3.731
4.715 2.215 3.721
4.706 2.267 3.715
4.702 2.323 3.712
4.583 2.32 3.634
4.347 2.254 3.479
4.153 2.205 3.352
3.96 2.151 3.225
3.777 2.099 3.105
3.619 2.057 3.001
3.479 2.021 2.909
3.332 1.979 2.813
3.191 1.936 2.72
3.081 1.91 2.648
2.97 1.88 2.575
2.86 1.849 2.503
2.758 1.819 2.436
2.658 1.789 2.371
2.568 1.764 2.311
2.488 1.743 2.259
2.409 1.721 2.207
2.33 1.698 2.155
2.261 1.679 2.11
2.191 1.659 2.064
2.131 1.644 2.024
2.068 1.626 1.983
2.014 1.614 1.948
1.952 1.593 1.906
1.897 1.577 1.87
1.846 1.563 1.837
1.795 1.548 1.804
1.749 1.536 1.774
1.705 1.524 1.745
1.661 1.512 1.716
1.616 1.497 1.686
1.579 1.489 1.662
1.542 1.48 1.637
1.496 1.461 1.607
1.465 1.457 1.587
1.429 1.445 1.563
1.398 1.439 1.543
1.362 1.426 1.519
1.333 1.42 1.5
1.299 1.408 1.478
1.27 1.401 1.459
1.242 1.393 1.44
1.213 1.385 1.422
1.185 1.376 1.403
1.163 1.374 1.389
1.135 1.364 1.37
1.107 1.353 1.352
1.086 1.351 1.338
1.058 1.339 1.32
1.037 1.335 1.306
1.016 1.331 1.292
0.989 1.318 1.275
0.97 1.315 1.262
0.949 1.309 1.248
0.933 1.31 1.238
0.627 0.89 1.037
0.494 0.709 0.95
0.442 0.643 0.915
0.433 0.641 0.91
0.424 0.639 0.904
0.41 0.629 0.895
0.404 0.63 0.891
0.395 0.626 0.884
0.388 0.626 0.88
0.382 0.627 0.876
0.369 0.616 0.867
0.358 0.61 0.86
0.351 0.609 0.856
0.343 0.606 0.85
0.336 0.603 0.845
0.327 0.598 0.84
0.318 0.593 0.834
0.313 0.595 0.831
0.304 0.588 0.825
0.297 0.585 0.82
0.289 0.58 0.815
0.283 0.58 0.811
0.276 0.576 0.806
0.269 0.572 0.802
0.264 0.574 0.799
0.256 0.567 0.793
0.252 0.569 0.79
0.245 0.566 0.786
0.238 0.56 0.781
0.233 0.56 0.778
0.223 0.548 0.772
0.219 0.55 0.769
0.214 0.55 0.766
0.209 0.55 0.763
0.202 0.542 0.758
0.198 0.544 0.755
0.192 0.539 0.751
0.188 0.541 0.748
0.183 0.54 0.745
0.177 0.536 0.742
0.171 0.529 0.737
0.167 0.53 0.735
0.161 0.523 0.731
0.156 0.523 0.728
0.152 0.524 0.725
0.147 0.517 0.721
0.143 0.52 0.719
0.139 0.521 0.717
0.133 0.514 0.713
0.129 0.514 0.71
0.124 0.508 0.707
0.119 0.502 0.703
0.117 0.512 0.702
0.111 0.503 0.698
0.108 0.504 0.696
0.103 0.496 0.692
0.099 0.498 0.69
0.094 0.49 0.687
0.092 0.499 0.685
0.087 0.489 0.682
0.083 0.49 0.68
0.08 0.492 0.677
0.075 0.482 0.674
0.071 0.482 0.672
0.067 0.475 0.669
0.063 0.477 0.667
0.06 0.478 0.664
0.056 0.478 0.662
0.053 0.479 0.66
0.049 0.479 0.658
0.045 0.469 0.655
0.042 0.466 0.652
0.039 0.475 0.651
0.035 0.471 0.648
0.031 0.46 0.646
0.028 0.458 0.643
0.024 0.441 0.641
0.021 0.427 0.639
0.017 0.403 0.636
0.014 0.37 0.635
0.014 -0.431 0.635
0.02 -0.82 0.639
0.027 -0.915 0.644
0.035 -0.965 0.649
0.043 -1.009 0.654
0.053 -1.059 0.66
0.062 -1.103 0.667
0.073 -1.159 0.674
0.085 -1.219 0.682
0.098 -1.284 0.691
0.113 -1.354 0.7
0.127 -1.409 0.71
0.145 -1.494 0.722
0.164 -1.586 0.735
0.186 -1.686 0.75
0.199 -1.69 0.758
0.182 -1.432 0.746
0.162 -1.188 0.733
0.165 -1.147 0.735
0.177 -1.173 0.744
0.183 -1.152 0.747
0.19 -1.143 0.752
0.198 -1.138 0.757
0.206 -1.134 0.763
0.215 -1.139 0.769
0.223 -1.133 0.774
0.235 -1.149 0.782
0.272 -1.29 0.807
0.299 -1.371 0.824
0.329 -1.465 0.845
0.363 -1.566 0.867
0.376 -1.567 0.876
0.387 -1.563 0.883
0.399 -1.56 0.891
0.413 -1.566 0.9
0.424 -1.563 0.908
0.436 -1.56 0.916
0.447 -1.553 0.923
0.459 -1.553 0.931
0.475 -1.566 0.942
0.498 -1.599 0.958
0.493 -1.54 0.954
0.436 -1.322 0.916
0.423 -1.249 0.908
0.441 -1.269 0.919
0.57 -1.614 1.006
0.632 -1.749 1.047
0.647 -1.75 1.057
0.661 -1.746 1.066
0.673 -1.739 1.074
0.686 -1.733 1.083
0.702 -1.734 1.094
0.715 -1.727 1.102
0.731 -1.729 1.113
0.744 -1.721 1.121
0.756 -1.713 1.129
0.773 -1.715 1.141
0.789 -1.716 1.152
0.802 -1.708 1.16
0.818 -1.708 1.171
0.831 -1.701 1.18
0.843 -1.691 1.187
0.86 -1.691 1.199
0.872 -1.682 1.207
0.888 -1.682 1.218
0.905 -1.682 1.229
0.918 -1.673 1.238
0.934 -1.671 1.248
0.946 -1.661 1.256
0.945 -1.628 1.255
0.942 -1.592 1.253
0.972 -1.614 1.274
0.989 -1.612 1.285
1.001 -1.603 1.293
1.013 -1.594 1.301
1.03 -1.591 1.312
1.047 -1.589 1.323
1.058 -1.578 1.331
1.074 -1.573 1.341
1.09 -1.569 1.353
1.107 -1.565 1.363
1.123 -1.561 1.374
1.135 -1.549 1.382
1.157 -1.553 1.397
1.173 -1.546 1.407
1.176 -1.524 1.41
1.19 -1.516 1.419
1.207 -1.511 1.43
1.22 -1.501 1.439
1.288 -1.558 1.484
1.311 -1.559 1.5
1.334 -1.56 1.515
1.352 -1.553 1.527
1.37 -1.546 1.539
1.387 -1.539 1.55
1.41 -1.538 1.566
1.435 -1.538 1.582
1.452 -1.529 1.593
1.47 -1.521 1.605
1.494 -1.519 1.622
1.518 -1.517 1.638
1.529 -1.501 1.645
1.554 -1.498 1.661
1.577 -1.495 1.677
1.596 -1.486 1.69
1.619 -1.48 1.705
1.643 -1.475 1.721
1.667 -1.47 1.737
1.685 -1.459 1.749
1.716 -1.459 1.77
1.734 -1.447 1.781
1.757 -1.44 1.797
1.781 -1.433 1.813
1.812 -1.43 1.834
1.836 -1.422 1.85
1.862 -1.415 1.867
1.886 -1.406 1.883
1.916 -1.401 1.903
1.946 -1.395 1.923
1.978 -1.39 1.944
2.004 -1.381 1.962
2.036 -1.375 1.983
2.059 -1.363 1.999
2.092 -1.356 2.021
2.124 -1.348 2.042
2.158 -1.341 2.064
2.19 -1.333 2.086
2.222 -1.323 2.108
2.255 -1.314 2.129
2.288 -1.304 2.151
2.327 -1.297 2.178
2.359 -1.285 2.199
2.4 -1.277 2.226
2.433 -1.264 2.248
2.473 -1.255 2.275
2.506 -1.241 2.297
2.547 -1.23 2.324
2.588 -1.219 2.351
2.629 -1.207 2.379
2.67 -1.194 2.406
2.718 -1.183 2.438
2.764 -1.171 2.469
2.805 -1.155 2.496
2.86 -1.145 2.533
2.907 -1.13 2.564
2.962 -1.117 2.601
3.017 -1.103 2.637
3.064 -1.086 2.669
3.121 -1.071 2.707
3.178 -1.055 2.745
3.241 -1.039 2.787
3.305 -1.023 2.83
3.37 -1.006 2.873
3.435 -0.987 2.916
3.5 -0.967 2.959
3.573 -0.948 3.008
3.646 -0.928 3.057
3.714 -0.905 3.103
3.79 -0.882 3.153
3.874 -0.86 3.209
3.954 -0.835 3.263
4.044 -0.811 3.322
4.14 -0.785 3.386
4.244 -0.76 3.456
4.335 -0.73 3.517
4.431 -0.699 3.581
4.549 -0.669 3.659
4.665 -0.637 3.736
4.781 -0.602 3.814
4.911 -0.567 3.901
5.044 -0.529 3.989
5.178 -0.488 4.079
5.259 -0.441 4.133
5.246 -0.385 4.124
5.231 -0.329 4.114
5.225 -0.273 4.11
5.209 -0.218 4.099
5.202 -0.163 4.095
5.185 -0.109 4.084
5.178 -0.054 4.079
5.169 -0 4.073
5.152 0.054 4.061
5.142 0.108 4.055
5.132 0.161 4.048
5.122 0.214 4.042
5.112 0.268 4.035
5.101 0.32 4.028
5.09 0.373 4.02
5.08 0.426 4.013
5.065 0.478 4.003
5.054 0.53 3.996
5.042 0.582 3.988
5.029 0.634 3.979
5.026 0.686 3.977
5.011 0.738 3.968
4.999 0.789 3.959
4.986 0.84 3.951
4.981 0.892 3.947
4.971 0.944 3.941
4.948 0.992 3.925
4.937 1.043 3.918
4.93 1.095 3.914
4.922 1.147 3.908
4.911 1.198 3.901
4.893 1.247 3.889
4.883 1.297 3.882
4.875 1.349 3.877
4.869 1.401 3.873
4.86 1.452 3.867
4.854 1.505 3.863
4.84 1.554 3.853
4.828 1.605 3.846
4.822 1.657 3.841
4.808 1.707 3.832
4.795 1.757 3.823
4.787 1.809 3.818
4.775 1.859 3.81
4.768 1.912 3.805
4.753 1.961 3.795
4.747 2.015 3.791
4.732 2.064 3.781
4.723 2.116 3.775
4.715 2.169 3.77
4.699 2.218 3.76
4.69 2.271 3.753
4.687 2.326 3.751
4.55 2.314 3.66
4.318 2.249 3.505
4.126 2.2 3.377
3.933 2.146 3.248
3.76 2.1 3.133
3.601 2.057 3.027
3.455 2.017 2.93
3.309 1.975 2.833
3.177 1.937 2.744
3.058 1.905 2.665
2.955 1.88 2.596
2.846 1.849 2.524
2.744 1.819 2.456
2.646 1.79 2.39
2.558 1.766 2.331
2.469 1.738 2.272
2.391 1.717 2.22
2.319 1.698 2.172
2.25 1.679 2.126
2.181 1.659 2.08
2.121 1.644 2.04
2.058 1.626 1.998
2.005 1.614 1.962
1.942 1.593 1.921
1.881 1.571 1.88
1.83 1.557 1.846
1.787 1.548 1.817
1.741 1.536 1.786
1.69 1.518 1.753
1.652 1.511 1.727
1.608 1.497 1.698
1.572 1.489 1.673
1.526 1.472 1.643
1.496 1.468 1.623
1.458 1.457 1.598
1.422 1.445 1.573
1.385 1.432 1.549
1.356 1.427 1.529
1.326 1.42 1.51
1.292 1.408 1.487
1.264 1.401 1.468
1.235 1.393 1.449
1.207 1.385 1.431
1.179 1.376 1.412
1.157 1.374 1.397
1.129 1.364 1.378
1.101 1.353 1.36
1.08 1.35 1.345
1.053 1.339 1.328
1.031 1.334 1.313
1.011 1.331 1.3
0.99 1.326 1.286
0.97 1.321 1.272
0.949 1.316 1.258
0.929 1.31 1.245
0.612 0.871 1.033
0.482 0.695 0.947
0.439 0.643 0.918
0.431 0.641 0.912
0.424 0.643 0.908
0.406 0.625 0.896
0.397 0.622 0.89
0.393 0.626 0.887
0.381 0.618 0.879
0.375 0.619 0.875
0.368 0.62 0.871
0.359 0.615 0.865
0.349 0.609 0.858
0.341 0.606 0.853
0.333 0.602 0.848
0.325 0.597 0.842
0.316 0.592 0.836
0.31 0.591 0.832
0.304 0.591 0.828
0.295 0.585 0.822
0.288 0.581 0.817
0.28 0.576 0.812
0.273 0.573 0.807
0.269 0.577 0.805
0.261 0.569 0.799
0.254 0.567 0.795
0.249 0.567 0.792
0.24 0.557 0.785
0.235 0.558 0.782
0.228 0.551 0.777
0.222 0.549 0.773
0.215 0.543 0.769
0.212 0.546 0.766
0.208 0.549 0.764
0.201 0.541 0.759
0.197 0.544 0.757
0.19 0.537 0.752
0.187 0.541 0.75
0.18 0.532 0.745
0.176 0.534 0.742
0.172 0.535 0.74
0.166 0.529 0.736
0.16 0.523 0.732
0.156 0.525 0.729
0.152 0.525 0.727
0.145 0.516 0.722
0.142 0.52 0.72
0.136 0.511 0.716
0.133 0.514 0.714
0.129 0.515 0.711
0.123 0.508 0.708
0.118 0.502 0.704
0.115 0.503 0.702
0.111 0.504 0.699
0.105 0.495 0.696
0.102 0.496 0.693
0.098 0.498 0.691
0.093 0.49 0.688
0.09 0.49 0.685
0.086 0.489 0.683
0.082 0.49 0.68
0.078 0.481 0.677
0.074 0.483 0.675
0.071 0.482 0.672
0.067 0.485 0.67
0.063 0.477 0.667
0.059 0.478 0.665
0.056 0.478 0.663
0.052 0.469 0.66
0.048 0.469 0.657
0.045 0.468 0.655
0.041 0.466 0.653
0.038 0.465 0.65
0.034 0.461 0.648
0.031 0.459 0.646
0.027 0.458 0.644
0.024 0.442 0.641
0.02 0.427 0.639
0.017 0.401 0.637
0.014 0.374 0.635
0.014 -0.421 0.635
0.02 -0.834 0.639
0.027 -0.912 0.644
0.035 -0.964 0.649
0.043 -1.008 0.654
0.052 -1.053 0.66
0.062 -1.098 0.667
0.073 -1.16 0.674
0.085 -1.22 0.682
0.098 -1.282 0.691
0.112 -1.345 0.701
0.126 -1.408 0.711
0.144 -1.494 0.723
0.163 -1.574 0.735
0.185 -1.683 0.75
0.204 -1.741 0.763
0.181 -1.432 0.747
0.162 -1.194 0.734
0.166 -1.157 0.737
0.174 -1.157 0.743
0.182 -1.149 0.748
0.19 -1.145 0.753
0.197 -1.138 0.758
0.205 -1.13 0.763
0.214 -1.133 0.769
0.225 -1.148 0.777
0.233 -1.147 0.783
0.279 -1.33 0.813
0.302 -1.391 0.829
0.342 -1.528 0.856
0.364 -1.575 0.871
0.374 -1.566 0.878
0.386 -1.564 0.885
0.399 -1.57 0.895
0.411 -1.565 0.902
0.423 -1.563 0.91
0.434 -1.56 0.918
0.445 -1.553 0.925
0.457 -1.551 0.933
0.478 -1.582 0.948
0.499 -1.606 0.962
0.503 -1.578 0.965
0.437 -1.329 0.92
0.421 -1.247 0.909
0.439 -1.269 0.921
0.557 -1.581 1.001
0.632 -1.755 1.051
0.644 -1.748 1.06
0.658 -1.744 1.069
0.67 -1.737 1.077
0.687 -1.74 1.088
0.699 -1.733 1.097
0.712 -1.727 1.106
0.728 -1.728 1.116
0.741 -1.721 1.125
0.757 -1.722 1.136
0.77 -1.714 1.144
0.785 -1.714 1.155
0.798 -1.706 1.163
0.81 -1.697 1.172
0.827 -1.698 1.183
0.84 -1.691 1.191
0.856 -1.69 1.203
0.868 -1.681 1.211
0.885 -1.681 1.222
0.901 -1.679 1.233
0.914 -1.671 1.241
0.931 -1.67 1.253
0.943 -1.661 1.261
0.941 -1.628 1.26
0.939 -1.593 1.258
0.968 -1.614 1.278
0.985 -1.612 1.289
0.998 -1.604 1.298
1.014 -1.601 1.309
1.026 -1.591 1.317
1.043 -1.588 1.328
1.054 -1.577 1.336
1.07 -1.572 1.346
1.085 -1.567 1.357
1.102 -1.564 1.369
1.119 -1.56 1.38
1.136 -1.556 1.391
1.147 -1.544 1.399
1.157 -1.531 1.405
1.168 -1.52 1.413
1.188 -1.519 1.427
1.195 -1.502 1.431
1.222 -1.508 1.449
1.282 -1.556 1.49
1.306 -1.558 1.506
1.329 -1.558 1.521
1.346 -1.552 1.533
1.363 -1.544 1.544
1.381 -1.538 1.557
1.405 -1.537 1.572
1.422 -1.529 1.584
1.44 -1.521 1.596
1.464 -1.521 1.613
1.481 -1.511 1.624
1.505 -1.509 1.64
1.523 -1.501 1.652
1.546 -1.497 1.668
1.571 -1.494 1.685
1.589 -1.484 1.696
1.612 -1.479 1.713
1.636 -1.474 1.729
1.66 -1.469 1.745
1.684 -1.464 1.761
1.709 -1.458 1.778
1.733 -1.452 1.794
1.757 -1.445 1.81
1.774 -1.432 1.821
1.805 -1.43 1.843
1.828 -1.421 1.858
1.854 -1.414 1.876
1.885 -1.41 1.896
1.909 -1.4 1.912
1.939 -1.395 1.933
1.964 -1.385 1.949
1.997 -1.38 1.971
2.027 -1.374 1.992
2.052 -1.362 2.009
2.083 -1.355 2.03
2.116 -1.348 2.052
2.149 -1.34 2.074
2.181 -1.332 2.096
2.214 -1.323 2.118
2.246 -1.313 2.14
2.279 -1.303 2.162
2.319 -1.296 2.189
2.351 -1.284 2.21
2.383 -1.272 2.232
2.423 -1.263 2.259
2.464 -1.254 2.287
2.496 -1.24 2.308
2.538 -1.23 2.336
2.577 -1.218 2.363
2.619 -1.206 2.391
2.668 -1.197 2.424
2.707 -1.182 2.451
2.754 -1.17 2.482
2.795 -1.155 2.51
2.849 -1.144 2.546
2.895 -1.129 2.578
2.951 -1.117 2.615
3.005 -1.103 2.651
3.052 -1.086 2.683
3.11 -1.071 2.722
3.166 -1.054 2.76
3.23 -1.039 2.803
3.301 -1.025 2.851
3.357 -1.005 2.889
3.422 -0.987 2.933
3.487 -0.967 2.976
3.561 -0.948 3.026
3.632 -0.927 3.074
3.701 -0.905 3.121
3.775 -0.882 3.171
3.86 -0.86 3.228
3.947 -0.836 3.287
4.036 -0.812 3.346
4.132 -0.787 3.412
4.228 -0.76 3.476
4.319 -0.73 3.537
4.424 -0.7 3.608
4.531 -0.669 3.68
4.647 -0.637 3.759
4.764 -0.602 3.837
4.891 -0.566 3.923
5.026 -0.529 4.014
5.168 -0.489 4.11
5.24 -0.441 4.158
5.234 -0.385 4.155
5.22 -0.329 4.145
5.214 -0.274 4.141
5.198 -0.218 4.13
5.192 -0.164 4.126
5.175 -0.109 4.115
5.166 -0.054 4.109
5.158 -0 4.103
5.141 0.054 4.092
5.123 0.108 4.08
5.122 0.161 4.079
5.113 0.215 4.072
5.102 0.268 4.065
5.082 0.32 4.052
5.071 0.373 4.045
5.061 0.426 4.038
5.055 0.479 4.034
5.043 0.531 4.026
5.031 0.583 4.018
5.018 0.634 4.009
5.007 0.686 4.001
4.993 0.737 3.992
4.988 0.79 3.989
4.976 0.841 3.981
4.969 0.893 3.976
4.953 0.943 3.965
4.941 0.994 3.957
4.927 1.045 3.947
4.92 1.097 3.943
4.906 1.147 3.933
4.894 1.197 3.925
4.889 1.25 3.922
4.862 1.296 3.904
4.865 1.351 3.905
4.859 1.403 3.902
4.843 1.452 3.891
4.837 1.504 3.887
4.83 1.557 3.882
4.817 1.607 3.874
4.803 1.656 3.864
4.797 1.709 3.859
4.784 1.759 3.851
4.778 1.811 3.847
4.766 1.862 3.839
4.75 1.911 3.828
4.744 1.964 3.824
4.736 2.017 3.819
4.721 2.066 3.809
4.713 2.119 3.803
4.698 2.168 3.793
4.69 2.221 3.787
4.681 2.274 3.782
4.668 2.325 3.773
4.532 2.313 3.681
4.302 2.249 3.526
4.11 2.2 3.397
3.912 2.143 3.263
3.739 2.095 3.146
3.58 2.051 3.039
3.442 2.017 2.946
3.297 1.974 2.848
3.157 1.932 2.754
3.047 1.904 2.68
2.938 1.875 2.606
2.828 1.843 2.532
2.733 1.818 2.468
2.629 1.785 2.398
2.539 1.759 2.337
2.459 1.737 2.283
2.382 1.716 2.231
2.311 1.698 2.183
2.242 1.679 2.137
2.173 1.659 2.09
2.113 1.644 2.05
2.05 1.625 2.008
1.987 1.605 1.965
1.928 1.587 1.925
1.874 1.57 1.889
1.824 1.557 1.855
1.779 1.546 1.825
1.728 1.53 1.791
1.69 1.523 1.765
1.639 1.504 1.73
1.602 1.497 1.706
1.558 1.482 1.676
1.528 1.478 1.655
1.483 1.46 1.625
1.453 1.456 1.605
1.416 1.444 1.58
1.379 1.432 1.555
1.349 1.425 1.535
1.321 1.419 1.516
1.287 1.407 1.493
1.259 1.4 1.474
1.225 1.386 1.451
1.196 1.377 1.432
1.174 1.375 1.417
1.146 1.365 1.398
1.125 1.363 1.384
1.097 1.352 1.365
1.074 1.348 1.35
1.048 1.338 1.332
1.028 1.334 1.318
1.007 1.33 1.304
0.986 1.326 1.29
0.961 1.314 1.273
0.94 1.308 1.259
0.924 1.308 1.249
0.606 0.867 1.034
0.48 0.695 0.949
0.437 0.642 0.92
0.428 0.639 0.914
0.414 0.629 0.905
0.411 0.636 0.903
0.4 0.629 0.895
0.391 0.625 0.889
0.377 0.615 0.88
0.372 0.616 0.876
0.366 0.617 0.872
0.357 0.613 0.866
0.348 0.61 0.86
0.339 0.603 0.854
0.332 0.601 0.849
0.323 0.597 0.843
0.315 0.592 0.837
0.308 0.591 0.833
0.302 0.589 0.829
0.294 0.585 0.823
0.286 0.581 0.818
0.279 0.577 0.814
0.272 0.572 0.808
0.268 0.576 0.806
0.26 0.569 0.8
0.253 0.566 0.796
0.248 0.566 0.792
0.238 0.555 0.786
0.236 0.561 0.784
0.226 0.549 0.778
0.221 0.547 0.774
0.218 0.553 0.772
0.213 0.551 0.769
0.207 0.548 0.765
0.2 0.54 0.76
0.196 0.542 0.757
0.189 0.537 0.753
0.186 0.541 0.751
0.179 0.532 0.746
0.175 0.535 0.744
0.171 0.536 0.741
0.164 0.526 0.736
0.161 0.53 0.734
0.155 0.524 0.73
0.148 0.514 0.725
0.144 0.514 0.723
0.14 0.515 0.72
0.137 0.517 0.718
0.132 0.513 0.714
0.128 0.514 0.712
0.123 0.508 0.708
0.119 0.51 0.706
0.114 0.502 0.702
0.11 0.502 0.7
0.105 0.494 0.696
0.101 0.496 0.694
0.098 0.497 0.691
0.093 0.489 0.688
0.089 0.489 0.685
0.085 0.488 0.683
0.082 0.489 0.681
0.078 0.49 0.678
0.074 0.481 0.675
0.07 0.479 0.672
0.066 0.474 0.67
0.062 0.475 0.667
0.059 0.477 0.665
0.055 0.467 0.662
0.052 0.478 0.66
0.048 0.468 0.658
0.044 0.467 0.655
0.041 0.466 0.653
0.038 0.464 0.651
0.034 0.46 0.648
0.031 0.459 0.646
0.027 0.458 0.644
0.024 0.443 0.641
0.02 0.436 0.639
0.017 0.4 0.637
0.014 0.367 0.635
0.014 -0.41 0.635
0.02 -0.834 0.639
0.027 -0.919 0.644
0.035 -0.964 0.649
0.043 -1.007 0.655
0.052 -1.054 0.661
0.061 -1.103 0.668
0.072 -1.158 0.675
0.084 -1.22 0.683
0.097 -1.284 0.692
0.111 -1.353 0.702
0.126 -1.408 0.711
0.143 -1.493 0.724
0.162 -1.575 0.736
0.184 -1.683 0.752
0.204 -1.75 0.765
0.179 -1.422 0.748
0.159 -1.181 0.735
0.164 -1.153 0.738
0.172 -1.147 0.743
0.18 -1.142 0.749
0.189 -1.147 0.755
0.196 -1.136 0.76
0.203 -1.129 0.765
0.211 -1.125 0.77
0.227 -1.164 0.781
0.239 -1.184 0.789
0.281 -1.35 0.818
0.307 -1.427 0.836
0.346 -1.558 0.863
0.362 -1.577 0.874
0.372 -1.565 0.88
0.383 -1.562 0.888
0.397 -1.569 0.897
0.409 -1.565 0.905
0.42 -1.563 0.913
0.431 -1.557 0.921
0.443 -1.554 0.929
0.457 -1.56 0.938
0.481 -1.601 0.955
0.496 -1.606 0.965
0.506 -1.597 0.972
0.437 -1.337 0.925
0.419 -1.247 0.912
0.436 -1.268 0.924
0.549 -1.566 1.001
0.628 -1.754 1.056
0.641 -1.748 1.064
0.654 -1.744 1.074
0.667 -1.737 1.082
0.683 -1.74 1.093
0.696 -1.733 1.102
0.712 -1.735 1.113
0.724 -1.727 1.122
0.737 -1.72 1.13
0.749 -1.712 1.138
0.765 -1.713 1.15
0.781 -1.714 1.161
0.794 -1.706 1.169
0.81 -1.707 1.181
0.823 -1.698 1.189
0.835 -1.691 1.198
0.851 -1.689 1.209
0.864 -1.681 1.217
0.88 -1.68 1.228
0.897 -1.68 1.24
0.909 -1.671 1.248
0.925 -1.669 1.259
0.938 -1.661 1.268
0.942 -1.637 1.271
0.935 -1.595 1.266
0.96 -1.608 1.283
0.98 -1.612 1.297
0.993 -1.604 1.305
1.009 -1.601 1.317
1.026 -1.599 1.328
1.037 -1.588 1.336
1.054 -1.585 1.347
1.07 -1.581 1.358
1.079 -1.567 1.365
1.102 -1.572 1.38
1.112 -1.559 1.387
1.129 -1.555 1.399
1.135 -1.536 1.403
1.15 -1.529 1.413
1.162 -1.52 1.422
1.176 -1.51 1.431
1.197 -1.512 1.446
1.221 -1.516 1.462
1.275 -1.556 1.499
1.299 -1.558 1.515
1.322 -1.559 1.531
1.339 -1.552 1.543
1.356 -1.544 1.554
1.381 -1.545 1.571
1.398 -1.538 1.583
1.415 -1.529 1.595
1.439 -1.528 1.611
1.456 -1.52 1.623
1.473 -1.511 1.635
1.498 -1.509 1.651
1.515 -1.5 1.663
1.538 -1.497 1.679
1.563 -1.493 1.696
1.58 -1.483 1.708
1.604 -1.479 1.724
1.628 -1.474 1.741
1.652 -1.469 1.757
1.669 -1.458 1.769
1.7 -1.458 1.79
1.724 -1.452 1.807
1.748 -1.445 1.823
1.772 -1.438 1.839
1.795 -1.43 1.855
1.819 -1.421 1.871
1.846 -1.415 1.89
1.868 -1.404 1.905
1.905 -1.405 1.931
1.929 -1.395 1.947
1.959 -1.389 1.968
1.987 -1.381 1.987
2.017 -1.374 2.007
2.042 -1.363 2.024
2.072 -1.355 2.045
2.105 -1.348 2.067
2.138 -1.34 2.09
2.17 -1.332 2.112
2.202 -1.323 2.134
2.234 -1.313 2.156
2.268 -1.303 2.179
2.307 -1.296 2.206
2.339 -1.284 2.228
2.378 -1.276 2.254
2.41 -1.263 2.277
2.451 -1.254 2.305
2.492 -1.244 2.332
2.524 -1.229 2.355
2.564 -1.218 2.382
2.614 -1.21 2.416
2.655 -1.197 2.444
2.694 -1.182 2.471
2.74 -1.17 2.503
2.788 -1.158 2.536
2.835 -1.144 2.567
2.881 -1.129 2.599
2.936 -1.117 2.637
2.989 -1.103 2.673
3.045 -1.088 2.711
3.102 -1.073 2.75
3.157 -1.057 2.788
3.221 -1.042 2.832
3.284 -1.025 2.875
3.349 -1.008 2.919
3.405 -0.987 2.958
3.479 -0.97 3.009
3.542 -0.948 3.052
3.621 -0.929 3.106
3.69 -0.907 3.154
3.764 -0.884 3.204
3.848 -0.861 3.262
3.926 -0.836 3.315
4.015 -0.812 3.376
4.111 -0.787 3.442
4.207 -0.76 3.507
4.297 -0.73 3.569
4.402 -0.7 3.641
4.509 -0.669 3.714
4.632 -0.638 3.798
4.748 -0.603 3.878
4.874 -0.567 3.965
5 -0.529 4.051
5.151 -0.49 4.154
5.221 -0.441 4.202
5.216 -0.386 4.199
5.202 -0.33 4.189
5.187 -0.274 4.179
5.181 -0.219 4.175
5.166 -0.164 4.164
5.158 -0.109 4.159
5.14 -0.054 4.147
5.133 -0 4.142
5.123 0.054 4.135
5.106 0.108 4.123
5.105 0.162 4.122
5.087 0.215 4.11
5.084 0.268 4.108
5.066 0.321 4.096
5.054 0.374 4.088
5.043 0.426 4.08
5.04 0.479 4.078
5.018 0.531 4.063
5.013 0.584 4.06
5.001 0.635 4.052
4.99 0.687 4.044
4.977 0.739 4.035
4.971 0.791 4.031
4.95 0.841 4.016
4.944 0.893 4.012
4.934 0.945 4.005
4.923 0.996 3.998
4.909 1.046 3.988
4.902 1.098 3.983
4.883 1.147 3.971
4.878 1.2 3.967
4.865 1.25 3.958
4.847 1.299 3.946
4.847 1.353 3.946
4.843 1.405 3.943
4.825 1.454 3.931
4.819 1.506 3.927
4.806 1.557 3.918
4.802 1.61 3.915
4.786 1.659 3.904
4.773 1.709 3.895
4.768 1.762 3.892
4.754 1.812 3.882
4.742 1.862 3.874
4.734 1.914 3.868
4.727 1.967 3.864
4.72 2.02 3.859
4.705 2.07 3.848
4.69 2.119 3.838
4.683 2.172 3.833
4.674 2.225 3.827
4.665 2.278 3.821
4.652 2.329 3.812
4.503 2.31 3.71
4.273 2.245 3.553
4.083 2.196 3.422
3.891 2.142 3.291
3.712 2.09 3.168
3.562 2.051 3.065
3.416 2.012 2.966
3.273 1.97 2.867
3.141 1.932 2.777
3.024 1.9 2.697
2.916 1.87 2.623
2.814 1.843 2.553
2.712 1.813 2.484
2.615 1.784 2.417
2.526 1.759 2.356
2.446 1.737 2.301
2.369 1.716 2.248
2.291 1.692 2.195
2.23 1.679 2.153
2.162 1.659 2.106
2.094 1.637 2.06
2.033 1.62 2.018
1.977 1.605 1.98
1.918 1.587 1.939
1.864 1.57 1.902
1.814 1.556 1.868
1.77 1.546 1.838
1.719 1.53 1.803
1.675 1.517 1.773
1.637 1.51 1.747
1.594 1.497 1.717
1.551 1.482 1.688
1.52 1.478 1.667
1.476 1.461 1.637
1.445 1.456 1.615
1.408 1.444 1.59
1.372 1.432 1.566
1.343 1.425 1.545
1.314 1.419 1.526
1.281 1.407 1.503
1.252 1.4 1.483
1.218 1.385 1.46
1.19 1.377 1.441
1.168 1.374 1.425
1.14 1.365 1.407
1.112 1.355 1.387
1.091 1.352 1.373
1.064 1.342 1.355
1.043 1.338 1.34
1.022 1.334 1.326
1.001 1.329 1.311
0.976 1.318 1.294
0.955 1.313 1.28
0.935 1.308 1.266
0.915 1.302 1.252
0.586 0.841 1.027
0.468 0.68 0.946
0.436 0.643 0.924
0.426 0.64 0.917
0.413 0.632 0.909
0.402 0.625 0.901
0.393 0.621 0.895
0.387 0.622 0.89
0.377 0.617 0.884
0.37 0.616 0.879
0.363 0.616 0.874
0.354 0.611 0.868
0.341 0.6 0.859
0.336 0.601 0.856
0.329 0.6 0.851
0.321 0.597 0.846
0.315 0.596 0.841
0.303 0.585 0.833
0.3 0.589 0.831
0.292 0.585 0.826
0.285 0.582 0.821
0.278 0.578 0.816
0.274 0.581 0.813
0.262 0.567 0.805
0.258 0.568 0.802
0.251 0.564 0.797
0.246 0.565 0.794
0.238 0.556 0.788
0.229 0.548 0.783
0.225 0.55 0.78
0.219 0.547 0.776
0.213 0.543 0.771
0.209 0.545 0.769
0.206 0.549 0.766
0.198 0.54 0.761
0.195 0.543 0.759
0.188 0.536 0.754
0.185 0.541 0.752
0.178 0.532 0.747
0.174 0.535 0.745
0.17 0.536 0.742
0.164 0.528 0.738
0.16 0.529 0.735
0.154 0.523 0.731
0.148 0.515 0.727
0.144 0.515 0.724
0.14 0.517 0.721
0.134 0.509 0.717
0.131 0.513 0.715
0.125 0.505 0.711
0.122 0.509 0.709
0.117 0.502 0.706
0.113 0.503 0.703
0.109 0.501 0.7
0.106 0.504 0.698
0.101 0.496 0.694
0.097 0.498 0.692
0.092 0.489 0.689
0.089 0.49 0.686
0.085 0.488 0.684
0.081 0.489 0.681
0.078 0.49 0.679
0.073 0.481 0.675
0.069 0.48 0.673
0.066 0.483 0.671
0.062 0.475 0.668
0.059 0.477 0.666
0.055 0.477 0.663
0.051 0.468 0.66
0.048 0.468 0.658
0.044 0.467 0.656
0.041 0.467 0.653
0.037 0.464 0.651
0.034 0.46 0.648
0.03 0.459 0.646
0.027 0.457 0.644
0.023 0.441 0.641
0.02 0.424 0.639
0.017 0.4 0.637
0.014 0.375 0.635
0.013 -0.43 0.635
0.019 -0.836 0.639
0.027 -0.914 0.644
0.034 -0.962 0.649
0.042 -1.004 0.655
0.051 -1.053 0.661
0.06 -1.093 0.668
0.072 -1.158 0.675
0.084 -1.226 0.684
0.096 -1.283 0.693
0.11 -1.342 0.702
0.126 -1.418 0.713
0.141 -1.483 0.724
0.161 -1.583 0.738
0.183 -1.683 0.753
0.204 -1.761 0.767
0.176 -1.413 0.748
0.159 -1.19 0.736
0.163 -1.153 0.739
0.172 -1.152 0.745
0.179 -1.14 0.75
0.187 -1.138 0.755
0.194 -1.133 0.761
0.201 -1.126 0.766
0.212 -1.136 0.773
0.227 -1.172 0.783
0.243 -1.212 0.795
0.286 -1.382 0.824
0.319 -1.492 0.847
0.351 -1.588 0.869
0.359 -1.57 0.875
0.37 -1.567 0.883
0.381 -1.562 0.891
0.395 -1.57 0.9
0.407 -1.566 0.908
0.418 -1.562 0.916
0.429 -1.557 0.924
0.44 -1.552 0.932
0.456 -1.565 0.943
0.479 -1.601 0.959
0.5 -1.629 0.974
0.508 -1.613 0.979
0.443 -1.362 0.934
0.414 -1.237 0.913
0.434 -1.267 0.927
0.546 -1.566 1.005
0.626 -1.757 1.061
0.637 -1.748 1.069
0.651 -1.744 1.078
0.663 -1.737 1.087
0.68 -1.74 1.098
0.692 -1.733 1.107
0.708 -1.735 1.118
0.72 -1.727 1.127
0.733 -1.72 1.135
0.745 -1.712 1.144
0.761 -1.713 1.155
0.773 -1.705 1.164
0.79 -1.706 1.175
0.806 -1.707 1.186
0.818 -1.698 1.195
0.83 -1.69 1.203
0.847 -1.69 1.215
0.859 -1.681 1.223
0.876 -1.681 1.235
0.892 -1.68 1.246
0.904 -1.671 1.255
0.921 -1.669 1.266
0.932 -1.66 1.274
0.937 -1.637 1.277
0.931 -1.596 1.273
0.956 -1.61 1.291
0.975 -1.612 1.304
0.992 -1.612 1.316
1.004 -1.602 1.324
1.015 -1.591 1.332
1.032 -1.588 1.343
1.048 -1.585 1.355
1.063 -1.578 1.365
1.08 -1.576 1.377
1.096 -1.572 1.388
1.107 -1.56 1.396
1.115 -1.543 1.401
1.131 -1.538 1.412
1.144 -1.53 1.422
1.157 -1.52 1.431
1.173 -1.515 1.442
1.205 -1.529 1.464
1.229 -1.533 1.48
1.275 -1.564 1.513
1.298 -1.565 1.529
1.316 -1.559 1.541
1.333 -1.552 1.553
1.349 -1.544 1.564
1.374 -1.545 1.581
