# .PCD v0.7 - Point Cloud Data file format
VERSION 0.7
FIELDS x y z
SIZE 4 4 4
TYPE F F F
COUNT 1 1 1
WIDTH 2484
HEIGHT 1
VIEWPOINT 0 0 0 1 0 0 0
POINTS 2484
DATA ascii
0.281 0.654 0.469
0.274 0.651 0.473
0.271 0.659 0.475
0.266 0.664 0.477
0.263 0.67 0.479
0.261 0.682 0.48
0.256 0.687 0.483
0.276 0.768 0.472
0.277 0.796 0.471
0.27 0.794 0.475
0.257 0.772 0.482
0.247 0.759 0.488
0.236 0.744 0.494
0.223 0.717 0.501
0.214 0.703 0.506
0.21 0.71 0.508
0.205 0.716 0.511
0.203 0.734 0.512
0.2 0.747 0.513
0.196 0.756 0.516
0.193 0.77 0.518
0.189 0.78 0.52
0.182 0.779 0.524
0.177 0.785 0.526
0.169 0.775 0.531
0.163 0.774 0.534
0.16 0.794 0.536
0.156 0.811 0.538
0.149 0.803 0.542
0.144 0.815 0.545
0.138 0.82 0.548
0.131 0.816 0.552
0.125 0.816 0.555
0.118 0.814 0.559
0.112 0.812 0.562
0.108 0.841 0.564
0.103 0.855 0.567
0.095 0.844 0.571
0.089 0.847 0.575
0.083 0.852 0.578
0.076 0.848 0.582
0.07 0.849 0.586
0.063 0.854 0.589
0.057 0.842 0.593
0.05 0.843 0.596
0.044 0.829 0.6
0.037 0.496 0.603
0.037 -0.418 0.604
0.042 -0.663 0.601
0.049 -0.786 0.597
0.056 -0.809 0.594
0.062 -0.821 0.59
0.069 -0.833 0.586
0.076 -0.844 0.583
0.083 -0.855 0.579
0.09 -0.855 0.575
0.097 -0.864 0.571
0.105 -0.875 0.567
0.111 -0.874 0.564
0.118 -0.874 0.56
0.126 -0.884 0.556
0.134 -0.894 0.551
0.141 -0.9 0.547
0.15 -0.909 0.543
0.158 -0.917 0.538
0.166 -0.923 0.534
0.174 -0.931 0.529
0.183 -0.94 0.525
0.192 -0.948 0.52
0.201 -0.956 0.515
0.208 -0.954 0.511
0.219 -0.972 0.505
0.226 -0.97 0.501
0.236 -0.981 0.496
0.246 -0.99 0.49
0.255 -0.996 0.485
0.266 -1.004 0.48
0.277 -1.018 0.474
0.295 -1.057 0.464
0.31 -1.081 0.456
0.321 -1.09 0.45
0.334 -1.104 0.443
0.343 -1.104 0.438
0.351 -1.098 0.434
0.356 -1.084 0.431
0.36 -1.065 0.429
0.364 -1.049 0.427
0.368 -1.035 0.424
0.373 -1.02 0.422
0.377 -1.006 0.42
0.378 -0.984 0.419
0.381 -0.968 0.417
0.387 -0.959 0.414
0.387 -0.937 0.414
0.393 -0.932 0.411
0.397 -0.92 0.409
0.402 -0.909 0.406
0.404 -0.895 0.405
0.403 -0.872 0.406
0.41 -0.868 0.402
0.408 -0.847 0.403
0.416 -0.845 0.399
0.418 -0.831 0.398
0.42 -0.819 0.396
0.422 -0.807 0.395
0.424 -0.794 0.394
0.426 -0.782 0.393
0.427 -0.768 0.392
0.433 -0.764 0.389
0.433 -0.748 0.389
0.438 -0.744 0.386
0.44 -0.734 0.385
0.441 -0.72 0.385
0.447 -0.717 0.382
0.446 -0.702 0.382
0.446 -0.689 0.382
0.451 -0.685 0.379
0.452 -0.673 0.379
0.456 -0.668 0.377
0.45 -0.646 0.38
0.468 -0.662 0.37
0.661 -0.941 0.266
0.681 -0.954 0.255
0.676 -0.93 0.258
0.683 -0.923 0.254
0.676 -0.898 0.257
0.68 -0.887 0.255
0.697 -0.895 0.246
0.709 -0.895 0.24
0.722 -0.896 0.233
0.732 -0.893 0.227
0.736 -0.882 0.225
0.732 -0.862 0.227
0.732 -0.847 0.227
0.73 -0.83 0.229
0.724 -0.809 0.231
0.729 -0.801 0.229
0.718 -0.774 0.235
0.713 -0.755 0.238
0.718 -0.748 0.235
0.755 -0.774 0.215
0 0 0
0 0 0
0 0 0
0 0 0
0 0 0
0 0 0
0 0 0
1.009 -0.911 0.077
0 0 0
0 0 0
0 0 0
1.363 -1.157 -0.115
1.378 -1.149 -0.123
1.382 -1.131 -0.125
1.373 -1.104 -0.12
1.379 -1.088 -0.123
1.373 -1.064 -0.12
1.387 -1.055 -0.128
1.381 -1.031 -0.124
1.383 -1.013 -0.125
1.38 -0.992 -0.124
1.382 -0.974 -0.125
1.382 -0.955 -0.125
1.389 -0.942 -0.129
1.378 -0.916 -0.123
1.383 -0.902 -0.126
1.381 -0.882 -0.125
1.384 -0.867 -0.126
1.386 -0.85 -0.127
1.393 -0.837 -0.131
1.383 -0.814 -0.125
1.388 -0.8 -0.128
1.385 -0.781 -0.126
1.392 -0.768 -0.131
1.351 -0.729 -0.108
1.329 -0.701 -0.096
1.339 -0.691 -0.102
1.372 -0.692 -0.119
1.379 -0.68 -0.124
1.385 -0.667 -0.127
1.38 -0.648 -0.124
1.378 -0.632 -0.123
1.381 -0.617 -0.124
1.382 -0.603 -0.125
1.382 -0.587 -0.125
1.386 -0.574 -0.127
1.381 -0.556 -0.124
1.387 -0.543 -0.127
1.386 -0.528 -0.127
1.385 -0.513 -0.126
1.384 -0.498 -0.126
1.385 -0.483 -0.126
1.385 -0.469 -0.127
1.386 -0.454 -0.127
1.381 -0.438 -0.124
1.384 -0.425 -0.126
1.381 -0.409 -0.124
1.386 -0.397 -0.127
1.374 -0.379 -0.121
1.386 -0.368 -0.127
1.379 -0.352 -0.123
1.387 -0.34 -0.127
1.381 -0.325 -0.124
1.386 -0.312 -0.127
1.376 -0.296 -0.122
1.387 -0.284 -0.128
1.384 -0.27 -0.126
1.387 -0.257 -0.128
1.386 -0.243 -0.127
1.394 -0.231 -0.131
1.382 -0.215 -0.125
1.389 -0.202 -0.129
1.383 -0.188 -0.125
1.391 -0.175 -0.13
1.381 -0.161 -0.125
1.387 -0.148 -0.128
1.388 -0.134 -0.128
1.392 -0.121 -0.131
1.383 -0.107 -0.125
1.39 -0.094 -0.13
1.382 -0.08 -0.125
1.393 -0.067 -0.131
1.383 -0.053 -0.126
1.384 -0.04 -0.126
1.38 -0.027 -0.124
1.389 -0.013 -0.129
1.385 -0 -0.127
1.387 0.013 -0.128
1.387 0.027 -0.128
1.382 0.04 -0.125
1.387 0.054 -0.128
1.388 0.067 -0.128
1.389 0.081 -0.129
1.393 0.094 -0.131
1.384 0.107 -0.126
1.39 0.121 -0.129
1.383 0.134 -0.125
1.385 0.148 -0.127
1.384 0.161 -0.126
1.39 0.175 -0.13
1.384 0.188 -0.126
1.391 0.203 -0.13
1.386 0.216 -0.127
1.391 0.23 -0.13
1.382 0.242 -0.125
1.392 0.258 -0.13
1.386 0.271 -0.127
1.392 0.286 -0.13
1.385 0.298 -0.126
1.397 0.315 -0.133
1.389 0.327 -0.129
1.4 0.343 -0.134
1.391 0.355 -0.13
1.397 0.371 -0.133
1.395 0.385 -0.132
1.396 0.4 -0.132
1.399 0.415 -0.134
1.405 0.431 -0.137
1.394 0.442 -0.131
1.411 0.463 -0.141
1.399 0.473 -0.134
1.405 0.49 -0.137
1.399 0.503 -0.134
1.408 0.522 -0.139
1.402 0.535 -0.136
1.401 0.549 -0.136
1.396 0.562 -0.132
1.394 0.577 -0.132
1.399 0.595 -0.134
1.396 0.609 -0.133
1.398 0.625 -0.134
1.398 0.641 -0.134
1.393 0.654 -0.131
1.403 0.675 -0.136
1.409 0.695 -0.14
1.404 0.708 -0.137
1.402 0.724 -0.136
1.416 0.748 -0.143
1.402 0.757 -0.136
1.412 0.78 -0.141
1.411 0.796 -0.14
1.411 0.814 -0.141
1.405 0.827 -0.138
1.409 0.847 -0.139
1.413 0.867 -0.142
1.413 0.885 -0.142
1.414 0.904 -0.142
1.424 0.929 -0.148
1.416 0.943 -0.144
1.42 0.963 -0.145
1.412 0.977 -0.141
1.419 1.002 -0.145
1.41 1.014 -0.14
1.417 1.039 -0.144
1.416 1.058 -0.144
1.422 1.082 -0.147
1.42 1.101 -0.146
1.425 1.126 -0.148
1.424 1.146 -0.148
1.429 1.171 -0.15
1.421 1.186 -0.146
1.417 1.204 -0.144
0.933 0.796 0.118
0.745 0.641 0.22
0.688 0.599 0.251
0.674 0.597 0.259
0.662 0.596 0.265
0.653 0.598 0.27
0.65 0.606 0.271
0.64 0.607 0.277
0.638 0.615 0.278
0.628 0.615 0.284
0.618 0.616 0.289
0.609 0.617 0.294
0.604 0.622 0.297
0.598 0.627 0.3
0.587 0.626 0.306
0.573 0.621 0.313
0.569 0.626 0.316
0.563 0.63 0.319
0.553 0.629 0.324
0.548 0.634 0.327
0.539 0.633 0.332
0.534 0.638 0.335
0.524 0.637 0.34
0.519 0.642 0.343
0.515 0.648 0.345
0.506 0.647 0.349
0.503 0.654 0.352
0.493 0.651 0.357
0.489 0.657 0.359
0.479 0.655 0.364
0.475 0.661 0.366
0.472 0.669 0.368
0.464 0.667 0.373
0.454 0.665 0.378
0.45 0.67 0.38
0.44 0.666 0.386
0.435 0.671 0.388
0.425 0.666 0.394
0.42 0.671 0.396
0.41 0.665 0.402
0.404 0.668 0.405
0.4 0.674 0.407
0.391 0.669 0.412
0.382 0.665 0.417
0.377 0.669 0.42
0.372 0.673 0.422
0.367 0.676 0.425
0.358 0.672 0.43
0.353 0.675 0.433
0.347 0.678 0.436
0.345 0.687 0.437
0.338 0.686 0.441
0.331 0.685 0.445
0.32 0.674 0.45
0.309 0.662 0.457
0.302 0.66 0.46
0.293 0.652 0.465
0.287 0.653 0.468
0.28 0.651 0.472
0.273 0.648 0.476
0.27 0.655 0.478
0.265 0.659 0.48
0.265 0.675 0.48
0.262 0.684 0.482
0.255 0.68 0.486
0.274 0.761 0.475
0.28 0.802 0.472
0.27 0.791 0.478
0.256 0.767 0.485
0.249 0.763 0.489
0.237 0.744 0.495
0.224 0.716 0.503
0.215 0.706 0.507
0.211 0.711 0.51
0.206 0.717 0.512
0.202 0.726 0.514
0.201 0.747 0.515
0.198 0.762 0.516
0.194 0.771 0.519
0.189 0.78 0.521
0.183 0.778 0.525
0.177 0.784 0.528
0.17 0.775 0.532
0.163 0.774 0.535
0.161 0.797 0.537
0.157 0.811 0.539
0.151 0.814 0.542
0.144 0.815 0.546
0.138 0.819 0.549
0.132 0.816 0.553
0.125 0.815 0.556
0.119 0.815 0.559
0.112 0.804 0.563
0.109 0.842 0.565
0.102 0.843 0.569
0.096 0.843 0.572
0.089 0.847 0.575
0.083 0.851 0.579
0.076 0.846 0.583
0.07 0.857 0.586
0.063 0.854 0.589
0.057 0.842 0.593
0.05 0.843 0.597
0.044 0.842 0.6
0.037 0.516 0.604
0.037 -0.428 0.604
0.043 -0.689 0.601
0.049 -0.789 0.597
0.056 -0.809 0.594
0.063 -0.821 0.59
0.069 -0.834 0.587
0.076 -0.845 0.583
0.083 -0.854 0.579
0.091 -0.865 0.575
0.097 -0.864 0.572
0.105 -0.875 0.568
0.112 -0.876 0.564
0.119 -0.883 0.56
0.126 -0.883 0.556
0.134 -0.894 0.552
0.142 -0.902 0.548
0.15 -0.908 0.544
0.158 -0.916 0.539
0.166 -0.923 0.535
0.175 -0.931 0.53
0.183 -0.94 0.526
0.192 -0.948 0.521
0.201 -0.956 0.516
0.21 -0.962 0.511
0.218 -0.962 0.507
0.227 -0.972 0.502
0.237 -0.981 0.497
0.247 -0.989 0.492
0.256 -0.996 0.487
0.268 -1.012 0.48
0.278 -1.018 0.475
0.296 -1.059 0.465
0.311 -1.082 0.457
0.323 -1.094 0.451
0.332 -1.094 0.446
0.343 -1.102 0.44
0.351 -1.096 0.436
0.356 -1.082 0.433
0.36 -1.065 0.431
0.364 -1.046 0.429
0.369 -1.035 0.426
0.373 -1.02 0.424
0.375 -0.997 0.423
0.379 -0.983 0.421
0.384 -0.973 0.418
0.387 -0.958 0.417
0.39 -0.944 0.415
0.391 -0.923 0.414
0.395 -0.912 0.412
0.398 -0.899 0.41
0.402 -0.887 0.409
0.405 -0.874 0.407
0.407 -0.861 0.406
0.41 -0.848 0.404
0.413 -0.836 0.403
0.415 -0.822 0.402
0.421 -0.818 0.399
0.423 -0.805 0.398
0.424 -0.792 0.397
0.426 -0.78 0.396
0.429 -0.769 0.394
0.433 -0.763 0.392
0.434 -0.749 0.391
0.436 -0.738 0.391
0.436 -0.724 0.39
0.441 -0.719 0.388
0.442 -0.708 0.387
0.443 -0.695 0.387
0.447 -0.69 0.384
0.448 -0.677 0.384
0.453 -0.673 0.381
0.453 -0.661 0.381
0.439 -0.628 0.389
0 0 0
0.665 -0.945 0.268
0.689 -0.964 0.255
0.693 -0.952 0.253
0.693 -0.935 0.253
0.687 -0.911 0.256
0.689 -0.897 0.255
0.696 -0.89 0.251
0.709 -0.893 0.244
0.721 -0.893 0.238
0.735 -0.894 0.23
0.746 -0.893 0.224
0.745 -0.876 0.225
0.74 -0.855 0.228
0.743 -0.844 0.226
0.74 -0.826 0.227
0.737 -0.807 0.229
0.739 -0.795 0.228
0.732 -0.775 0.232
0.73 -0.759 0.233
0.741 -0.757 0.227
0 0 0
0 0 0
0 0 0
0 0 0
0 0 0
0 0 0
0 0 0
0.972 -0.874 0.103
0 0 0
0 0 0
0 0 0
1.383 -1.171 -0.117
1.393 -1.158 -0.122
1.394 -1.138 -0.122
1.391 -1.116 -0.121
1.397 -1.1 -0.124
1.391 -1.075 -0.121
1.399 -1.061 -0.125
1.399 -1.042 -0.125
1.4 -1.023 -0.126
1.392 -0.998 -0.121
1.4 -0.985 -0.126
1.393 -0.961 -0.122
1.398 -0.946 -0.125
1.398 -0.928 -0.125
1.401 -0.911 -0.126
1.402 -0.893 -0.127
1.401 -0.875 -0.126
1.397 -0.855 -0.124
1.404 -0.842 -0.128
1.403 -0.823 -0.127
1.4 -0.805 -0.126
1.398 -0.786 -0.125
1.401 -0.771 -0.126
1.353 -0.728 -0.1
1.331 -0.7 -0.089
1.341 -0.69 -0.094
1.386 -0.697 -0.118
1.393 -0.685 -0.122
1.405 -0.675 -0.128
1.392 -0.652 -0.121
1.397 -0.639 -0.124
1.401 -0.625 -0.127
1.401 -0.609 -0.126
1.403 -0.595 -0.127
1.4 -0.578 -0.126
1.402 -0.563 -0.127
1.408 -0.551 -0.13
1.398 -0.532 -0.125
1.408 -0.52 -0.13
1.397 -0.501 -0.124
1.407 -0.49 -0.129
1.395 -0.471 -0.123
1.4 -0.458 -0.126
1.395 -0.442 -0.123
1.397 -0.428 -0.124
1.4 -0.414 -0.126
1.404 -0.401 -0.128
1.401 -0.386 -0.126
1.398 -0.37 -0.124
1.399 -0.357 -0.125
1.406 -0.344 -0.129
1.401 -0.329 -0.127
1.407 -0.316 -0.13
1.405 -0.302 -0.129
1.409 -0.288 -0.13
1.398 -0.272 -0.125
1.402 -0.259 -0.127
1.396 -0.244 -0.124
1.405 -0.232 -0.129
1.403 -0.218 -0.127
1.403 -0.204 -0.127
1.396 -0.189 -0.124
1.4 -0.176 -0.126
1.401 -0.163 -0.127
1.404 -0.149 -0.128
1.399 -0.135 -0.125
1.397 -0.121 -0.124
1.403 -0.108 -0.127
1.403 -0.095 -0.127
1.403 -0.081 -0.127
1.4 -0.067 -0.126
1.404 -0.054 -0.128
1.394 -0.04 -0.122
1.397 -0.027 -0.124
1.402 -0.014 -0.127
1.406 -0 -0.129
1.406 0.014 -0.129
1.4 0.027 -0.126
1.405 0.041 -0.128
1.397 0.054 -0.124
1.403 0.068 -0.127
1.403 0.081 -0.127
1.399 0.094 -0.125
1.403 0.108 -0.127
1.404 0.122 -0.128
1.405 0.136 -0.128
1.406 0.15 -0.129
1.402 0.163 -0.127
1.399 0.176 -0.125
1.405 0.19 -0.128
1.414 0.206 -0.133
1.409 0.219 -0.13
1.403 0.231 -0.127
1.401 0.245 -0.126
1.411 0.261 -0.132
1.399 0.272 -0.125
1.409 0.288 -0.13
1.405 0.302 -0.129
1.408 0.316 -0.13
1.403 0.329 -0.127
1.412 0.346 -0.132
1.408 0.359 -0.13
1.415 0.375 -0.134
1.422 0.392 -0.138
1.423 0.407 -0.138
1.413 0.418 -0.133
1.416 0.434 -0.134
1.419 0.449 -0.136
1.423 0.466 -0.138
1.411 0.476 -0.131
1.415 0.493 -0.134
1.416 0.508 -0.135
1.424 0.526 -0.139
1.412 0.537 -0.132
1.413 0.553 -0.133
1.416 0.569 -0.134
1.416 0.585 -0.134
1.414 0.6 -0.133
1.419 0.617 -0.136
1.416 0.632 -0.134
1.417 0.648 -0.135
1.418 0.665 -0.135
1.42 0.682 -0.136
1.422 0.699 -0.137
1.421 0.715 -0.137
1.42 0.731 -0.136
1.43 0.753 -0.142
1.424 0.767 -0.139
1.432 0.789 -0.143
1.427 0.803 -0.14
1.424 0.819 -0.139
1.427 0.838 -0.14
1.431 0.858 -0.142
1.431 0.877 -0.142
1.433 0.896 -0.143
1.427 0.91 -0.14
1.435 0.934 -0.144
1.43 0.949 -0.142
1.434 0.971 -0.144
1.426 0.985 -0.14
1.431 1.007 -0.143
1.427 1.024 -0.14
1.436 1.05 -0.145
1.441 1.074 -0.147
1.441 1.094 -0.148
1.432 1.108 -0.143
1.444 1.138 -0.149
1.442 1.157 -0.148
1.442 1.179 -0.148
1.438 1.198 -0.146
1.065 0.894 0.054
0.885 0.751 0.15
0.779 0.669 0.207
0.688 0.598 0.255
0.675 0.597 0.262
0.67 0.602 0.265
0.654 0.597 0.274
0.652 0.606 0.275
0.642 0.607 0.28
0.634 0.61 0.284
0.629 0.615 0.287
0.621 0.617 0.291
0.61 0.616 0.297
0.605 0.622 0.3
0.592 0.618 0.307
0.586 0.622 0.31
0.58 0.627 0.313
0.57 0.626 0.319
0.565 0.63 0.322
0.554 0.628 0.327
0.549 0.633 0.33
0.539 0.632 0.335
0.535 0.638 0.337
0.524 0.635 0.343
0.52 0.642 0.345
0.511 0.64 0.35
0.508 0.647 0.352
0.503 0.653 0.354
0.493 0.65 0.36
0.49 0.658 0.361
0.482 0.657 0.366
0.477 0.662 0.368
0.473 0.668 0.371
0.465 0.667 0.375
0.456 0.666 0.38
0.446 0.663 0.385
0.441 0.667 0.388
0.436 0.67 0.391
0.427 0.667 0.395
0.417 0.663 0.401
0.411 0.666 0.404
0.406 0.669 0.407
0.397 0.666 0.411
0.392 0.669 0.414
0.383 0.665 0.419
0.378 0.669 0.422
0.373 0.673 0.424
0.364 0.668 0.429
0.359 0.672 0.432
0.35 0.667 0.437
0.348 0.677 0.438
0.345 0.685 0.439
0.338 0.684 0.443
0.33 0.68 0.447
0.314 0.659 0.456
0.309 0.662 0.458
0.299 0.651 0.464
0.291 0.648 0.468
0.286 0.649 0.471
0.279 0.646 0.474
0.272 0.643 0.478
0.268 0.649 0.48
0.264 0.654 0.482
0.263 0.668 0.483
0.261 0.678 0.484
0.256 0.681 0.487
0.268 0.738 0.481
0.28 0.8 0.474
0.269 0.785 0.48
0.26 0.776 0.485
0.248 0.757 0.491
0.238 0.745 0.496
0.226 0.724 0.503
0.216 0.707 0.508
0.212 0.714 0.51
0.207 0.721 0.513
0.203 0.728 0.515
0.202 0.748 0.516
0.198 0.758 0.518
0.194 0.771 0.52
0.19 0.78 0.522
0.182 0.775 0.526
0.178 0.782 0.529
0.17 0.775 0.533
0.164 0.775 0.536
0.16 0.79 0.538
0.157 0.812 0.54
0.149 0.802 0.544
0.145 0.815 0.546
0.139 0.819 0.55
0.132 0.816 0.553
0.125 0.815 0.557
0.119 0.813 0.56
0.112 0.807 0.564
0.109 0.843 0.566
0.103 0.854 0.569
0.096 0.843 0.573
0.089 0.846 0.576
0.083 0.851 0.579
0.077 0.857 0.583
0.07 0.849 0.586
0.064 0.854 0.59
0.057 0.841 0.593
0.05 0.834 0.597
0.044 0.823 0.6
0.037 0.545 0.604
0.037 -0.41 0.604
0.042 -0.664 0.601
0.049 -0.778 0.598
0.056 -0.81 0.594
0.063 -0.821 0.591
0.069 -0.833 0.587
0.076 -0.835 0.584
0.084 -0.855 0.58
0.09 -0.855 0.576
0.097 -0.864 0.572
0.104 -0.864 0.569
0.112 -0.876 0.565
0.119 -0.884 0.561
0.126 -0.885 0.557
0.134 -0.893 0.553
0.142 -0.9 0.549
0.15 -0.908 0.545
0.158 -0.917 0.54
0.167 -0.923 0.536
0.174 -0.923 0.532
0.184 -0.94 0.527
0.193 -0.948 0.522
0.202 -0.956 0.518
0.21 -0.962 0.513
0.22 -0.972 0.508
0.228 -0.971 0.504
0.238 -0.981 0.499
0.247 -0.989 0.494
0.259 -1.004 0.488
0.267 -1.004 0.483
0.279 -1.018 0.477
0.297 -1.06 0.467
0.312 -1.081 0.46
0.324 -1.094 0.453
0.333 -1.095 0.448
0.344 -1.099 0.443
0.352 -1.096 0.438
0.358 -1.082 0.436
0.362 -1.065 0.433
0.366 -1.049 0.431
0.37 -1.034 0.429
0.372 -1.011 0.428
0.379 -1.007 0.424
0.381 -0.985 0.423
0.384 -0.97 0.422
0.388 -0.957 0.42
0.389 -0.935 0.419
0.393 -0.924 0.417
0.396 -0.912 0.415
0.4 -0.899 0.413
0.403 -0.886 0.412
0.406 -0.874 0.41
0.409 -0.861 0.409
0.412 -0.848 0.407
0.414 -0.835 0.406
0.416 -0.821 0.405
0.422 -0.818 0.402
0.424 -0.806 0.4
0.426 -0.792 0.4
0.428 -0.781 0.398
0.43 -0.768 0.398
0.43 -0.754 0.397
0.436 -0.75 0.394
0.437 -0.737 0.394
0.442 -0.732 0.391
0.443 -0.719 0.391
0.444 -0.708 0.39
0.444 -0.694 0.39
0.449 -0.69 0.388
0.45 -0.679 0.387
0.455 -0.674 0.384
0.459 -0.668 0.382
0.439 -0.625 0.393
0 0 0
0.673 -0.953 0.27
0.695 -0.969 0.258
0.707 -0.969 0.252
0.712 -0.959 0.249
0.705 -0.932 0.253
0.691 -0.896 0.26
0.701 -0.894 0.255
0.71 -0.89 0.25
0.728 -0.897 0.241
0.737 -0.894 0.236
0.749 -0.893 0.23
0.756 -0.886 0.226
0.754 -0.869 0.227
0.749 -0.848 0.229
0.749 -0.833 0.23
0.751 -0.821 0.229
0.752 -0.808 0.228
0.747 -0.789 0.231
0.734 -0.761 0.237
0.741 -0.755 0.234
0 0 0
0 0 0
0 0 0
0 0 0
0 0 0
0 0 0
0 0 0
0.995 -0.892 0.1
0 0 0
0 0 0
1.401 -1.204 -0.114
1.401 -1.182 -0.113
1.412 -1.171 -0.119
1.414 -1.152 -0.12
1.415 -1.131 -0.121
1.416 -1.111 -0.121
1.412 -1.088 -0.119
1.412 -1.068 -0.119
1.411 -1.047 -0.118
1.413 -1.029 -0.12
1.413 -1.009 -0.119
1.42 -0.996 -0.124
1.414 -0.972 -0.12
1.421 -0.958 -0.124
1.412 -0.933 -0.119
1.424 -0.923 -0.126
1.416 -0.899 -0.121
1.417 -0.882 -0.122
1.42 -0.866 -0.123
1.425 -0.851 -0.126
1.414 -0.827 -0.12
1.421 -0.814 -0.124
1.421 -0.797 -0.124
1.415 -0.776 -0.12
1.348 -0.722 -0.086
1.335 -0.7 -0.079
1.352 -0.693 -0.087
1.389 -0.696 -0.107
1.413 -0.692 -0.12
1.419 -0.679 -0.123
1.416 -0.661 -0.121
1.414 -0.644 -0.12
1.421 -0.632 -0.124
1.424 -0.617 -0.125
1.417 -0.598 -0.122
1.421 -0.584 -0.124
1.42 -0.569 -0.123
1.426 -0.556 -0.127
1.413 -0.535 -0.12
1.421 -0.523 -0.124
1.411 -0.504 -0.119
1.421 -0.493 -0.124
1.417 -0.477 -0.122
1.42 -0.463 -0.124
1.416 -0.447 -0.121
1.419 -0.433 -0.123
1.419 -0.418 -0.123
1.425 -0.406 -0.126
1.415 -0.388 -0.121
1.422 -0.376 -0.124
1.419 -0.36 -0.123
1.42 -0.347 -0.124
1.417 -0.331 -0.122
1.42 -0.318 -0.124
1.418 -0.303 -0.123
1.423 -0.29 -0.125
1.422 -0.276 -0.124
1.422 -0.262 -0.124
1.415 -0.247 -0.121
1.42 -0.234 -0.123
1.415 -0.219 -0.121
1.425 -0.206 -0.126
1.419 -0.192 -0.123
1.423 -0.178 -0.125
1.414 -0.163 -0.12
1.421 -0.151 -0.124
1.417 -0.136 -0.122
1.419 -0.123 -0.123
1.42 -0.109 -0.123
1.425 -0.096 -0.126
1.422 -0.082 -0.124
1.422 -0.068 -0.124
1.415 -0.054 -0.121
1.42 -0.041 -0.123
1.414 -0.027 -0.12
1.426 -0.014 -0.126
1.416 -0 -0.121
1.424 0.014 -0.125
1.418 0.027 -0.122
1.42 0.041 -0.123
1.422 0.055 -0.125
1.422 0.068 -0.124
1.426 0.082 -0.126
1.421 0.096 -0.124
1.42 0.109 -0.123
1.424 0.123 -0.126
1.42 0.137 -0.124
1.419 0.15 -0.123
1.421 0.164 -0.124
1.427 0.179 -0.127
1.423 0.192 -0.125
1.432 0.208 -0.13
1.422 0.22 -0.124
1.427 0.235 -0.127
1.425 0.248 -0.126
1.431 0.264 -0.129
1.426 0.277 -0.127
1.427 0.291 -0.127
1.425 0.305 -0.126
1.433 0.321 -0.13
1.434 0.335 -0.13
1.429 0.349 -0.128
1.426 0.362 -0.127
1.43 0.378 -0.129
1.436 0.394 -0.132
1.437 0.409 -0.132
1.434 0.423 -0.131
1.443 0.44 -0.135
1.439 0.454 -0.133
1.436 0.468 -0.132
1.436 0.483 -0.132
1.437 0.499 -0.133
1.435 0.513 -0.131
1.431 0.527 -0.129
1.429 0.541 -0.128
1.433 0.558 -0.13
1.435 0.575 -0.131
1.436 0.591 -0.132
1.434 0.606 -0.13
1.44 0.625 -0.134
1.431 0.636 -0.129
1.435 0.654 -0.131
1.434 0.67 -0.131
1.447 0.693 -0.138
1.442 0.707 -0.135
1.448 0.727 -0.138
1.444 0.741 -0.136
1.449 0.761 -0.139
1.444 0.775 -0.136
1.446 0.794 -0.137
1.44 0.808 -0.134
1.449 0.83 -0.138
1.451 0.849 -0.14
1.453 0.868 -0.141
1.45 0.885 -0.139
1.454 0.906 -0.141
1.448 0.921 -0.138
1.451 0.941 -0.14
1.452 0.961 -0.14
1.454 0.981 -0.141
1.45 0.998 -0.139
1.449 1.016 -0.138
1.452 1.038 -0.14
1.456 1.061 -0.142
1.453 1.079 -0.141
1.453 1.099 -0.141
1.457 1.124 -0.143
1.463 1.149 -0.146
1.455 1.164 -0.142
1.468 1.196 -0.149
1.461 1.213 -0.145
0.994 0.83 0.101
0.851 0.718 0.176
0.794 0.68 0.206
0.702 0.608 0.255
0.678 0.597 0.267
0.67 0.6 0.271
0.664 0.605 0.275
0.654 0.606 0.279
0.646 0.608 0.284
0.643 0.616 0.285
0.632 0.615 0.291
0.622 0.616 0.297
0.61 0.615 0.303
0.606 0.62 0.305
0.599 0.624 0.309
0.595 0.63 0.311
0.581 0.626 0.318
0.571 0.625 0.323
0.559 0.622 0.329
0.554 0.627 0.332
0.545 0.626 0.337
0.541 0.632 0.339
0.53 0.63 0.345
0.527 0.636 0.347
0.522 0.642 0.349
0.513 0.64 0.354
0.51 0.647 0.356
0.5 0.646 0.361
0.496 0.652 0.363
0.492 0.658 0.365
0.483 0.656 0.37
0.479 0.663 0.372
0.47 0.661 0.376
0.467 0.668 0.378
0.458 0.667 0.383
0.448 0.663 0.388
0.442 0.666 0.391
0.433 0.662 0.396
0.428 0.667 0.399
0.418 0.663 0.404
0.409 0.659 0.409
0.403 0.661 0.412
0.398 0.666 0.414
0.393 0.669 0.417
0.384 0.665 0.422
0.379 0.669 0.424
0.37 0.665 0.429
0.365 0.669 0.431
0.36 0.672 0.434
0.355 0.675 0.437
0.349 0.676 0.44
0.345 0.682 0.442
0.334 0.673 0.448
0.329 0.675 0.451
0.312 0.652 0.459
0.305 0.65 0.463
0.298 0.647 0.467
0.292 0.646 0.47
0.288 0.652 0.472
0.278 0.642 0.477
0.274 0.645 0.48
0.271 0.653 0.481
0.267 0.659 0.483
0.265 0.671 0.484
0.263 0.681 0.486
0.26 0.692 0.487
0.266 0.731 0.484
0.277 0.788 0.478
0.269 0.784 0.482
0.258 0.767 0.488
0.25 0.761 0.492
0.239 0.747 0.498
0.225 0.717 0.505
0.217 0.709 0.509
0.213 0.716 0.512
0.206 0.713 0.515
0.205 0.731 0.516
0.203 0.75 0.517
0.198 0.756 0.52
0.194 0.77 0.521
0.19 0.779 0.524
0.184 0.783 0.527
0.178 0.78 0.53
0.17 0.774 0.534
0.164 0.775 0.537
0.159 0.782 0.54
0.156 0.8 0.542
0.15 0.802 0.545
0.145 0.815 0.547
0.139 0.819 0.551
0.132 0.816 0.554
0.125 0.812 0.558
0.119 0.811 0.561
0.113 0.81 0.565
0.108 0.834 0.567
0.103 0.854 0.569
0.096 0.843 0.573
0.09 0.846 0.577
0.083 0.851 0.58
0.077 0.857 0.583
0.07 0.854 0.587
0.064 0.852 0.59
0.057 0.843 0.594
0.05 0.844 0.597
0.044 0.828 0.601
0.037 0.537 0.604
0.037 -0.428 0.604
0.042 -0.68 0.602
0.049 -0.789 0.598
0.056 -0.809 0.595
0.063 -0.831 0.591
0.069 -0.833 0.588
0.076 -0.845 0.584
0.084 -0.855 0.58
0.09 -0.855 0.577
0.098 -0.865 0.573
0.105 -0.875 0.569
0.112 -0.876 0.565
0.12 -0.884 0.561
0.127 -0.884 0.558
0.135 -0.894 0.554
0.142 -0.901 0.55
0.151 -0.909 0.545
0.159 -0.915 0.541
0.167 -0.923 0.537
0.175 -0.931 0.532
0.184 -0.94 0.528
0.193 -0.948 0.523
0.202 -0.954 0.519
0.211 -0.962 0.514
0.219 -0.962 0.51
0.228 -0.971 0.505
0.238 -0.98 0.5
0.248 -0.988 0.495
0.259 -1.004 0.489
0.267 -1.002 0.485
0.279 -1.019 0.478
0.298 -1.059 0.469
0.313 -1.082 0.461
0.325 -1.094 0.455
0.334 -1.095 0.45
0.344 -1.097 0.445
0.353 -1.094 0.44
0.355 -1.072 0.439
0.362 -1.065 0.435
0.367 -1.048 0.433
0.372 -1.036 0.431
0.372 -1.011 0.43
0.376 -0.995 0.428
0.381 -0.983 0.426
0.386 -0.972 0.423
0.386 -0.95 0.423
0.389 -0.935 0.421
0.393 -0.923 0.419
0.397 -0.911 0.417
0.4 -0.898 0.416
0.4 -0.877 0.416
0.407 -0.874 0.412
0.406 -0.852 0.413
0.412 -0.848 0.409
0.415 -0.835 0.408
0.417 -0.821 0.407
0.419 -0.81 0.406
0.421 -0.797 0.405
0.428 -0.794 0.401
0.429 -0.781 0.401
0.43 -0.767 0.4
0.431 -0.753 0.4
0.438 -0.751 0.396
0.437 -0.736 0.396
0.443 -0.732 0.393
0.444 -0.719 0.393
0.445 -0.707 0.393
0.445 -0.694 0.393
0.45 -0.69 0.39
0.45 -0.677 0.39
0.456 -0.673 0.387
0.458 -0.664 0.386
0.437 -0.621 0.396
0 0 0
0.695 -0.983 0.263
0.712 -0.991 0.254
0.715 -0.978 0.252
0.726 -0.976 0.246
0.719 -0.949 0.25
0.707 -0.915 0.256
0.709 -0.902 0.255
0.716 -0.896 0.252
0.729 -0.897 0.245
0.741 -0.896 0.239
0.752 -0.895 0.233
0.764 -0.894 0.226
0.763 -0.877 0.227
0.769 -0.869 0.224
0.768 -0.852 0.225
0.768 -0.838 0.225
0.758 -0.812 0.23
0.757 -0.798 0.23
0.752 -0.778 0.233
0.748 -0.761 0.235
0.765 -0.765 0.226
0 0 0
0 0 0
0 0 0
0 0 0
0 0 0
0 0 0
0.971 -0.868 0.119
0 0 0
0 0 0
1.4 -1.2 -0.104
1.432 -1.206 -0.12
1.422 -1.176 -0.115
1.433 -1.164 -0.121
1.422 -1.134 -0.115
1.431 -1.12 -0.12
1.424 -1.094 -0.116
1.432 -1.081 -0.121
1.43 -1.059 -0.12
1.431 -1.04 -0.12
1.425 -1.016 -0.117
1.432 -1.002 -0.121
1.432 -0.982 -0.12
1.439 -0.968 -0.124
1.433 -0.945 -0.121
1.439 -0.93 -0.124
1.433 -0.908 -0.121
1.436 -0.892 -0.123
1.429 -0.87 -0.119
1.443 -0.86 -0.126
1.435 -0.838 -0.122
1.441 -0.823 -0.125
1.43 -0.8 -0.12
1.436 -0.786 -0.122
1.348 -0.72 -0.077
1.339 -0.7 -0.072
1.358 -0.694 -0.082
1.404 -0.702 -0.106
1.433 -0.7 -0.121
1.43 -0.683 -0.12
1.436 -0.669 -0.122
1.434 -0.652 -0.122
1.433 -0.636 -0.121
1.436 -0.621 -0.123
1.43 -0.602 -0.119
1.44 -0.591 -0.125
1.435 -0.574 -0.122
1.438 -0.559 -0.124
1.44 -0.544 -0.125
1.441 -0.529 -0.125
1.438 -0.513 -0.124
1.44 -0.499 -0.125
1.437 -0.482 -0.123
1.442 -0.469 -0.126
1.431 -0.45 -0.12
1.439 -0.438 -0.124
1.439 -0.423 -0.124
1.438 -0.408 -0.124
1.435 -0.393 -0.122
1.441 -0.38 -0.125
1.43 -0.362 -0.12
1.441 -0.351 -0.125
1.435 -0.335 -0.122
1.441 -0.322 -0.125
1.432 -0.305 -0.12
1.443 -0.294 -0.126
1.434 -0.277 -0.121
1.437 -0.264 -0.123
1.434 -0.249 -0.122
1.42 -0.233 -0.114
1.433 -0.221 -0.121
1.435 -0.207 -0.122
1.441 -0.194 -0.125
1.444 -0.181 -0.127
1.435 -0.166 -0.122
1.442 -0.152 -0.126
1.43 -0.137 -0.12
1.437 -0.124 -0.123
1.44 -0.111 -0.125
1.438 -0.097 -0.124
1.434 -0.082 -0.121
1.44 -0.069 -0.125
1.433 -0.055 -0.121
1.438 -0.041 -0.124
1.435 -0.027 -0.122
1.439 -0.014 -0.124
1.436 -0 -0.123
1.445 0.014 -0.127
1.438 0.028 -0.124
1.438 0.041 -0.124
1.434 0.055 -0.122
1.436 0.069 -0.123
1.435 0.083 -0.122
1.441 0.097 -0.125
1.44 0.111 -0.125
1.442 0.125 -0.126
1.441 0.138 -0.125
1.445 0.153 -0.127
1.433 0.165 -0.121
1.446 0.181 -0.128
1.444 0.195 -0.127
1.449 0.209 -0.129
1.443 0.223 -0.126
1.446 0.237 -0.128
1.442 0.251 -0.126
1.447 0.266 -0.128
1.442 0.279 -0.126
1.449 0.295 -0.129
1.44 0.307 -0.124
1.447 0.323 -0.128
1.444 0.337 -0.127
1.454 0.354 -0.132
1.45 0.368 -0.13
1.456 0.384 -0.133
1.456 0.399 -0.133
1.454 0.413 -0.132
1.453 0.428 -0.132
1.455 0.443 -0.132
1.448 0.456 -0.129
1.449 0.471 -0.129
1.445 0.485 -0.127
1.453 0.503 -0.131
1.446 0.516 -0.128
1.451 0.533 -0.13
1.448 0.548 -0.129
1.452 0.564 -0.131
1.445 0.577 -0.127
1.453 0.597 -0.132
1.449 0.611 -0.129
1.453 0.629 -0.132
1.456 0.646 -0.133
1.459 0.664 -0.135
1.465 0.683 -0.138
1.461 0.698 -0.136
1.453 0.711 -0.132
1.465 0.733 -0.138
1.454 0.745 -0.132
1.464 0.767 -0.137
1.463 0.784 -0.137
1.467 0.803 -0.139
1.459 0.817 -0.135
1.472 0.842 -0.141
1.465 0.856 -0.138
1.465 0.874 -0.138
1.465 0.892 -0.138
1.473 0.915 -0.142
1.47 0.932 -0.14
1.472 0.953 -0.141
1.466 0.967 -0.138
1.47 0.99 -0.14
1.462 1.004 -0.136
1.468 1.027 -0.139
1.47 1.048 -0.14
1.474 1.072 -0.142
1.472 1.09 -0.141
1.478 1.116 -0.144
1.476 1.135 -0.143
1.475 1.156 -0.143
1.475 1.177 -0.143
1.48 1.203 -0.146
1.476 1.222 -0.143
0.976 0.812 0.116
0.828 0.696 0.193
0.8 0.684 0.208
0.705 0.609 0.257
0.677 0.595 0.272
0.665 0.594 0.278
0.658 0.597 0.282
0.65 0.6 0.286
0.647 0.608 0.287
0.638 0.61 0.292
0.627 0.609 0.298
0.623 0.616 0.3
0.617 0.62 0.303
0.606 0.619 0.309
0.599 0.622 0.312
0.589 0.622 0.318
0.583 0.626 0.321
0.572 0.624 0.327
0.567 0.629 0.329
0.556 0.627 0.335
0.552 0.633 0.337
0.542 0.632 0.342
0.538 0.638 0.344
0.527 0.635 0.35
0.524 0.642 0.352
0.515 0.642 0.356
0.511 0.648 0.358
0.507 0.654 0.36
0.498 0.653 0.365
0.494 0.659 0.367
0.485 0.658 0.372
0.48 0.663 0.374
0.471 0.661 0.379
0.467 0.667 0.381
0.454 0.658 0.388
0.449 0.663 0.39
0.439 0.658 0.396
0.434 0.662 0.398
0.424 0.659 0.403
0.415 0.655 0.408
0.41 0.66 0.411
0.404 0.662 0.413
0.399 0.666 0.416
0.394 0.669 0.419
0.389 0.674 0.421
0.38 0.669 0.426
0.371 0.665 0.431
0.366 0.669 0.433
0.361 0.671 0.436
0.355 0.675 0.439
0.349 0.674 0.443
0.343 0.676 0.445
0.332 0.667 0.451
0.321 0.656 0.457
0.314 0.654 0.46
0.306 0.649 0.465
0.298 0.644 0.469
0.29 0.64 0.473
0.283 0.638 0.476
0.28 0.643 0.478
0.275 0.646 0.481
0.269 0.645 0.484
0.265 0.652 0.486
0.264 0.665 0.487
0.261 0.675 0.488
0.258 0.683 0.49
0.264 0.722 0.486
0.277 0.785 0.48
0.269 0.781 0.484
0.258 0.767 0.489
0.248 0.754 0.495
0.238 0.74 0.5
0.226 0.718 0.506
0.218 0.71 0.51
0.212 0.709 0.514
0.208 0.719 0.516
0.203 0.723 0.518
0.201 0.742 0.519
0.198 0.756 0.521
0.195 0.77 0.522
0.19 0.776 0.525
0.184 0.78 0.528
0.178 0.78 0.531
0.17 0.773 0.535
0.165 0.775 0.538
0.159 0.778 0.541
0.156 0.799 0.543
0.15 0.802 0.546
0.145 0.814 0.548
0.139 0.818 0.551
0.132 0.813 0.555
0.125 0.81 0.558
0.119 0.811 0.562
0.113 0.812 0.565
0.109 0.836 0.567
0.103 0.852 0.57
0.096 0.842 0.574
0.09 0.846 0.577
0.083 0.851 0.58
0.077 0.856 0.584
0.07 0.854 0.587
0.064 0.852 0.591
0.057 0.844 0.594
0.05 0.845 0.598
0.044 0.838 0.601
0.037 0.506 0.604
0.037 -0.419 0.605
0.043 -0.692 0.602
0.049 -0.779 0.598
0.056 -0.81 0.595
0.063 -0.822 0.592
0.07 -0.833 0.588
0.077 -0.845 0.584
0.084 -0.854 0.581
0.09 -0.855 0.577
0.098 -0.864 0.574
0.105 -0.866 0.57
0.112 -0.875 0.566
0.12 -0.884 0.562
0.127 -0.884 0.559
0.135 -0.893 0.555
0.143 -0.9 0.551
0.151 -0.909 0.547
0.159 -0.918 0.542
0.168 -0.925 0.538
0.176 -0.932 0.534
0.185 -0.94 0.529
0.193 -0.946 0.525
0.203 -0.956 0.52
0.212 -0.962 0.516
0.221 -0.972 0.511
0.229 -0.971 0.507
0.239 -0.982 0.502
0.249 -0.989 0.497
0.26 -1.005 0.491
0.27 -1.013 0.486
0.281 -1.02 0.48
0.299 -1.061 0.471
0.314 -1.082 0.464
0.325 -1.091 0.458
0.336 -1.098 0.452
0.348 -1.106 0.446
0.354 -1.094 0.443
0.356 -1.071 0.442
0.363 -1.064 0.438
0.365 -1.04 0.437
0.373 -1.035 0.433
0.373 -1.009 0.433
0.377 -0.995 0.431
0.382 -0.983 0.429
0.383 -0.961 0.428
0.387 -0.948 0.426
0.39 -0.934 0.424
0.394 -0.923 0.422
0.399 -0.912 0.42
0.402 -0.9 0.418
0.405 -0.886 0.417
0.408 -0.874 0.415
0.411 -0.861 0.414
0.41 -0.839 0.415
0.416 -0.835 0.411
0.418 -0.821 0.41
0.421 -0.811 0.408
0.423 -0.797 0.408
0.429 -0.794 0.404
0.431 -0.782 0.404
0.432 -0.768 0.403
0.433 -0.755 0.402
0.434 -0.742 0.402
0.439 -0.736 0.4
0.445 -0.733 0.396
0.441 -0.711 0.399
0.446 -0.707 0.396
0.446 -0.694 0.396
0.452 -0.691 0.393
0.452 -0.677 0.393
0.457 -0.673 0.391
0.455 -0.657 0.392
0.443 -0.627 0.398
0 0 0
0.713 -1.006 0.26
0.732 -1.017 0.25
0.737 -1.006 0.247
0.74 -0.992 0.246
0.732 -0.964 0.25
0.728 -0.941 0.252
0.718 -0.912 0.257
0.72 -0.897 0.256
0.733 -0.898 0.25
0.745 -0.899 0.243
0.762 -0.904 0.234
0.768 -0.895 0.232
0.774 -0.887 0.229
0.781 -0.88 0.225
0.774 -0.857 0.229
0.781 -0.849 0.225
0.771 -0.824 0.23
0.777 -0.817 0.227
0.762 -0.786 0.234
0.752 -0.761 0.24
0.766 -0.763 0.233
0 0 0
0 0 0
0 0 0
0 0 0
0 0 0
0 0 0
0 0 0
0 0 0
0 0 0
1.423 -1.216 -0.103
1.45 -1.218 -0.117
1.441 -1.188 -0.112
1.446 -1.171 -0.115
1.444 -1.147 -0.113
1.45 -1.132 -0.117
1.445 -1.106 -0.114
1.453 -1.093 -0.118
1.444 -1.065 -0.113
1.451 -1.051 -0.117
1.445 -1.027 -0.114
1.452 -1.012 -0.117
1.453 -0.993 -0.118
1.452 -0.973 -0.118
1.452 -0.954 -0.117
1.454 -0.937 -0.118
1.456 -0.92 -0.12
1.458 -0.903 -0.121
1.45 -0.879 -0.116
1.459 -0.867 -0.121
1.455 -0.846 -0.119
1.454 -0.828 -0.118
1.452 -0.809 -0.118
1.455 -0.794 -0.119
1.355 -0.722 -0.068
1.344 -0.7 -0.062
1.365 -0.695 -0.073
1.42 -0.707 -0.101
1.446 -0.704 -0.114
1.453 -0.691 -0.118
1.45 -0.673 -0.116
1.451 -0.657 -0.117
1.455 -0.643 -0.119
1.457 -0.628 -0.12
1.449 -0.609 -0.116
1.455 -0.595 -0.119
1.454 -0.579 -0.119
1.459 -0.565 -0.121
1.453 -0.547 -0.118
1.458 -0.534 -0.121
1.454 -0.517 -0.119
1.459 -0.503 -0.121
1.458 -0.488 -0.121
1.455 -0.471 -0.119
1.452 -0.455 -0.117
1.461 -0.443 -0.122
1.455 -0.427 -0.119
1.459 -0.413 -0.121
1.449 -0.395 -0.116
1.464 -0.384 -0.123
1.452 -0.367 -0.117
1.462 -0.355 -0.123
1.459 -0.339 -0.121
1.463 -0.326 -0.123
1.453 -0.309 -0.118
1.456 -0.295 -0.12
1.459 -0.281 -0.121
1.458 -0.267 -0.12
1.432 -0.248 -0.107
1.419 -0.232 -0.101
1.44 -0.221 -0.112
1.46 -0.21 -0.121
1.46 -0.196 -0.121
1.458 -0.182 -0.121
1.454 -0.167 -0.119
1.465 -0.154 -0.124
1.459 -0.14 -0.121
1.46 -0.126 -0.121
1.453 -0.111 -0.118
1.461 -0.098 -0.122
1.46 -0.084 -0.122
1.456 -0.07 -0.12
1.451 -0.055 -0.117
1.462 -0.042 -0.122
1.458 -0.028 -0.121
1.46 -0.014 -0.122
1.456 -0 -0.12
1.46 0.014 -0.121
1.46 0.028 -0.122
1.465 0.042 -0.124
1.461 0.056 -0.122
1.458 0.07 -0.121
1.461 0.084 -0.122
1.466 0.098 -0.125
1.462 0.112 -0.123
1.468 0.126 -0.125
1.46 0.14 -0.121
1.462 0.154 -0.123
1.458 0.168 -0.121
1.466 0.183 -0.125
1.46 0.196 -0.121
1.469 0.212 -0.126
1.462 0.225 -0.122
1.47 0.24 -0.127
1.463 0.254 -0.123
1.466 0.268 -0.124
1.461 0.282 -0.122
1.464 0.297 -0.124
1.467 0.312 -0.125
1.463 0.326 -0.123
1.462 0.34 -0.123
1.466 0.356 -0.125
1.464 0.37 -0.124
1.478 0.388 -0.131
1.47 0.401 -0.127
1.476 0.418 -0.13
1.473 0.432 -0.128
1.474 0.447 -0.129
1.474 0.463 -0.129
1.473 0.477 -0.128
1.467 0.491 -0.125
1.47 0.507 -0.127
1.466 0.521 -0.125
1.473 0.539 -0.128
1.47 0.554 -0.127
1.47 0.57 -0.127
1.466 0.584 -0.125
1.474 0.603 -0.129
1.47 0.617 -0.127
1.478 0.637 -0.131
1.47 0.65 -0.127
1.484 0.673 -0.134
1.472 0.684 -0.128
1.471 0.7 -0.127
1.476 0.719 -0.13
1.479 0.738 -0.131
1.475 0.753 -0.129
1.483 0.774 -0.134
1.477 0.789 -0.13
1.487 0.812 -0.135
1.484 0.828 -0.134
1.486 0.847 -0.135
1.486 0.865 -0.135
1.488 0.884 -0.136
1.486 0.902 -0.135
1.491 0.923 -0.137
1.483 0.937 -0.133
1.486 0.958 -0.135
1.486 0.978 -0.135
1.493 1.002 -0.138
1.484 1.015 -0.134
1.494 1.042 -0.139
1.489 1.058 -0.136
1.489 1.079 -0.136
1.484 1.096 -0.134
1.498 1.127 -0.141
1.496 1.147 -0.14
1.495 1.168 -0.14
1.493 1.187 -0.138
1.506 1.22 -0.145
1.495 1.233 -0.139
0.952 0.788 0.138
0.827 0.693 0.202
0.806 0.687 0.212
0.714 0.615 0.259
0.686 0.6 0.273
0.674 0.6 0.279
0.661 0.598 0.286
0.652 0.6 0.291
0.651 0.61 0.291
0.64 0.61 0.297
0.633 0.613 0.3
0.624 0.614 0.305
0.613 0.613 0.311
0.606 0.617 0.314
0.601 0.622 0.317
0.59 0.62 0.323
0.585 0.626 0.325
0.574 0.624 0.331
0.564 0.623 0.336
0.558 0.627 0.339
0.549 0.627 0.344
0.544 0.632 0.346
0.534 0.63 0.351
0.53 0.637 0.353
0.525 0.642 0.355
0.518 0.643 0.359
0.513 0.648 0.362
0.504 0.647 0.367
0.5 0.653 0.368
0.491 0.652 0.373
0.487 0.658 0.375
0.478 0.656 0.38
0.473 0.661 0.382
0.464 0.66 0.387
0.456 0.659 0.391
0.45 0.663 0.394
0.445 0.667 0.396
0.435 0.662 0.402
0.426 0.659 0.406
0.416 0.655 0.411
0.411 0.66 0.414
0.406 0.662 0.416
0.401 0.666 0.419
0.395 0.669 0.422
0.391 0.674 0.424
0.381 0.669 0.429
0.372 0.665 0.434
0.367 0.669 0.436
0.361 0.671 0.439
0.356 0.673 0.442
0.348 0.671 0.446
0.338 0.663 0.451
0.327 0.653 0.457
0.323 0.657 0.459
0.311 0.644 0.465
0.305 0.645 0.468
0.296 0.639 0.472
0.293 0.646 0.474
0.285 0.641 0.478
0.281 0.646 0.48
0.275 0.645 0.483
0.27 0.648 0.486
0.267 0.654 0.487
0.264 0.665 0.489
0.263 0.678 0.489
0.261 0.692 0.49
0.259 0.704 0.491
0.274 0.772 0.484
0.27 0.78 0.486
0.259 0.767 0.491
0.248 0.75 0.497
0.239 0.741 0.502
0.227 0.718 0.508
0.218 0.709 0.512
0.213 0.711 0.515
0.209 0.721 0.517
0.203 0.718 0.52
0.202 0.744 0.52
0.199 0.758 0.522
0.196 0.771 0.524
0.191 0.777 0.526
0.184 0.778 0.529
0.178 0.775 0.533
0.171 0.772 0.536
0.165 0.775 0.539
0.159 0.774 0.543
0.157 0.801 0.544
0.15 0.802 0.547
0.144 0.804 0.55
0.14 0.818 0.552
0.132 0.813 0.556
0.126 0.808 0.56
0.119 0.811 0.563
0.113 0.812 0.566
0.109 0.836 0.568
0.103 0.85 0.571
0.096 0.841 0.575
0.09 0.846 0.578
0.084 0.851 0.581
0.077 0.855 0.584
0.07 0.854 0.588
0.064 0.851 0.591
0.057 0.844 0.595
0.05 0.836 0.598
0.044 0.839 0.601
0.037 0.542 0.605
0.037 -0.428 0.605
0.043 -0.699 0.602
0.049 -0.788 0.599
0.056 -0.81 0.595
0.063 -0.823 0.592
0.07 -0.834 0.588
0.077 -0.845 0.585
0.084 -0.855 0.581
0.091 -0.855 0.578
0.098 -0.864 0.574
0.105 -0.865 0.571
0.112 -0.875 0.567
0.12 -0.884 0.563
0.127 -0.883 0.559
0.135 -0.894 0.555
0.143 -0.9 0.551
0.151 -0.91 0.547
0.159 -0.917 0.543
0.168 -0.923 0.539
0.176 -0.932 0.535
0.185 -0.94 0.53
0.194 -0.948 0.526
0.203 -0.954 0.521
0.212 -0.962 0.517
0.222 -0.972 0.512
0.232 -0.983 0.507
0.239 -0.98 0.503
0.249 -0.989 0.498
0.261 -1.005 0.492
0.271 -1.011 0.487
0.283 -1.029 0.481
0.3 -1.06 0.472
0.314 -1.082 0.465
0.326 -1.091 0.459
0.337 -1.098 0.454
0.345 -1.094 0.449
0.354 -1.094 0.445
0.357 -1.071 0.443
0.364 -1.064 0.44
0.366 -1.04 0.439
0.37 -1.023 0.437
0.375 -1.012 0.434
0.378 -0.994 0.433
0.379 -0.972 0.432
0.383 -0.96 0.43
0.388 -0.948 0.428
0.392 -0.937 0.426
0.392 -0.915 0.426
0.399 -0.91 0.422
0.399 -0.89 0.422
0.406 -0.886 0.419
0.409 -0.874 0.417
0.412 -0.86 0.416
0.411 -0.839 0.416
0.417 -0.835 0.413
0.419 -0.821 0.412
0.422 -0.81 0.411
0.424 -0.797 0.41
0.425 -0.784 0.409
0.427 -0.772 0.408
0.434 -0.769 0.405
0.434 -0.755 0.405
0.435 -0.741 0.404
0.44 -0.737 0.402
0.442 -0.726 0.401
0.446 -0.719 0.398
0.447 -0.707 0.398
0.448 -0.695 0.398
0.453 -0.691 0.395
0.453 -0.677 0.395
0.453 -0.665 0.395
0.458 -0.66 0.393
0.442 -0.624 0.401
0 0 0
0.725 -1.022 0.258
0.75 -1.041 0.245
0.751 -1.023 0.245
0.753 -1.008 0.244
0.745 -0.979 0.248
0.745 -0.961 0.248
0.732 -0.927 0.255
0.743 -0.925 0.249
0.74 -0.905 0.251
0.754 -0.907 0.243
0.77 -0.911 0.235
0.776 -0.903 0.232
0.779 -0.892 0.23
0.78 -0.876 0.23
0.78 -0.862 0.23
0.779 -0.846 0.231
0.787 -0.84 0.227
0.785 -0.824 0.227
0.787 -0.811 0.227
0.781 -0.79 0.23
0.771 -0.767 0.235
0.783 -0.765 0.229
0 0 0
0 0 0
0 0 0
0 0 0
0 0 0
0 0 0
0 0 0
0 0 0
1.445 -1.232 -0.105
1.467 -1.228 -0.116
1.46 -1.201 -0.113
1.464 -1.183 -0.115
1.459 -1.157 -0.112
1.467 -1.142 -0.116
1.457 -1.113 -0.111
1.465 -1.099 -0.115
1.466 -1.079 -0.116
1.47 -1.062 -0.118
1.466 -1.039 -0.116
1.471 -1.023 -0.118
1.471 -1.004 -0.118
1.472 -0.985 -0.119
1.466 -0.962 -0.116
1.472 -0.947 -0.119
1.469 -0.926 -0.117
1.475 -0.911 -0.12
1.469 -0.889 -0.117
1.477 -0.876 -0.121
1.467 -0.852 -0.116
1.473 -0.837 -0.119
1.473 -0.819 -0.119
1.453 -0.791 -0.109
1.352 -0.718 -0.058
1.347 -0.7 -0.056
1.371 -0.696 -0.068
1.435 -0.713 -0.1
1.467 -0.713 -0.116
1.473 -0.699 -0.119
1.469 -0.681 -0.117
1.472 -0.665 -0.119
1.464 -0.645 -0.115
1.475 -0.634 -0.12
1.468 -0.615 -0.117
1.474 -0.602 -0.12
1.469 -0.583 -0.117
1.47 -0.568 -0.118
1.473 -0.554 -0.119
1.475 -0.539 -0.12
1.464 -0.519 -0.115
1.476 -0.508 -0.121
1.469 -0.49 -0.117
1.474 -0.477 -0.12
1.472 -0.461 -0.119
1.473 -0.446 -0.119
1.465 -0.428 -0.115
1.474 -0.416 -0.12
1.469 -0.4 -0.117
1.473 -0.386 -0.119
1.474 -0.372 -0.12
1.475 -0.357 -0.12
1.471 -0.341 -0.118
1.474 -0.327 -0.12
1.471 -0.312 -0.118
1.48 -0.299 -0.123
1.469 -0.283 -0.117
1.473 -0.269 -0.12
1.429 -0.247 -0.097
1.424 -0.232 -0.094
1.449 -0.222 -0.107
1.48 -0.213 -0.123
1.472 -0.197 -0.119
1.478 -0.184 -0.122
1.475 -0.169 -0.12
1.485 -0.156 -0.125
1.472 -0.141 -0.119
1.479 -0.127 -0.122
1.473 -0.112 -0.119
1.475 -0.098 -0.12
1.473 -0.084 -0.119
1.482 -0.071 -0.124
1.469 -0.056 -0.117
1.475 -0.042 -0.12
1.471 -0.028 -0.118
1.476 -0.014 -0.121
1.474 -0 -0.12
1.487 0.014 -0.126
1.475 0.028 -0.12
1.488 0.043 -0.127
1.479 0.056 -0.122
1.485 0.071 -0.125
1.476 0.084 -0.121
1.48 0.099 -0.123
1.477 0.113 -0.121
1.477 0.127 -0.121
1.481 0.141 -0.123
1.48 0.156 -0.123
1.481 0.17 -0.123
1.487 0.185 -0.126
1.481 0.199 -0.123
1.489 0.214 -0.127
1.484 0.228 -0.125
1.489 0.243 -0.127
1.481 0.256 -0.123
1.483 0.271 -0.124
1.479 0.285 -0.122
1.479 0.299 -0.122
1.477 0.313 -0.121
1.482 0.329 -0.124
1.48 0.343 -0.123
1.478 0.358 -0.122
1.48 0.373 -0.123
1.489 0.39 -0.127
1.491 0.406 -0.128
1.495 0.422 -0.131
1.49 0.436 -0.128
1.497 0.454 -0.131
1.486 0.465 -0.126
1.49 0.482 -0.128
1.491 0.498 -0.128
1.487 0.512 -0.126
1.487 0.527 -0.126
1.491 0.545 -0.128
1.488 0.559 -0.127
1.487 0.575 -0.126
1.49 0.592 -0.128
1.49 0.608 -0.128
1.487 0.623 -0.126
1.49 0.641 -0.128
1.495 0.66 -0.13
1.496 0.677 -0.131
1.485 0.688 -0.125
1.493 0.709 -0.129
1.496 0.727 -0.131
1.498 0.746 -0.132
1.495 0.761 -0.13
1.504 0.784 -0.135
1.497 0.797 -0.131
1.501 0.817 -0.133
1.502 0.836 -0.134
1.506 0.856 -0.136
1.503 0.873 -0.134
1.507 0.894 -0.136
1.501 0.909 -0.133
1.503 0.929 -0.134
1.506 0.95 -0.136
1.509 0.971 -0.137
1.506 0.988 -0.136
1.513 1.013 -0.14
1.505 1.028 -0.136
1.512 1.053 -0.139
1.504 1.067 -0.135
1.508 1.09 -0.137
1.509 1.112 -0.138
1.516 1.138 -0.141
1.515 1.159 -0.14
1.52 1.185 -0.143
1.513 1.201 -0.139
1.523 1.231 -0.144
1.51 1.243 -0.138
0.934 0.771 0.153
0.831 0.694 0.205
0.811 0.689 0.215
0.73 0.628 0.256
0.686 0.599 0.278
0.675 0.6 0.283
0.662 0.598 0.289
0.654 0.6 0.294
0.651 0.608 0.295
0.642 0.61 0.3
0.635 0.613 0.303
0.624 0.612 0.309
0.619 0.618 0.312
0.607 0.617 0.317
0.603 0.622 0.32
0.591 0.62 0.326
0.58 0.618 0.331
0.575 0.624 0.334
0.569 0.627 0.337
0.559 0.627 0.342
0.555 0.633 0.343
0.545 0.632 0.349
0.541 0.638 0.351
0.533 0.638 0.355
0.522 0.636 0.36
0.519 0.643 0.362
0.515 0.65 0.364
0.506 0.648 0.368
0.502 0.655 0.37
0.492 0.652 0.375
0.488 0.658 0.377
0.484 0.664 0.379
0.474 0.662 0.384
0.465 0.66 0.389
0.456 0.657 0.394
0.451 0.663 0.396
0.441 0.658 0.401
0.432 0.655 0.406
0.422 0.651 0.411
0.417 0.656 0.413
0.408 0.651 0.418
0.407 0.663 0.418
0.402 0.667 0.421
0.397 0.67 0.423
0.387 0.665 0.428
0.378 0.662 0.433
0.373 0.665 0.435
0.367 0.667 0.438
0.362 0.67 0.441
0.355 0.669 0.445
0.343 0.657 0.451
0.339 0.663 0.453
0.329 0.655 0.458
0.322 0.654 0.461
0.314 0.649 0.465
0.304 0.642 0.47
0.299 0.644 0.473
0.292 0.641 0.476
0.287 0.644 0.479
0.282 0.645 0.481
0.276 0.645 0.485
0.273 0.653 0.486
0.268 0.656 0.488
0.263 0.659 0.491
0.261 0.671 0.492
0.258 0.678 0.494
0.257 0.697 0.494
0.274 0.771 0.485
0.27 0.78 0.487
0.26 0.767 0.493
0.249 0.753 0.498
0.238 0.735 0.504
0.227 0.719 0.509
0.219 0.71 0.513
0.216 0.722 0.515
0.208 0.716 0.518
0.203 0.72 0.521
0.201 0.736 0.522
0.2 0.758 0.523
0.194 0.76 0.526
0.191 0.776 0.527
0.185 0.777 0.53
0.178 0.773 0.534
0.173 0.78 0.536
0.164 0.765 0.541
0.159 0.772 0.543
0.157 0.8 0.545
0.152 0.812 0.547
0.144 0.804 0.551
0.138 0.807 0.554
0.133 0.813 0.557
0.127 0.818 0.56
0.121 0.821 0.563
0.113 0.814 0.566
0.109 0.836 0.569
0.104 0.85 0.571
0.096 0.841 0.575
0.09 0.846 0.578
0.084 0.85 0.581
0.077 0.856 0.585
0.07 0.851 0.588
0.064 0.851 0.591
0.057 0.844 0.595
0.05 0.837 0.598
0.044 0.843 0.601
0.037 0.542 0.605
0.037 -0.438 0.605
0.043 -0.709 0.602
0.049 -0.779 0.599
0.056 -0.81 0.596
0.063 -0.822 0.592
0.07 -0.833 0.589
0.076 -0.835 0.586
0.083 -0.843 0.582
0.091 -0.855 0.579
0.098 -0.865 0.575
0.106 -0.875 0.571
0.113 -0.875 0.568
0.12 -0.885 0.564
0.129 -0.895 0.56
0.135 -0.893 0.556
0.143 -0.901 0.552
0.152 -0.909 0.548
0.16 -0.918 0.544
0.168 -0.924 0.54
0.177 -0.932 0.536
0.186 -0.94 0.532
0.195 -0.948 0.527
0.204 -0.956 0.523
0.213 -0.964 0.518
0.222 -0.973 0.513
0.23 -0.971 0.51
0.24 -0.98 0.505
0.25 -0.989 0.5
0.262 -1.005 0.494
0.271 -1.011 0.489
0.282 -1.02 0.484
0.303 -1.072 0.473
0.316 -1.087 0.467
0.327 -1.091 0.462
0.338 -1.098 0.456
0.346 -1.094 0.452
0.355 -1.092 0.448
0.361 -1.081 0.445
0.362 -1.054 0.444
0.367 -1.039 0.442
0.371 -1.024 0.44
0.375 -1.01 0.438
0.377 -0.988 0.437
0.381 -0.974 0.435
0.385 -0.961 0.433
0.389 -0.949 0.431
0.393 -0.935 0.429
0.394 -0.915 0.429
0.397 -0.903 0.427
0.404 -0.899 0.423
0.407 -0.885 0.422
0.407 -0.865 0.422
0.413 -0.859 0.419
0.416 -0.848 0.417
0.419 -0.836 0.416
0.421 -0.822 0.415
0.422 -0.809 0.414
0.425 -0.797 0.413
0.427 -0.785 0.412
0.428 -0.77 0.412
0.435 -0.768 0.408
0.436 -0.755 0.408
0.436 -0.741 0.407
0.441 -0.736 0.405
0.447 -0.732 0.402
0.443 -0.711 0.404
0.449 -0.708 0.401
0.449 -0.694 0.401
0.45 -0.682 0.401
0.455 -0.678 0.398
0.459 -0.673 0.396
0.453 -0.65 0.399
0.446 -0.628 0.403
0 0 0
0.724 -1.017 0.265
0.755 -1.043 0.25
0.758 -1.03 0.248
0.759 -1.013 0.248
0.762 -0.999 0.246
0.763 -0.982 0.246
0.753 -0.951 0.251
0.773 -0.961 0.241
0.743 -0.906 0.256
0.765 -0.918 0.245
0.776 -0.916 0.239
0.785 -0.911 0.235
0.782 -0.891 0.237
0.788 -0.884 0.233
0.786 -0.865 0.234
0.786 -0.85 0.234
0.787 -0.837 0.234
0.793 -0.829 0.231
0.798 -0.82 0.228
0.798 -0.806 0.228
0.785 -0.778 0.235
0.791 -0.771 0.232
0 0 0
0 0 0
0 0 0
0 0 0
0 0 0
0 0 0
0 0 0
0 0 0
1.465 -1.245 -0.102
1.485 -1.24 -0.112
1.481 -1.214 -0.11
1.484 -1.195 -0.111
1.478 -1.169 -0.108
1.488 -1.155 -0.113
1.48 -1.127 -0.109
1.485 -1.11 -0.112
1.478 -1.085 -0.108
1.486 -1.07 -0.112
1.485 -1.05 -0.112
1.486 -1.03 -0.112
1.485 -1.009 -0.112
1.494 -0.996 -0.116
1.485 -0.971 -0.112
1.492 -0.956 -0.115
1.492 -0.937 -0.115
1.497 -0.922 -0.118
1.49 -0.898 -0.114
1.498 -0.885 -0.118
1.488 -0.861 -0.113
1.487 -0.842 -0.113
1.486 -0.824 -0.112
1.454 -0.788 -0.096
1.351 -0.715 -0.045
1.351 -0.699 -0.045
1.376 -0.697 -0.058
1.458 -0.722 -0.098
1.489 -0.721 -0.114
1.486 -0.703 -0.112
1.483 -0.685 -0.111
1.493 -0.673 -0.116
1.49 -0.655 -0.114
1.495 -0.641 -0.117
1.489 -0.622 -0.114
1.496 -0.609 -0.117
1.49 -0.59 -0.114
1.499 -0.577 -0.118
1.488 -0.557 -0.113
1.496 -0.545 -0.117
1.497 -0.529 -0.118
1.494 -0.512 -0.116
1.491 -0.496 -0.115
1.495 -0.482 -0.117
1.491 -0.465 -0.115
1.494 -0.451 -0.116
1.485 -0.433 -0.112
1.495 -0.421 -0.117
1.494 -0.405 -0.116
1.488 -0.389 -0.113
1.489 -0.374 -0.114
1.492 -0.36 -0.115
1.491 -0.345 -0.115
1.493 -0.331 -0.116
1.49 -0.315 -0.114
1.494 -0.301 -0.116
1.496 -0.287 -0.117
1.475 -0.269 -0.107
1.44 -0.248 -0.089
1.434 -0.233 -0.086
1.455 -0.222 -0.097
1.493 -0.214 -0.115
1.487 -0.199 -0.113
1.501 -0.186 -0.12
1.494 -0.171 -0.116
1.499 -0.157 -0.119
1.498 -0.143 -0.118
1.497 -0.128 -0.118
1.495 -0.114 -0.117
1.504 -0.1 -0.121
1.495 -0.085 -0.117
1.5 -0.071 -0.119
1.489 -0.057 -0.114
1.499 -0.043 -0.119
1.494 -0.028 -0.116
1.505 -0.014 -0.122
1.499 -0 -0.119
1.498 0.014 -0.118
1.499 0.028 -0.119
1.505 0.043 -0.121
1.501 0.057 -0.12
1.499 0.071 -0.119
1.496 0.085 -0.117
1.502 0.1 -0.12
1.498 0.114 -0.118
1.506 0.129 -0.122
1.498 0.143 -0.118
1.495 0.157 -0.117
1.498 0.171 -0.118
1.503 0.186 -0.12
1.5 0.2 -0.119
1.501 0.215 -0.12
1.504 0.23 -0.121
1.503 0.244 -0.121
1.498 0.258 -0.118
1.498 0.273 -0.118
1.5 0.288 -0.119
1.501 0.303 -0.119
1.499 0.317 -0.119
1.498 0.332 -0.118
1.502 0.347 -0.12
1.508 0.364 -0.123
1.503 0.378 -0.121
1.516 0.396 -0.127
1.509 0.41 -0.124
1.515 0.426 -0.126
1.51 0.441 -0.124
1.511 0.456 -0.125
1.508 0.471 -0.123
1.509 0.487 -0.124
1.507 0.501 -0.123
1.511 0.518 -0.124
1.501 0.531 -0.12
1.513 0.551 -0.126
1.506 0.564 -0.122
1.517 0.585 -0.128
1.502 0.595 -0.12
1.515 0.616 -0.126
1.508 0.63 -0.123
1.513 0.649 -0.126
1.506 0.662 -0.122
1.518 0.684 -0.128
1.509 0.697 -0.123
1.517 0.718 -0.128
1.517 0.735 -0.128
1.521 0.754 -0.129
1.515 0.769 -0.126
1.525 0.792 -0.132
1.522 0.808 -0.13
1.523 0.827 -0.131
1.518 0.842 -0.128
1.524 0.863 -0.131
1.518 0.879 -0.128
1.528 0.903 -0.133
1.517 0.915 -0.128
1.527 0.941 -0.132
1.521 0.956 -0.13
1.528 0.98 -0.133
1.521 0.995 -0.13
1.529 1.02 -0.133
1.523 1.036 -0.13
1.525 1.058 -0.132
1.525 1.078 -0.132
1.532 1.104 -0.135
1.537 1.129 -0.138
1.537 1.15 -0.138
1.537 1.172 -0.137
1.542 1.197 -0.14
1.533 1.213 -0.135
1.543 1.244 -0.141
1.53 1.255 -0.134
0.947 0.779 0.155
0.829 0.69 0.213
0.816 0.692 0.219
0.742 0.637 0.256
0.687 0.598 0.283
0.669 0.592 0.292
0.665 0.598 0.294
0.657 0.601 0.298
0.652 0.607 0.301
0.642 0.608 0.306
0.637 0.613 0.308
0.624 0.611 0.314
0.621 0.618 0.316
0.61 0.617 0.322
0.596 0.613 0.328
0.593 0.62 0.33
