# .PCD v0.7 - Point Cloud Data file format
VERSION 0.7
FIELDS x y z
SIZE 4 4 4
TYPE F F F
COUNT 1 1 1
WIDTH 2535
HEIGHT 1
VIEWPOINT 0 0 0 1 0 0 0
POINTS 2535
DATA ascii
0.798 0.906 0.415
0 0 0
0 0 0
1.272 1.55 0.292
1.262 1.564 0.295
1.24 1.564 0.3
1.222 1.57 0.305
1.205 1.575 0.309
1.188 1.58 0.314
1.173 1.588 0.318
1.153 1.589 0.323
1.134 1.592 0.328
1.115 1.593 0.333
1.073 1.56 0.344
1.044 1.544 0.351
1.01 1.521 0.36
0.981 1.504 0.368
0.958 1.496 0.373
0.937 1.491 0.379
0.913 1.48 0.385
0.9 1.487 0.388
0.888 1.495 0.392
0.87 1.494 0.396
0.853 1.494 0.401
0.841 1.501 0.404
0.824 1.5 0.408
0.811 1.507 0.412
0.777 1.472 0.42
0.633 1.211 0.458
0.61 1.19 0.464
0.615 1.228 0.462
0.63 1.288 0.458
0.644 1.348 0.455
0.657 1.41 0.451
0.67 1.473 0.448
0.682 1.537 0.445
0.713 1.649 0.437
0.709 1.68 0.438
0.694 1.684 0.442
0.676 1.68 0.447
0.656 1.669 0.452
0.577 1.498 0.472
0.549 1.457 0.479
0.539 1.47 0.482
0.527 1.475 0.485
0.514 1.477 0.489
0.492 1.451 0.494
0.468 1.418 0.5
0.448 1.395 0.506
0.437 1.4 0.509
0.416 1.373 0.514
0.415 1.413 0.514
0.409 1.439 0.516
0.391 1.421 0.52
0.383 1.441 0.522
0.412 1.622 0.515
0.416 1.702 0.514
0.374 1.579 0.525
0.36 1.579 0.528
0.376 1.729 0.524
0.363 1.742 0.528
0.348 1.745 0.531
0.334 1.748 0.535
0.319 1.753 0.539
0.304 1.752 0.543
0.289 1.756 0.547
0.274 1.758 0.551
0.26 1.762 0.554
0.245 1.767 0.558
0.231 1.775 0.562
0.201 1.633 0.569
0.187 1.627 0.573
0.173 1.624 0.577
0.16 1.642 0.58
0.146 1.635 0.584
0.131 1.618 0.588
0.118 1.624 0.591
0.103 1.599 0.595
0.087 1.517 0.599
0.072 1.452 0.603
0.059 1.379 0.607
0.046 1.31 0.61
0.035 0.147 0.613
0.035 -0.398 0.613
0.039 -0.465 0.612
0.043 -0.485 0.611
0.048 -0.507 0.609
0.053 -0.517 0.608
0.057 -0.517 0.607
0.062 -0.525 0.606
0.066 -0.526 0.605
0.071 -0.527 0.604
0.075 -0.527 0.603
0.08 -0.528 0.601
0.084 -0.528 0.6
0.09 -0.536 0.599
0.094 -0.537 0.598
0.099 -0.535 0.597
0.103 -0.532 0.595
0.109 -0.541 0.594
0.114 -0.546 0.593
0.119 -0.545 0.591
0.124 -0.55 0.59
0.129 -0.549 0.589
0.134 -0.548 0.588
0.139 -0.55 0.586
0.143 -0.549 0.585
0.148 -0.549 0.584
0.153 -0.55 0.583
0.158 -0.55 0.581
0.163 -0.547 0.58
0.167 -0.547 0.579
0.174 -0.555 0.577
0.179 -0.553 0.576
0.183 -0.551 0.575
0.19 -0.558 0.573
0.195 -0.557 0.572
0.197 -0.547 0.572
0.205 -0.554 0.57
0.209 -0.553 0.569
0.214 -0.55 0.567
0.219 -0.549 0.566
0.226 -0.556 0.564
0.231 -0.554 0.563
0.239 -0.561 0.561
0.243 -0.559 0.56
0.25 -0.562 0.558
0.255 -0.56 0.557
0.263 -0.568 0.555
0.268 -0.566 0.554
0.273 -0.564 0.552
0.282 -0.571 0.55
0.286 -0.569 0.549
0.292 -0.567 0.548
0.301 -0.574 0.545
0.305 -0.571 0.544
0.313 -0.575 0.542
0.317 -0.571 0.541
0.327 -0.577 0.539
0.331 -0.575 0.537
0.34 -0.58 0.535
0.345 -0.576 0.534
0.354 -0.581 0.532
0.36 -0.58 0.53
0.37 -0.586 0.528
0.375 -0.583 0.527
0.38 -0.58 0.525
0.39 -0.585 0.523
0.395 -0.582 0.521
0.404 -0.585 0.519
0.414 -0.591 0.516
0.419 -0.587 0.515
0.429 -0.591 0.513
0.44 -0.596 0.51
0.444 -0.591 0.509
0.456 -0.597 0.506
0.466 -0.601 0.503
0.476 -0.604 0.501
0.479 -0.597 0.5
0.488 -0.598 0.498
0.499 -0.601 0.495
0.506 -0.6 0.493
0.52 -0.606 0.49
0.532 -0.611 0.487
0.539 -0.608 0.485
0.552 -0.614 0.481
0.556 -0.607 0.48
0.614 -0.663 0.466
0.769 -0.826 0.426
0.807 -0.853 0.417
0.822 -0.856 0.413
0.845 -0.865 0.407
0.859 -0.865 0.403
0.882 -0.873 0.398
0.897 -0.873 0.394
0.912 -0.874 0.39
0.934 -0.88 0.384
0.95 -0.88 0.38
0.973 -0.886 0.375
0.996 -0.893 0.369
1.019 -0.898 0.363
1.035 -0.897 0.359
1.06 -0.903 0.352
1.083 -0.907 0.347
1.107 -0.912 0.341
1.142 -0.925 0.332
1.178 -0.938 0.322
1.182 -0.924 0.322
1.189 -0.913 0.32
1.188 -0.896 0.32
1.188 -0.88 0.32
1.195 -0.869 0.318
1.194 -0.853 0.318
1.202 -0.843 0.317
1.2 -0.826 0.317
1.22 -0.825 0.312
1.264 -0.839 0.301
1.296 -0.845 0.293
1.329 -0.851 0.284
1.369 -0.86 0.274
1.41 -0.869 0.264
1.45 -0.877 0.253
1.492 -0.886 0.243
1.528 -0.889 0.233
1.565 -0.893 0.224
1.691 -0.947 0.192
2.034 -1.12 0.105
2.265 -1.223 0.046
2.277 -1.204 0.043
2.28 -1.18 0.043
2.281 -1.155 0.042
2.291 -1.135 0.04
2.311 -1.12 0.035
2.307 -1.093 0.036
2.303 -1.066 0.037
2.312 -1.046 0.035
2.349 -1.038 0.025
2.476 -1.069 -0.007
2.509 -1.057 -0.016
2.485 -1.021 -0.009
2.502 -1.002 -0.014
2.457 -0.959 -0.002
2.426 -0.922 0.005
2.468 -0.914 -0.005
2.482 -0.894 -0.009
2.476 -0.867 -0.007
2.487 -0.846 -0.01
2.468 -0.815 -0.005
2.451 -0.786 -0.001
2.448 -0.761 -0
2.482 -0.748 -0.009
2.474 -0.722 -0.007
2.481 -0.7 -0.009
2.463 -0.671 -0.004
2.475 -0.651 -0.007
2.471 -0.627 -0.006
2.479 -0.605 -0.008
2.469 -0.58 -0.005
2.479 -0.559 -0.008
2.465 -0.533 -0.004
2.486 -0.514 -0.01
2.471 -0.488 -0.006
2.487 -0.469 -0.01
2.48 -0.445 -0.008
2.485 -0.423 -0.01
2.477 -0.399 -0.007
2.481 -0.377 -0.008
2.477 -0.354 -0.007
2.495 -0.334 -0.012
2.489 -0.311 -0.011
2.491 -0.289 -0.011
2.488 -0.266 -0.01
2.499 -0.245 -0.013
2.485 -0.221 -0.009
2.49 -0.199 -0.011
2.485 -0.177 -0.01
2.493 -0.155 -0.012
2.486 -0.133 -0.01
2.496 -0.111 -0.012
2.485 -0.088 -0.009
2.504 -0.067 -0.014
2.489 -0.044 -0.01
2.508 -0.022 -0.015
2.491 -0 -0.011
2.508 0.022 -0.015
2.489 0.044 -0.01
2.507 0.067 -0.015
2.487 0.088 -0.01
2.507 0.111 -0.015
2.495 0.133 -0.012
2.5 0.156 -0.013
2.495 0.177 -0.012
2.51 0.201 -0.016
2.495 0.222 -0.012
2.512 0.246 -0.016
2.494 0.267 -0.012
2.51 0.291 -0.016
2.499 0.312 -0.013
2.505 0.335 -0.014
2.49 0.356 -0.011
2.502 0.38 -0.014
2.289 0.368 0.04
2.293 0.39 0.039
2.595 0.466 -0.037
2.616 0.493 -0.043
2.578 0.51 -0.033
2.534 0.525 -0.022
2.521 0.545 -0.019
2.553 0.576 -0.027
2.516 0.591 -0.017
2.555 0.624 -0.027
2.539 0.644 -0.023
2.546 0.67 -0.025
2.533 0.691 -0.022
2.546 0.718 -0.025
2.537 0.74 -0.023
2.234 0.672 0.054
2.161 0.671 0.073
2.223 0.712 0.057
2.185 0.721 0.067
2.102 0.714 0.088
2.07 0.723 0.096
2.073 0.744 0.095
2.091 0.772 0.091
2.102 0.797 0.088
2.101 0.818 0.088
2.116 0.846 0.084
2.258 0.926 0.048
2.285 0.962 0.041
2.256 0.973 0.049
0 0 0
2.387 1.08 0.015
0.951 0.43 0.38
0.952 0.441 0.38
0.962 0.456 0.377
0.985 0.478 0.372
0.962 0.477 0.377
0 0 0
0 0 0
0 0 0
0 0 0
0.954 0.526 0.379
0.923 0.518 0.387
0.916 0.525 0.389
0.909 0.531 0.391
0.889 0.529 0.396
0.884 0.537 0.397
0.882 0.546 0.398
0.869 0.548 0.401
0.87 0.559 0.401
0.855 0.56 0.405
0.858 0.573 0.404
0.856 0.582 0.404
0.845 0.585 0.407
0.848 0.598 0.406
0.848 0.61 0.406
0.838 0.613 0.409
0.831 0.619 0.411
0.831 0.63 0.411
0.833 0.643 0.41
0.828 0.651 0.411
0.822 0.658 0.413
0.821 0.669 0.413
0.821 0.681 0.413
0.818 0.69 0.414
0.82 0.704 0.413
0.809 0.706 0.416
0.811 0.721 0.416
0.807 0.73 0.417
0.801 0.737 0.418
0.804 0.752 0.418
0.8 0.762 0.418
0.798 0.774 0.419
0.799 0.788 0.419
0.797 0.8 0.419
0.793 0.809 0.42
0.79 0.821 0.421
0.792 0.837 0.421
0.799 0.86 0.419
0.989 1.093 0.37
0.813 0.907 0.415
0.798 0.905 0.419
0 0 0
0 0 0
1.25 1.52 0.304
1.26 1.561 0.302
1.241 1.564 0.306
1.223 1.568 0.311
1.212 1.583 0.314
1.19 1.58 0.32
1.168 1.58 0.325
1.154 1.589 0.329
1.13 1.583 0.335
1.091 1.556 0.344
1.059 1.536 0.353
1.035 1.53 0.359
0.998 1.501 0.368
0.973 1.49 0.374
0.95 1.481 0.38
0.932 1.481 0.385
0.914 1.479 0.39
0.901 1.487 0.393
0.889 1.495 0.396
0.871 1.494 0.4
0.859 1.501 0.404
0.842 1.501 0.408
0.825 1.5 0.412
0.812 1.507 0.415
0.79 1.496 0.421
0.638 1.22 0.46
0.608 1.185 0.467
0.613 1.221 0.466
0.626 1.279 0.463
0.641 1.34 0.459
0.653 1.399 0.456
0.667 1.463 0.452
0.683 1.536 0.448
0.708 1.636 0.442
0.709 1.678 0.442
0.695 1.684 0.445
0.677 1.68 0.45
0.65 1.652 0.457
0.57 1.475 0.477
0.549 1.457 0.482
0.54 1.47 0.485
0.525 1.466 0.488
0.514 1.477 0.491
0.493 1.452 0.497
0.469 1.418 0.503
0.449 1.395 0.508
0.437 1.399 0.511
0.414 1.363 0.517
0.415 1.412 0.516
0.409 1.439 0.518
0.394 1.431 0.522
0.384 1.442 0.524
0.408 1.601 0.518
0.418 1.71 0.516
0.375 1.58 0.527
0.36 1.579 0.53
0.376 1.728 0.526
0.363 1.742 0.529
0.349 1.744 0.533
0.334 1.75 0.537
0.319 1.75 0.541
0.304 1.753 0.544
0.29 1.757 0.548
0.275 1.757 0.552
0.26 1.76 0.556
0.245 1.76 0.56
0.232 1.778 0.563
0.202 1.638 0.57
0.187 1.627 0.574
0.171 1.606 0.578
0.159 1.629 0.581
0.146 1.638 0.585
0.131 1.618 0.588
0.118 1.627 0.592
0.103 1.597 0.596
0.087 1.516 0.6
0.072 1.451 0.603
0.059 1.382 0.607
0.046 1.307 0.61
0.035 0.152 0.613
0.035 -0.388 0.613
0.039 -0.455 0.612
0.043 -0.485 0.611
0.048 -0.506 0.61
0.053 -0.516 0.609
0.057 -0.526 0.607
0.062 -0.525 0.606
0.066 -0.526 0.605
0.071 -0.527 0.604
0.075 -0.528 0.603
0.08 -0.528 0.602
0.084 -0.528 0.601
0.09 -0.537 0.599
0.094 -0.536 0.598
0.099 -0.535 0.597
0.103 -0.533 0.596
0.109 -0.541 0.595
0.113 -0.539 0.594
0.119 -0.544 0.592
0.125 -0.55 0.591
0.129 -0.549 0.59
0.134 -0.547 0.589
0.139 -0.548 0.588
0.144 -0.55 0.586
0.149 -0.55 0.585
0.153 -0.55 0.584
0.158 -0.55 0.583
0.163 -0.548 0.582
0.17 -0.557 0.58
0.175 -0.556 0.579
0.179 -0.553 0.578
0.184 -0.551 0.576
0.191 -0.558 0.575
0.193 -0.548 0.574
0.2 -0.556 0.572
0.205 -0.554 0.571
0.209 -0.553 0.57
0.214 -0.55 0.569
0.219 -0.549 0.568
0.226 -0.556 0.566
0.232 -0.556 0.565
0.238 -0.559 0.563
0.244 -0.559 0.562
0.25 -0.561 0.56
0.255 -0.561 0.559
0.26 -0.559 0.558
0.268 -0.566 0.556
0.269 -0.555 0.555
0.282 -0.571 0.552
0.287 -0.569 0.551
0.296 -0.576 0.549
0.296 -0.564 0.549
0.305 -0.571 0.546
0.313 -0.575 0.545
0.317 -0.57 0.544
0.327 -0.577 0.541
0.336 -0.583 0.539
0.341 -0.58 0.538
0.35 -0.585 0.535
0.355 -0.582 0.534
0.36 -0.58 0.533
0.37 -0.585 0.531
0.375 -0.583 0.529
0.38 -0.58 0.528
0.39 -0.585 0.526
0.395 -0.582 0.524
0.404 -0.585 0.522
0.415 -0.59 0.52
0.42 -0.587 0.518
0.429 -0.591 0.516
0.435 -0.588 0.515
0.445 -0.592 0.512
0.456 -0.597 0.509
0.467 -0.601 0.507
0.477 -0.604 0.504
0.477 -0.593 0.504
0.488 -0.597 0.501
0.499 -0.6 0.499
0.513 -0.608 0.495
0.521 -0.606 0.493
0.526 -0.602 0.492
0.539 -0.608 0.489
0.547 -0.606 0.487
0.558 -0.609 0.484
0.623 -0.673 0.468
0.784 -0.841 0.429
0.81 -0.856 0.422
0.825 -0.857 0.419
0.846 -0.865 0.413
0.86 -0.864 0.41
0.876 -0.865 0.406
0.898 -0.873 0.401
0.914 -0.874 0.397
0.935 -0.879 0.392
0.952 -0.88 0.387
0.974 -0.886 0.382
0.998 -0.893 0.376
1.022 -0.899 0.37
1.038 -0.898 0.366
1.061 -0.903 0.36
1.084 -0.906 0.355
1.108 -0.911 0.349
1.144 -0.924 0.34
1.173 -0.932 0.333
1.184 -0.924 0.33
1.183 -0.907 0.33
1.19 -0.896 0.329
1.19 -0.88 0.329
1.197 -0.869 0.327
1.196 -0.853 0.327
1.196 -0.837 0.327
1.202 -0.826 0.326
1.228 -0.829 0.319
1.266 -0.839 0.31
1.306 -0.85 0.3
1.341 -0.856 0.292
1.372 -0.861 0.284
1.412 -0.869 0.274
1.452 -0.877 0.264
1.488 -0.882 0.255
1.532 -0.89 0.245
1.572 -0.895 0.235
1.698 -0.949 0.204
2.215 -1.219 0.076
2.269 -1.223 0.063
2.272 -1.199 0.062
2.284 -1.18 0.06
2.285 -1.155 0.059
2.286 -1.131 0.059
2.316 -1.12 0.052
2.311 -1.093 0.053
2.306 -1.066 0.054
2.316 -1.046 0.052
2.354 -1.038 0.042
2.515 -1.084 0.003
2.555 -1.075 -0.007
2.518 -1.033 0.002
2.539 -1.016 -0.003
2.504 -0.976 0.005
1.848 -0.698 0.167
2.517 -0.93 0.002
2.527 -0.909 -0
2.506 -0.876 0.005
2.532 -0.861 -0.002
2.514 -0.829 0.003
2.481 -0.794 0.011
2.49 -0.773 0.009
2.521 -0.758 0.001
2.518 -0.733 0.002
2.532 -0.713 -0.001
2.514 -0.684 0.003
2.526 -0.664 -0
2.504 -0.634 0.005
2.525 -0.616 0
2.507 -0.588 0.005
2.535 -0.571 -0.002
2.511 -0.542 0.004
2.525 -0.522 0
2.523 -0.498 0.001
2.534 -0.477 -0.002
2.519 -0.451 0.002
2.532 -0.43 -0.002
2.522 -0.406 0.001
2.539 -0.385 -0.003
2.513 -0.359 0.003
2.538 -0.339 -0.003
2.522 -0.314 0.001
2.537 -0.294 -0.003
2.534 -0.271 -0.002
2.536 -0.248 -0.002
2.537 -0.225 -0.003
2.536 -0.203 -0.002
2.531 -0.18 -0.001
2.548 -0.158 -0.006
2.524 -0.134 0
2.544 -0.113 -0.004
2.539 -0.09 -0.003
2.539 -0.068 -0.003
2.539 -0.045 -0.003
2.549 -0.023 -0.006
2.537 -0 -0.003
2.547 0.023 -0.005
2.543 0.045 -0.004
2.539 0.068 -0.003
2.529 0.09 -0.001
2.544 0.113 -0.004
2.54 0.135 -0.003
2.545 0.158 -0.005
2.537 0.18 -0.003
2.545 0.203 -0.005
2.543 0.226 -0.004
2.558 0.25 -0.008
2.539 0.271 -0.003
2.556 0.296 -0.007
2.544 0.317 -0.004
2.557 0.342 -0.008
2.548 0.364 -0.005
2.561 0.389 -0.009
2.359 0.379 0.041
2.332 0.396 0.048
2.633 0.472 -0.026
2.657 0.5 -0.032
2.629 0.519 -0.025
2.588 0.535 -0.015
2.563 0.553 -0.009
2.587 0.583 -0.015
2.579 0.605 -0.013
2.594 0.633 -0.017
2.587 0.655 -0.015
2.588 0.68 -0.015
2.578 0.702 -0.013
2.59 0.73 -0.016
2.582 0.752 -0.014
2.588 0.779 -0.015
2.167 0.671 0.088
2.19 0.7 0.083
2.198 0.724 0.081
2.106 0.714 0.103
2.073 0.723 0.111
2.077 0.745 0.11
2.086 0.769 0.108
2.106 0.797 0.103
2.111 0.821 0.102
2.112 0.843 0.102
2.26 0.926 0.065
2.294 0.964 0.057
2.26 0.973 0.065
0 0 0
0 0 0
0.966 0.437 0.384
0.979 0.453 0.381
0.972 0.46 0.382
0.989 0.479 0.378
2.246 1.135 0.069
0 0 0
0 0 0
0 0 0
0 0 0
0 0 0
0.923 0.518 0.394
0.905 0.518 0.399
0.895 0.522 0.401
0.882 0.524 0.405
0.88 0.533 0.405
0.875 0.541 0.406
0.874 0.55 0.407
0.869 0.558 0.408
0.863 0.565 0.409
0.859 0.573 0.41
0.847 0.574 0.413
0.852 0.589 0.412
0.849 0.598 0.413
0.843 0.604 0.414
0.84 0.613 0.415
0.838 0.623 0.415
0.837 0.634 0.416
0.832 0.641 0.417
0.835 0.655 0.416
0.826 0.66 0.418
0.834 0.678 0.416
0.825 0.683 0.419
0.827 0.697 0.418
0.824 0.707 0.419
0.818 0.714 0.42
0.812 0.721 0.422
0.81 0.732 0.422
0.804 0.739 0.424
0.809 0.756 0.423
0.804 0.765 0.424
0.805 0.779 0.424
0.806 0.793 0.423
0.799 0.8 0.425
0.799 0.814 0.425
0.804 0.834 0.424
0.797 0.841 0.426
0.878 0.947 0.406
1.001 1.104 0.375
0.797 0.887 0.425
0.789 0.894 0.427
0 0 0
0 0 0
1.288 1.566 0.305
1.263 1.561 0.311
1.243 1.564 0.316
1.225 1.568 0.32
1.208 1.575 0.324
1.192 1.58 0.328
1.17 1.58 0.334
1.157 1.59 0.337
1.108 1.549 0.349
1.083 1.542 0.355
1.044 1.511 0.365
1.019 1.502 0.371
0.991 1.487 0.378
0.97 1.483 0.383
0.951 1.481 0.387
0.933 1.48 0.392
0.916 1.48 0.396
0.903 1.487 0.399
0.885 1.486 0.404
0.873 1.494 0.407
0.86 1.501 0.41
0.843 1.501 0.414
0.826 1.5 0.418
0.813 1.507 0.421
0.796 1.505 0.426
0.639 1.221 0.464
0.61 1.187 0.472
0.615 1.225 0.47
0.63 1.284 0.467
0.64 1.337 0.464
0.654 1.399 0.461
0.667 1.463 0.457
0.68 1.527 0.454
0.709 1.636 0.447
0.709 1.676 0.447
0.696 1.684 0.45
0.678 1.68 0.455
0.651 1.653 0.461
0.567 1.464 0.482
0.551 1.458 0.486
0.54 1.469 0.489
0.528 1.475 0.492
0.515 1.477 0.495
0.493 1.451 0.5
0.47 1.419 0.506
0.449 1.395 0.511
0.437 1.399 0.514
0.416 1.369 0.519
0.416 1.413 0.519
0.409 1.438 0.521
0.394 1.431 0.525
0.384 1.441 0.527
0.406 1.593 0.522
0.421 1.72 0.518
0.377 1.59 0.529
0.361 1.577 0.533
0.377 1.729 0.529
0.364 1.742 0.532
0.349 1.745 0.536
0.335 1.75 0.539
0.32 1.753 0.543
0.305 1.755 0.547
0.29 1.756 0.55
0.275 1.758 0.554
0.26 1.76 0.558
0.245 1.76 0.561
0.231 1.77 0.565
0.203 1.648 0.572
0.187 1.627 0.576
0.171 1.596 0.58
0.16 1.631 0.582
0.146 1.632 0.586
0.132 1.624 0.589
0.118 1.632 0.593
0.103 1.605 0.596
0.086 1.515 0.6
0.072 1.452 0.604
0.059 1.384 0.607
0.046 1.314 0.61
0.035 0.152 0.613
0.035 -0.398 0.613
0.039 -0.455 0.612
0.043 -0.485 0.611
0.048 -0.506 0.61
0.053 -0.517 0.609
0.057 -0.526 0.608
0.062 -0.527 0.607
0.066 -0.527 0.606
0.071 -0.528 0.605
0.075 -0.528 0.603
0.08 -0.528 0.602
0.084 -0.528 0.601
0.09 -0.536 0.6
0.094 -0.536 0.599
0.099 -0.534 0.598
0.104 -0.542 0.596
0.109 -0.542 0.595
0.113 -0.539 0.594
0.119 -0.544 0.593
0.123 -0.542 0.592
0.129 -0.549 0.59
0.134 -0.547 0.589
0.138 -0.547 0.588
0.144 -0.549 0.587
0.149 -0.55 0.586
0.153 -0.549 0.585
0.158 -0.55 0.583
0.163 -0.548 0.582
0.168 -0.547 0.581
0.175 -0.555 0.58
0.179 -0.553 0.578
0.184 -0.551 0.577
0.188 -0.549 0.576
0.195 -0.556 0.575
0.198 -0.548 0.574
0.205 -0.553 0.572
0.21 -0.554 0.571
0.214 -0.55 0.57
0.219 -0.549 0.569
0.227 -0.557 0.567
0.232 -0.555 0.566
0.238 -0.559 0.564
0.243 -0.557 0.563
0.251 -0.563 0.561
0.255 -0.561 0.56
0.26 -0.559 0.559
0.269 -0.567 0.557
0.273 -0.564 0.556
0.282 -0.571 0.554
0.288 -0.571 0.552
0.292 -0.566 0.551
0.297 -0.564 0.55
0.306 -0.571 0.548
0.313 -0.574 0.546
0.323 -0.581 0.544
0.327 -0.577 0.543
0.332 -0.575 0.542
0.341 -0.58 0.539
0.345 -0.575 0.538
0.355 -0.582 0.536
0.361 -0.58 0.535
0.366 -0.578 0.533
0.376 -0.583 0.531
0.381 -0.581 0.53
0.391 -0.585 0.527
0.4 -0.589 0.525
0.404 -0.585 0.524
0.414 -0.59 0.522
0.419 -0.586 0.521
0.43 -0.591 0.518
0.44 -0.596 0.515
0.445 -0.591 0.514
0.457 -0.597 0.512
0.466 -0.6 0.509
0.477 -0.603 0.507
0.485 -0.604 0.505
0.489 -0.597 0.504
0.5 -0.602 0.501
0.509 -0.602 0.499
0.521 -0.606 0.496
0.527 -0.604 0.494
0.54 -0.608 0.492
0.547 -0.606 0.49
0.565 -0.616 0.486
0.626 -0.676 0.471
0.784 -0.841 0.433
0.811 -0.856 0.426
0.825 -0.857 0.423
0.847 -0.865 0.417
0.862 -0.865 0.414
0.883 -0.873 0.409
0.899 -0.873 0.405
0.914 -0.873 0.401
0.937 -0.88 0.396
0.952 -0.88 0.392
0.975 -0.886 0.387
0.998 -0.892 0.381
1.021 -0.897 0.376
1.039 -0.897 0.371
1.063 -0.903 0.365
1.085 -0.906 0.36
1.109 -0.911 0.354
1.146 -0.925 0.346
1.175 -0.933 0.339
1.184 -0.923 0.336
1.184 -0.907 0.336
1.191 -0.896 0.335
1.191 -0.88 0.335
1.198 -0.869 0.333
1.198 -0.853 0.333
1.197 -0.837 0.333
1.203 -0.826 0.332
1.226 -0.826 0.326
1.268 -0.839 0.316
1.3 -0.845 0.308
1.34 -0.855 0.299
1.374 -0.861 0.291
1.415 -0.87 0.281
1.454 -0.877 0.271
1.496 -0.885 0.261
1.537 -0.892 0.251
1.576 -0.897 0.242
1.716 -0.958 0.208
2.245 -1.234 0.081
2.274 -1.224 0.074
2.275 -1.199 0.074
2.285 -1.179 0.071
2.288 -1.155 0.07
2.297 -1.135 0.068
2.31 -1.116 0.065
2.304 -1.088 0.066
2.309 -1.066 0.065
2.309 -1.041 0.065
2.36 -1.04 0.053
2.545 -1.096 0.008
2.6 -1.093 -0.005
2.581 -1.058 -0
2.589 -1.035 -0.002
2.522 -0.982 0.014
1.814 -0.684 0.184
2.569 -0.949 0.003
2.58 -0.927 -0
2.561 -0.895 0.004
2.582 -0.877 -0.001
2.569 -0.847 0.002
2.512 -0.803 0.016
2.557 -0.793 0.005
2.581 -0.776 -0
2.563 -0.746 0.004
2.579 -0.726 0
2.557 -0.695 0.005
2.574 -0.676 0.001
2.561 -0.648 0.004
2.563 -0.624 0.004
2.553 -0.598 0.006
2.57 -0.578 0.002
2.559 -0.552 0.005
2.577 -0.532 0.001
2.561 -0.505 0.004
2.572 -0.484 0.002
2.569 -0.46 0.002
2.587 -0.439 -0.002
2.56 -0.411 0.005
2.583 -0.392 -0.001
2.56 -0.365 0.005
2.586 -0.346 -0.002
2.566 -0.32 0.003
2.585 -0.299 -0.001
2.571 -0.274 0.002
2.579 -0.252 0
2.566 -0.228 0.003
2.594 -0.207 -0.003
2.583 -0.183 -0.001
2.59 -0.161 -0.003
2.569 -0.137 0.003
2.586 -0.115 -0.001
2.578 -0.091 0
2.59 -0.069 -0.003
2.571 -0.046 0.002
2.589 -0.023 -0.002
2.575 -0 0.001
2.585 0.023 -0.001
2.579 0.046 0
2.588 0.069 -0.002
2.584 0.092 -0.001
2.599 0.115 -0.005
2.582 0.137 -0
2.594 0.161 -0.003
2.582 0.183 -0.001
2.591 0.207 -0.003
2.582 0.229 -0.001
2.599 0.254 -0.005
2.59 0.276 -0.003
2.602 0.301 -0.006
2.593 0.323 -0.003
2.603 0.348 -0.006
2.59 0.369 -0.003
2.61 0.396 -0.007
2.562 0.412 0.004
2.375 0.403 0.049
2.687 0.481 -0.026
2.723 0.512 -0.035
2.695 0.532 -0.028
2.647 0.547 -0.016
2.613 0.564 -0.008
2.645 0.595 -0.016
2.647 0.62 -0.016
2.643 0.644 -0.015
2.629 0.665 -0.012
2.639 0.693 -0.014
2.63 0.715 -0.012
2.647 0.745 -0.016
2.643 0.769 -0.015
2.64 0.794 -0.015
2.171 0.672 0.099
2.198 0.702 0.092
2.209 0.726 0.089
2.108 0.713 0.114
2.076 0.723 0.121
2.072 0.742 0.122
2.087 0.768 0.119
2.105 0.796 0.114
2.101 0.816 0.115
2.108 0.84 0.114
2.26 0.925 0.077
2.298 0.964 0.068
2.27 0.976 0.074
0 0 0
0 0 0
0.973 0.44 0.387
0.974 0.451 0.387
0.972 0.46 0.387
2.352 1.163 0.055
2.262 1.142 0.076
0 0 0
0 0 0
0 0 0
0 0 0
0 0 0
0.905 0.506 0.404
0.898 0.513 0.405
0.884 0.515 0.408
0.88 0.522 0.41
0.881 0.533 0.409
0.871 0.537 0.412
0.863 0.543 0.414
0.867 0.556 0.413
0.862 0.563 0.414
0.852 0.567 0.416
0.855 0.58 0.415
0.847 0.585 0.417
0.85 0.598 0.417
0.84 0.602 0.419
0.838 0.611 0.42
0.843 0.626 0.418
0.841 0.636 0.419
0.833 0.641 0.421
0.842 0.66 0.419
0.845 0.675 0.418
0.854 0.695 0.416
0.839 0.694 0.42
0.85 0.716 0.417
0.832 0.712 0.421
0.843 0.735 0.419
0.817 0.725 0.425
0.814 0.734 0.425
0.81 0.743 0.426
0.816 0.763 0.425
0.807 0.767 0.427
0.811 0.784 0.426
0.802 0.788 0.428
0.804 0.805 0.428
0.802 0.816 0.428
0.802 0.831 0.428
0.802 0.846 0.428
0.92 0.993 0.4
1.011 1.115 0.378
0.785 0.872 0.432
0.776 0.877 0.435
0 0 0
0 0 0
0 0 0
1.26 1.556 0.318
1.244 1.564 0.322
1.226 1.568 0.326
1.21 1.575 0.33
1.194 1.582 0.334
1.163 1.568 0.341
1.127 1.546 0.35
1.092 1.524 0.358
1.068 1.518 0.364
1.031 1.491 0.373
1.01 1.487 0.378
0.987 1.479 0.384
0.964 1.472 0.389
0.952 1.48 0.392
0.934 1.48 0.397
0.916 1.479 0.401
0.904 1.487 0.404
0.886 1.486 0.408
0.874 1.494 0.411
0.861 1.501 0.414
0.844 1.501 0.418
0.831 1.508 0.421
0.814 1.507 0.425
0.797 1.505 0.43
0.645 1.231 0.466
0.611 1.188 0.474
0.613 1.219 0.474
0.626 1.275 0.471
0.639 1.332 0.468
0.656 1.4 0.464
0.668 1.463 0.461
0.68 1.525 0.458
0.709 1.632 0.451
0.71 1.676 0.451
0.696 1.684 0.454
0.679 1.68 0.458
0.643 1.629 0.467
0.567 1.463 0.485
0.554 1.467 0.488
0.541 1.469 0.491
0.529 1.475 0.494
0.515 1.477 0.497
0.493 1.451 0.503
0.47 1.418 0.508
0.45 1.395 0.513
0.438 1.398 0.516
0.417 1.369 0.521
0.415 1.409 0.522
0.412 1.448 0.522
0.395 1.431 0.526
0.384 1.441 0.529
0.404 1.582 0.524
0.423 1.73 0.52
0.378 1.59 0.531
0.359 1.568 0.535
0.375 1.718 0.531
0.364 1.742 0.534
0.35 1.745 0.537
0.335 1.748 0.541
0.32 1.751 0.545
0.305 1.753 0.548
0.29 1.756 0.552
0.275 1.758 0.555
0.26 1.76 0.559
0.245 1.761 0.563
0.231 1.771 0.566
0.206 1.669 0.572
0.187 1.623 0.577
0.172 1.606 0.58
0.16 1.631 0.583
0.146 1.636 0.586
0.132 1.624 0.59
0.118 1.634 0.593
0.103 1.605 0.597
0.087 1.525 0.601
0.072 1.454 0.604
0.058 1.379 0.608
0.046 1.314 0.61
0.035 0.182 0.613
0.035 -0.399 0.613
0.039 -0.455 0.613
0.043 -0.484 0.611
0.048 -0.505 0.61
0.053 -0.517 0.609
0.057 -0.526 0.608
0.062 -0.525 0.607
0.066 -0.526 0.606
0.071 -0.528 0.605
0.075 -0.527 0.604
0.08 -0.527 0.603
0.084 -0.528 0.602
0.089 -0.527 0.601
0.094 -0.536 0.6
0.099 -0.535 0.598
0.103 -0.533 0.597
0.109 -0.542 0.596
0.113 -0.539 0.595
0.119 -0.544 0.594
0.123 -0.542 0.593
0.129 -0.549 0.591
0.133 -0.546 0.59
0.138 -0.547 0.589
0.144 -0.55 0.588
0.149 -0.55 0.587
0.154 -0.55 0.586
0.159 -0.55 0.585
0.163 -0.547 0.584
0.17 -0.557 0.582
0.175 -0.555 0.581
0.179 -0.553 0.58
0.184 -0.55 0.579
0.191 -0.558 0.577
0.193 -0.547 0.577
0.2 -0.556 0.575
0.206 -0.556 0.574
0.21 -0.553 0.573
0.214 -0.55 0.572
0.219 -0.55 0.57
0.227 -0.557 0.569
0.235 -0.565 0.567
0.24 -0.562 0.566
0.243 -0.557 0.565
0.251 -0.562 0.563
0.256 -0.561 0.562
0.26 -0.559 0.561
0.269 -0.567 0.559
0.274 -0.564 0.558
0.279 -0.563 0.557
0.288 -0.57 0.554
0.293 -0.567 0.553
0.301 -0.573 0.551
0.306 -0.571 0.55
0.314 -0.575 0.548
0.323 -0.58 0.546
0.327 -0.577 0.545
0.333 -0.575 0.544
0.341 -0.579 0.542
0.35 -0.584 0.54
0.356 -0.582 0.539
0.361 -0.58 0.537
0.372 -0.587 0.535
0.376 -0.583 0.534
0.387 -0.589 0.531
0.392 -0.586 0.53
0.4 -0.589 0.528
0.405 -0.585 0.527
0.415 -0.59 0.525
0.42 -0.586 0.524
0.43 -0.591 0.521
0.442 -0.596 0.519
0.446 -0.592 0.518
0.456 -0.595 0.515
0.468 -0.601 0.512
0.473 -0.597 0.511
0.485 -0.602 0.508
0.489 -0.597 0.508
0.503 -0.604 0.504
0.51 -0.602 0.503
0.523 -0.608 0.5
0.528 -0.604 0.498
0.535 -0.601 0.497
0.548 -0.606 0.494
0.564 -0.614 0.49
0.644 -0.695 0.471
0.793 -0.849 0.437
0.813 -0.856 0.432
0.825 -0.855 0.429
0.848 -0.865 0.424
0.863 -0.865 0.42
0.886 -0.874 0.415
0.899 -0.872 0.412
0.916 -0.874 0.408
0.938 -0.88 0.403
0.953 -0.879 0.399
0.978 -0.887 0.394
1 -0.893 0.388
1.025 -0.899 0.383
1.04 -0.897 0.379
1.064 -0.903 0.373
1.087 -0.906 0.368
1.11 -0.91 0.363
1.14 -0.919 0.356
1.177 -0.933 0.347
1.187 -0.924 0.345
1.185 -0.906 0.345
1.193 -0.896 0.343
1.193 -0.88 0.343
1.192 -0.863 0.344
1.2 -0.853 0.342
1.199 -0.837 0.342
1.205 -0.826 0.341
1.228 -0.826 0.335
1.269 -0.839 0.326
1.311 -0.851 0.316
1.343 -0.856 0.308
1.379 -0.862 0.3
1.418 -0.87 0.291
1.457 -0.878 0.282
1.498 -0.885 0.272
1.541 -0.893 0.262
1.586 -0.901 0.252
1.733 -0.966 0.218
2.265 -1.243 0.093
2.276 -1.223 0.091
2.278 -1.199 0.09
2.282 -1.175 0.09
2.291 -1.155 0.087
2.292 -1.131 0.087
2.315 -1.117 0.082
2.308 -1.088 0.083
2.304 -1.062 0.084
2.311 -1.04 0.083
2.361 -1.039 0.071
2.61 -1.122 0.013
2.655 -1.114 0.003
2.631 -1.077 0.008
2.643 -1.055 0.005
2.032 -0.787 0.148
1.804 -0.679 0.201
2.643 -0.975 0.005
2.63 -0.944 0.008
2.615 -0.912 0.012
2.648 -0.898 0.004
2.63 -0.866 0.008
2.564 -0.819 0.024
2.594 -0.803 0.017
2.628 -0.789 0.009
2.621 -0.761 0.011
2.638 -0.741 0.006
2.618 -0.711 0.011
2.62 -0.687 0.011
2.599 -0.656 0.016
2.623 -0.638 0.01
2.602 -0.608 0.015
2.621 -0.589 0.01
2.605 -0.561 0.014
2.627 -0.541 0.009
2.61 -0.514 0.013
2.625 -0.493 0.009
2.606 -0.466 0.014
2.626 -0.445 0.009
2.611 -0.419 0.013
2.627 -0.398 0.009
2.614 -0.372 0.012
2.626 -0.35 0.009
2.623 -0.326 0.01
2.632 -0.304 0.008
2.622 -0.279 0.01
2.631 -0.257 0.008
2.614 -0.232 0.012
2.634 -0.21 0.007
2.617 -0.185 0.011
2.638 -0.163 0.006
2.623 -0.139 0.01
2.634 -0.117 0.007
2.628 -0.093 0.009
2.638 -0.07 0.006
2.629 -0.046 0.009
2.633 -0.023 0.008
2.626 -0 0.009
2.636 0.023 0.007
2.633 0.047 0.008
2.645 0.07 0.005
2.635 0.093 0.007
2.637 0.117 0.007
2.623 0.139 0.01
2.641 0.164 0.006
2.627 0.186 0.009
2.612 0.208 0.013
2.617 0.232 0.011
2.654 0.259 0.003
2.635 0.281 0.007
2.649 0.306 0.004
2.639 0.328 0.006
2.657 0.355 0.002
2.633 0.375 0.008
2.655 0.402 0.003
2.615 0.42 0.012
2.406 0.408 0.06
2.741 0.49 -0.018
2.764 0.519 -0.023
2.747 0.541 -0.019
2.685 0.554 -0.005
2.684 0.578 -0.004
2.752 0.619 -0.02
2.713 0.635 -0.011
2.698 0.656 -0.007
2.687 0.679 -0.005
2.698 0.707 -0.007
2.679 0.728 -0.003
2.708 0.761 -0.01
2.676 0.778 -0.002
2.678 0.804 -0.003
2.177 0.672 0.114
2.195 0.699 0.11
2.21 0.726 0.106
2.11 0.713 0.13
2.079 0.723 0.137
2.076 0.742 0.138
2.093 0.769 0.134
2.115 0.798 0.128
2.111 0.818 0.129
2.107 0.838 0.13
2.249 0.919 0.097
2.302 0.964 0.085
2.284 0.98 0.089
0 0 0
0 0 0
0.952 0.429 0.4
0.978 0.451 0.394
0.996 0.471 0.389
2.264 1.117 0.094
0 0 0
0 0 0
0 0 0
0 0 0
0 0 0
0 0 0
0.905 0.506 0.41
0.887 0.505 0.415
0.893 0.519 0.413
0.886 0.525 0.415
0.882 0.533 0.416
0.883 0.544 0.416
0.87 0.546 0.419
0.866 0.554 0.42
0.866 0.565 0.42
0.858 0.57 0.421
0.864 0.585 0.42
0.854 0.589 0.422
0.849 0.596 0.424
0.847 0.606 0.424
0.848 0.617 0.424
0.85 0.631 0.423
0.868 0.656 0.419
0.868 0.669 0.419
0.877 0.688 0.417
0.877 0.7 0.417
0.881 0.716 0.416
0.879 0.727 0.417
0.873 0.735 0.418
0.866 0.741 0.42
0.865 0.754 0.42
0.836 0.741 0.427
0.828 0.746 0.429
0.811 0.743 0.432
0.821 0.765 0.43
0.808 0.767 0.433
0.812 0.784 0.432
0.808 0.793 0.433
0.81 0.81 0.433
0.806 0.819 0.434
0.808 0.836 0.433
0.813 0.856 0.432
0.962 1.039 0.397
1.052 1.16 0.376
0.839 0.933 0.426
0.776 0.875 0.441
0 0 0
0 0 0
0 0 0
1.261 1.555 0.327
1.252 1.571 0.33
1.228 1.568 0.335
1.211 1.573 0.339
1.19 1.573 0.344
1.143 1.538 0.355
1.119 1.532 0.361
1.078 1.501 0.37
1.051 1.49 0.376
1.023 1.477 0.383
1.002 1.472 0.388
0.984 1.472 0.392
0.971 1.48 0.395
0.948 1.472 0.401
0.936 1.481 0.403
0.923 1.488 0.406
0.905 1.487 0.41
0.893 1.495 0.413
0.875 1.494 0.418
0.858 1.494 0.422
0.845 1.501 0.424
0.828 1.5 0.428
0.815 1.507 0.431
0.798 1.505 0.435
0.651 1.241 0.47
0.612 1.188 0.479
0.613 1.218 0.479
0.627 1.275 0.475
0.638 1.327 0.473
0.656 1.399 0.469
0.666 1.454 0.466
0.681 1.525 0.463
0.708 1.629 0.456
0.711 1.676 0.456
0.697 1.684 0.459
0.68 1.682 0.463
0.644 1.628 0.471
0.567 1.461 0.489
0.552 1.457 0.493
0.542 1.47 0.495
0.53 1.475 0.498
0.519 1.486 0.501
0.494 1.451 0.506
0.47 1.418 0.512
0.451 1.396 0.516
0.436 1.39 0.52
0.417 1.369 0.524
0.415 1.409 0.525
0.413 1.448 0.525
0.393 1.421 0.53
0.385 1.441 0.532
0.402 1.571 0.528
0.424 1.729 0.523
0.379 1.592 0.533
0.36 1.568 0.538
0.376 1.719 0.534
0.365 1.742 0.537
0.35 1.745 0.54
0.335 1.747 0.543
0.32 1.751 0.547
0.305 1.753 0.55
0.29 1.756 0.554
0.276 1.76 0.557
0.261 1.76 0.561
0.246 1.762 0.564
0.232 1.772 0.568
0.208 1.694 0.573
0.187 1.621 0.578
0.171 1.6 0.582
0.16 1.631 0.584
0.146 1.637 0.587
0.132 1.624 0.591
0.117 1.617 0.594
0.103 1.603 0.598
0.087 1.517 0.601
0.072 1.452 0.605
0.058 1.383 0.608
0.046 1.315 0.611
0.035 0.179 0.613
0.035 -0.399 0.614
0.039 -0.454 0.613
0.043 -0.483 0.612
0.048 -0.506 0.611
0.052 -0.518 0.61
0.057 -0.526 0.609
0.062 -0.526 0.608
0.066 -0.526 0.607
0.071 -0.528 0.606
0.075 -0.527 0.605
0.08 -0.527 0.604
0.085 -0.538 0.602
0.09 -0.536 0.601
0.094 -0.536 0.6
0.099 -0.535 0.599
0.103 -0.532 0.598
0.109 -0.54 0.597
0.113 -0.539 0.596
0.119 -0.544 0.595
0.125 -0.552 0.593
0.129 -0.548 0.592
0.134 -0.547 0.591
0.139 -0.548 0.59
0.144 -0.549 0.589
0.149 -0.55 0.588
0.153 -0.548 0.587
0.159 -0.55 0.586
0.163 -0.548 0.585
0.17 -0.556 0.583
0.175 -0.555 0.582
0.18 -0.553 0.581
0.184 -0.55 0.58
0.188 -0.549 0.579
0.193 -0.547 0.578
0.201 -0.556 0.576
0.205 -0.553 0.575
0.21 -0.553 0.574
0.214 -0.55 0.573
0.22 -0.55 0.572
0.227 -0.556 0.57
0.232 -0.555 0.569
0.236 -0.553 0.568
0.247 -0.566 0.566
0.251 -0.563 0.565
0.256 -0.561 0.564
0.261 -0.559 0.563
0.27 -0.567 0.561
0.274 -0.565 0.56
0.279 -0.563 0.559
0.288 -0.569 0.557
0.293 -0.567 0.555
0.298 -0.565 0.554
0.306 -0.571 0.552
0.314 -0.575 0.551
0.319 -0.572 0.55
0.329 -0.578 0.547
0.333 -0.575 0.546
0.342 -0.58 0.544
0.346 -0.575 0.544
0.355 -0.581 0.541
0.362 -0.58 0.54
0.372 -0.587 0.538
0.377 -0.583 0.537
0.382 -0.582 0.535
0.392 -0.586 0.533
0.4 -0.588 0.531
0.405 -0.585 0.53
0.415 -0.589 0.528
0.42 -0.585 0.527
0.432 -0.592 0.524
0.442 -0.596 0.522
0.447 -0.592 0.521
0.457 -0.595 0.519
0.462 -0.592 0.517
0.472 -0.595 0.515
0.481 -0.597 0.513
0.49 -0.597 0.511
0.503 -0.603 0.508
0.511 -0.602 0.506
0.523 -0.606 0.504
0.529 -0.604 0.502
0.542 -0.608 0.499
0.549 -0.606 0.498
0.566 -0.615 0.494
0.646 -0.696 0.476
0.796 -0.852 0.442
0.813 -0.855 0.438
0.829 -0.858 0.435
0.849 -0.865 0.43
0.864 -0.864 0.427
0.887 -0.874 0.421
0.902 -0.873 0.418
0.917 -0.873 0.415
0.941 -0.881 0.41
0.963 -0.887 0.404
0.979 -0.887 0.401
1.002 -0.893 0.396
1.024 -0.897 0.391
1.041 -0.897 0.387
1.067 -0.903 0.381
1.088 -0.906 0.376
1.121 -0.918 0.369
1.142 -0.919 0.364
1.179 -0.933 0.356
1.188 -0.923 0.354
1.187 -0.906 0.354
1.195 -0.896 0.352
1.195 -0.88 0.352
1.194 -0.863 0.352
1.202 -0.853 0.351
1.201 -0.837 0.351
1.207 -0.826 0.349
1.235 -0.83 0.343
1.272 -0.839 0.335
1.312 -0.85 0.326
1.338 -0.851 0.32
1.378 -0.86 0.311
1.409 -0.863 0.304
1.454 -0.874 0.294
1.502 -0.886 0.283
1.535 -0.888 0.275
1.584 -0.899 0.264
1.724 -0.96 0.233
2.269 -1.243 0.11
2.272 -1.219 0.109
2.282 -1.199 0.107
2.285 -1.175 0.106
2.295 -1.155 0.104
2.296 -1.131 0.104
2.319 -1.117 0.099
2.311 -1.088 0.101
2.308 -1.062 0.101
2.315 -1.04 0.1
2.378 -1.044 0.086
2.641 -1.134 0.026
2.697 -1.13 0.014
2.693 -1.101 0.014
2.691 -1.072 0.015
2.053 -0.794 0.159
1.796 -0.675 0.217
2.687 -0.989 0.016
2.674 -0.958 0.019
2.664 -0.928 0.021
2.695 -0.912 0.014
2.677 -0.88 0.018
2.616 -0.834 0.032
2.674 -0.827 0.019
2.687 -0.805 0.016
2.677 -0.777 0.018
2.696 -0.757 0.014
2.671 -0.724 0.019
2.681 -0.702 0.017
2.663 -0.672 0.021
2.662 -0.647 0.021
2.649 -0.619 0.024
2.663 -0.597 0.021
2.653 -0.571 0.024
2.677 -0.551 0.018
2.659 -0.523 0.022
2.676 -0.502 0.018
2.658 -0.474 0.023
2.671 -0.452 0.019
2.659 -0.426 0.022
2.675 -0.404 0.019
2.672 -0.38 0.019
2.682 -0.357 0.017
2.658 -0.33 0.022
2.684 -0.309 0.017
2.676 -0.285 0.018
2.682 -0.261 0.017
2.677 -0.237 0.018
2.694 -0.215 0.014
2.678 -0.189 0.018
2.693 -0.167 0.015
2.67 -0.142 0.02
2.692 -0.119 0.015
2.672 -0.094 0.019
2.69 -0.071 0.015
2.673 -0.047 0.019
2.691 -0.024 0.015
2.674 -0 0.019
2.691 0.024 0.015
2.684 0.047 0.017
2.7 0.072 0.013
2.683 0.095 0.017
2.698 0.119 0.013
2.678 0.142 0.018
2.693 0.167 0.015
2.675 0.189 0.019
2.664 0.212 0.021
2.671 0.236 0.019
2.699 0.263 0.013
2.677 0.285 0.018
2.701 0.311 0.013
2.698 0.335 0.014
2.695 0.359 0.014
2.691 0.383 0.015
2.714 0.41 0.01
2.676 0.429 0.018
2.384 0.403 0.084
2.81 0.502 -0.012
2.82 0.529 -0.014
2.776 0.546 -0.004
2.755 0.567 0.001
2.706 0.582 0.012
2.795 0.627 -0.008
2.761 0.645 -0.001
2.75 0.668 0.002
2.744 0.692 0.003
2.746 0.719 0.003
2.741 0.743 0.004
2.735 0.768 0.005
2.717 0.788 0.009
2.684 0.804 0.017
2.18 0.672 0.13
2.207 0.702 0.124
2.216 0.726 0.122
2.114 0.713 0.145
2.083 0.723 0.152
2.081 0.743 0.152
2.087 0.766 0.151
2.115 0.797 0.145
2.111 0.817 0.146
2.111 0.838 0.146
2.248 0.917 0.115
2.297 0.961 0.104
2.284 0.979 0.107
0 0 0
0 0 0
0.949 0.427 0.408
0.946 0.436 0.408
1.027 0.485 0.39
2.26 1.113 0.112
0.958 0.472 0.406
0 0 0
0 0 0
0 0 0
0 0 0
0 0 0
0.908 0.506 0.417
0.888 0.505 0.421
0.887 0.515 0.422
0.874 0.517 0.424
0.881 0.531 0.423
0.876 0.539 0.424
0.872 0.546 0.425
0.864 0.552 0.427
0.862 0.561 0.427
0.855 0.567 0.429
0.858 0.58 0.428
0.853 0.587 0.429
0.857 0.601 0.428
0.852 0.608 0.43
0.885 0.645 0.422
0.89 0.661 0.421
0.894 0.676 0.42
0.894 0.688 0.42
0.891 0.698 0.421
0.892 0.711 0.421
0.884 0.717 0.422
0.883 0.73 0.422
0.879 0.739 0.423
0.879 0.752 0.423
0.877 0.763 0.424
0.866 0.767 0.426
0.843 0.759 0.431
0.825 0.756 0.435
0.829 0.772 0.435
0.822 0.779 0.436
0.822 0.793 0.436
0.816 0.8 0.438
0.814 0.812 0.438
0.811 0.824 0.439
0.816 0.844 0.437
0.816 0.859 0.438
0.991 1.07 0.398
1.39 1.543 0.308
0 0 0
0.773 0.87 0.447
0 0 0
0 0 0
0 0 0
1.269 1.563 0.335
1.254 1.571 0.339
1.23 1.568 0.344
1.191 1.544 0.353
1.165 1.537 0.359
1.127 1.514 0.367
1.097 1.499 0.374
1.07 1.488 0.38
1.043 1.476 0.386
1.021 1.47 0.391
1.003 1.471 0.396
0.985 1.472 0.399
0.967 1.472 0.403
0.955 1.48 0.406
0.937 1.48 0.41
0.919 1.479 0.414
0.907 1.487 0.417
0.894 1.495 0.42
0.876 1.494 0.424
0.859 1.494 0.428
0.846 1.501 0.431
0.829 1.5 0.435
0.817 1.507 0.437
0.799 1.505 0.441
0.659 1.256 0.473
0.614 1.19 0.483
0.616 1.221 0.483
0.628 1.274 0.48
0.641 1.333 0.477
0.653 1.391 0.474
0.666 1.453 0.471
0.681 1.524 0.468
0.71 1.629 0.462
0.712 1.675 0.461
0.696 1.676 0.465
0.681 1.68 0.468
0.645 1.628 0.476
0.568 1.461 0.494
0.556 1.468 0.496
0.542 1.469 0.499
0.53 1.475 0.502
0.52 1.486 0.504
0.498 1.46 0.509
0.474 1.428 0.515
0.451 1.395 0.52
0.436 1.389 0.523
0.419 1.373 0.527
0.417 1.412 0.528
0.413 1.448 0.528
0.396 1.431 0.532
0.383 1.431 0.535
0.4 1.56 0.531
0.424 1.729 0.526
0.382 1.604 0.535
0.36 1.568 0.54
0.374 1.709 0.537
0.365 1.742 0.539
0.35 1.745 0.543
0.336 1.748 0.546
0.321 1.751 0.549
0.306 1.755 0.553
0.291 1.755 0.556
0.276 1.758 0.559
0.261 1.76 0.563
0.246 1.762 0.566
0.232 1.773 0.569
0.213 1.735 0.574
0.187 1.621 0.579
0.173 1.613 0.583
0.161 1.638 0.585
0.147 1.639 0.588
0.131 1.617 0.592
0.118 1.627 0.595
0.103 1.605 0.598
0.087 1.526 0.602
0.072 1.451 0.605
0.058 1.379 0.608
0.046 1.31 0.611
0.035 0.174 0.614
0.035 -0.399 0.614
0.039 -0.455 0.613
0.043 -0.495 0.612
0.048 -0.505 0.611
0.052 -0.517 0.61
0.057 -0.517 0.609
0.062 -0.527 0.608
0.066 -0.526 0.607
0.071 -0.527 0.606
0.075 -0.528 0.605
0.08 -0.528 0.604
0.085 -0.537 0.603
0.09 -0.536 0.602
0.094 -0.537 0.601
0.099 -0.534 0.6
0.103 -0.532 0.599
0.109 -0.541 0.597
0.113 -0.539 0.597
0.119 -0.545 0.595
0.124 -0.543 0.594
0.129 -0.549 0.593
0.134 -0.547 0.592
0.139 -0.548 0.591
0.144 -0.55 0.59
0.149 -0.552 0.589
0.154 -0.55 0.588
0.159 -0.55 0.587
0.163 -0.546 0.586
0.17 -0.557 0.584
0.175 -0.555 0.583
0.18 -0.553 0.582
0.184 -0.55 0.581
0.191 -0.558 0.579
0.193 -0.548 0.579
0.198 -0.548 0.578
0.205 -0.554 0.576
0.21 -0.554 0.575
0.215 -0.55 0.574
0.223 -0.56 0.572
0.227 -0.557 0.571
0.232 -0.555 0.57
0.239 -0.559 0.569
0.244 -0.559 0.568
0.251 -0.562 0.566
0.256 -0.561 0.565
0.261 -0.559 0.564
0.27 -0.567 0.562
0.274 -0.564 0.561
0.28 -0.565 0.56
0.288 -0.569 0.558
0.293 -0.566 0.557
0.302 -0.573 0.555
0.306 -0.569 0.554
0.315 -0.575 0.552
0.323 -0.58 0.55
0.328 -0.577 0.549
0.333 -0.575 0.548
0.341 -0.578 0.546
0.351 -0.584 0.544
0.357 -0.582 0.543
0.362 -0.581 0.542
0.372 -0.587 0.539
0.377 -0.583 0.538
0.383 -0.582 0.537
0.387 -0.577 0.536
0.401 -0.588 0.533
0.406 -0.585 0.532
0.41 -0.581 0.531
0.42 -0.585 0.529
0.432 -0.592 0.526
0.437 -0.588 0.525
0.447 -0.591 0.523
0.458 -0.597 0.521
0.469 -0.601 0.518
0.479 -0.604 0.516
0.487 -0.604 0.514
0.491 -0.598 0.513
0.504 -0.604 0.51
0.513 -0.605 0.509
0.524 -0.608 0.506
0.529 -0.604 0.505
0.543 -0.609 0.502
0.556 -0.614 0.499
0.568 -0.617 0.496
0.667 -0.719 0.475
0.797 -0.852 0.446
0.814 -0.856 0.442
0.831 -0.859 0.439
0.85 -0.865 0.434
0.864 -0.864 0.431
0.888 -0.873 0.426
0.902 -0.873 0.423
0.918 -0.873 0.419
0.941 -0.88 0.414
0.964 -0.887 0.409
0.98 -0.887 0.406
1.003 -0.893 0.401
1.027 -0.899 0.395
1.042 -0.897 0.392
1.067 -0.903 0.386
1.09 -0.907 0.381
1.123 -0.918 0.374
1.151 -0.926 0.368
1.18 -0.933 0.361
1.189 -0.923 0.36
1.188 -0.906 0.36
1.188 -0.89 0.36
1.196 -0.88 0.358
1.195 -0.863 0.358
1.195 -0.847 0.358
1.202 -0.837 0.357
1.207 -0.825 0.356
1.235 -0.829 0.349
1.273 -0.839 0.341
1.314 -0.851 0.332
1.349 -0.857 0.324
1.386 -0.865 0.316
1.411 -0.864 0.311
1.446 -0.868 0.303
1.496 -0.882 0.292
1.545 -0.893 0.281
1.587 -0.899 0.272
1.738 -0.967 0.239
2.271 -1.243 0.121
2.274 -1.219 0.121
2.276 -1.195 0.12
2.288 -1.176 0.117
2.289 -1.151 0.117
2.299 -1.131 0.115
2.315 -1.114 0.112
2.313 -1.088 0.112
2.31 -1.062 0.113
2.317 -1.04 0.111
2.378 -1.043 0.098
2.649 -1.136 0.038
2.744 -1.149 0.017
2.735 -1.117 0.019
2.749 -1.095 0.016
1.811 -0.698 0.223
2.763 -1.045 0.013
2.743 -1.009 0.017
2.73 -0.977 0.02
2.713 -0.944 0.024
2.747 -0.929 0.016
2.725 -0.895 0.021
2.64 -0.841 0.04
2.723 -0.841 0.022
2.744 -0.822 0.017
2.744 -0.795 0.017
2.755 -0.773 0.015
2.74 -0.742 0.018
2.737 -0.716 0.019
2.701 -0.681 0.026
2.714 -0.659 0.024
2.706 -0.631 0.025
2.718 -0.609 0.023
2.707 -0.582 0.025
2.728 -0.561 0.021
2.713 -0.533 0.024
2.737 -0.513 0.019
2.712 -0.483 0.024
2.726 -0.461 0.021
2.71 -0.434 0.025
2.731 -0.413 0.02
2.727 -0.387 0.021
2.74 -0.365 0.018
2.72 -0.338 0.022
2.736 -0.315 0.019
2.719 -0.289 0.022
2.734 -0.266 0.019
2.717 -0.24 0.023
2.742 -0.218 0.017
2.728 -0.193 0.021
2.726 -0.169 0.021
2.727 -0.144 0.021
2.729 -0.12 0.02
2.723 -0.096 0.022
2.743 -0.073 0.017
2.72 -0.048 0.022
2.741 -0.024 0.018
2.724 -0 0.021
2.747 0.024 0.016
2.74 0.048 0.018
2.746 0.073 0.017
2.732 0.096 0.02
2.751 0.121 0.015
2.73 0.145 0.02
2.749 0.17 0.016
2.73 0.193 0.02
2.71 0.216 0.024
2.701 0.239 0.026
2.766 0.269 0.012
2.742 0.291 0.018
2.758 0.318 0.014
2.74 0.34 0.018
2.756 0.367 0.015
2.746 0.39 0.016
2.776 0.419 0.01
2.743 0.439 0.017
2.33 0.393 0.108
2.887 0.515 -0.015
2.87 0.538 -0.011
2.83 0.556 -0.002
2.86 0.589 -0.008
2.762 0.594 0.013
2.867 0.643 -0.01
2.836 0.662 -0.003
2.8 0.68 0.005
2.8 0.706 0.005
2.811 0.735 0.002
2.786 0.755 0.008
2.784 0.781 0.008
2.739 0.794 0.018
2.678 0.802 0.032
2.175 0.67 0.142
2.214 0.704 0.134
2.229 0.73 0.131
2.132 0.719 0.152
2.099 0.728 0.159
2.092 0.746 0.161
2.089 0.765 0.161
2.123 0.8 0.154
2.116 0.818 0.155
2.109 0.837 0.157
2.255 0.919 0.125
2.304 0.962 0.114
2.289 0.98 0.117
0 0 0
0 0 0
0.955 0.429 0.411
0.949 0.437 0.412
0 0 0
2.276 1.119 0.12
0.947 0.466 0.413
0 0 0
0 0 0
0 0 0
0 0 0
0 0 0
0.909 0.506 0.421
0.892 0.507 0.425
0.891 0.516 0.425
0.886 0.524 0.426
0.884 0.533 0.427
0.877 0.539 0.428
0.878 0.55 0.428
0.868 0.554 0.43
0.869 0.565 0.43
0.861 0.57 0.432
0.862 0.582 0.432
0.863 0.594 0.431
0.899 0.631 0.423
0.891 0.637 0.425
0.912 0.664 0.421
0.901 0.668 0.423
0.905 0.684 0.422
0.898 0.691 0.424
0.894 0.7 0.425
0.892 0.711 0.425
0.893 0.724 0.425
0.882 0.728 0.427
0.878 0.737 0.428
0.885 0.756 0.427
0.888 0.773 0.426
0.872 0.772 0.429
0.854 0.769 0.433
0.83 0.76 0.439
0.832 0.774 0.438
0.825 0.781 0.44
0.83 0.8 0.439
0.821 0.805 0.441
0.822 0.82 0.44
0.822 0.835 0.44
0.822 0.849 0.44
0.841 0.886 0.436
1.005 1.084 0.4
1.407 1.561 0.312
0 0 0
0.804 0.906 0.444
0 0 0
0 0 0
0 0 0
1.277 1.571 0.34
1.254 1.57 0.345
1.213 1.544 0.354
1.17 1.515 0.364
1.151 1.517 0.368
1.11 1.488 0.377
1.085 1.48 0.383
1.06 1.471 0.388
1.035 1.462 0.394
1.022 1.47 0.396
1.004 1.471 0.4
0.986 1.472 0.404
0.968 1.472 0.408
0.956 1.48 0.411
0.938 1.48 0.415
0.921 1.48 0.419
0.907 1.487 0.422
0.895 1.495 0.424
0.877 1.494 0.428
0.864 1.501 0.431
0.847 1.501 0.435
0.834 1.508 0.438
0.817 1.507 0.441
0.8 1.505 0.445
0.666 1.269 0.475
0.615 1.191 0.486
0.614 1.215 0.486
0.627 1.272 0.483
0.637 1.322 0.481
0.65 1.382 0.478
0.667 1.453 0.475
0.678 1.516 0.472
0.708 1.623 0.466
0.712 1.675 0.465
0.699 1.684 0.467
0.681 1.68 0.471
0.642 1.621 0.48
0.568 1.46 0.496
0.557 1.468 0.499
0.543 1.469 0.502
0.531 1.475 0.505
0.52 1.486 0.507
0.498 1.459 0.512
0.474 1.428 0.517
0.451 1.395 0.522
0.437 1.39 0.525
0.417 1.364 0.53
0.417 1.412 0.53
0.414 1.448 0.53
0.396 1.432 0.534
0.383 1.431 0.537
0.398 1.548 0.534
0.423 1.72 0.528
0.382 1.605 0.537
0.36 1.567 0.542
0.374 1.709 0.539
0.366 1.742 0.541
0.351 1.745 0.544
0.336 1.747 0.548
0.321 1.751 0.551
0.306 1.753 0.554
0.291 1.756 0.557
0.276 1.757 0.561
0.261 1.76 0.564
0.246 1.761 0.567
0.232 1.773 0.57
0.215 1.752 0.574
0.187 1.621 0.58
0.173 1.613 0.583
0.161 1.638 0.586
0.147 1.637 0.589
0.132 1.621 0.593
0.118 1.62 0.596
0.103 1.604 0.599
0.087 1.525 0.602
0.072 1.452 0.606
0.058 1.38 0.609
0.046 1.317 0.611
0.035 0.169 0.614
0.035 -0.388 0.614
0.039 -0.455 0.613
0.043 -0.474 0.612
0.048 -0.505 0.611
0.052 -0.517 0.61
0.057 -0.517 0.609
0.062 -0.527 0.608
0.066 -0.526 0.607
0.071 -0.528 0.606
0.075 -0.527 0.605
0.08 -0.528 0.604
0.085 -0.538 0.603
0.09 -0.537 0.602
0.094 -0.536 0.601
0.099 -0.534 0.6
0.103 -0.533 0.599
0.109 -0.541 0.598
0.113 -0.538 0.597
0.119 -0.544 0.596
0.123 -0.542 0.595
0.129 -0.549 0.594
0.136 -0.557 0.593
0.139 -0.55 0.592
0.144 -0.549 0.591
0.149 -0.551 0.59
0.154 -0.55 0.589
0.159 -0.55 0.588
0.163 -0.547 0.587
0.17 -0.556 0.585
0.175 -0.555 0.584
0.18 -0.554 0.583
0.184 -0.55 0.582
0.189 -0.549 0.581
0.196 -0.555 0.58
0.201 -0.556 0.579
0.206 -0.554 0.578
0.211 -0.554 0.577
0.218 -0.56 0.575
0.223 -0.559 0.574
0.228 -0.557 0.573
0.233 -0.556 0.572
0.24 -0.562 0.57
0.244 -0.557 0.57
0.251 -0.561 0.568
0.256 -0.56 0.567
0.262 -0.56 0.566
0.27 -0.567 0.564
0.276 -0.567 0.563
0.285 -0.574 0.561
0.288 -0.569 0.56
0.294 -0.569 0.559
0.302 -0.573 0.557
0.307 -0.57 0.556
0.316 -0.576 0.554
0.32 -0.572 0.553
0.329 -0.577 0.552
0.338 -0.583 0.55
0.342 -0.579 0.549
0.347 -0.575 0.548
0.357 -0.583 0.546
0.362 -0.579 0.545
0.368 -0.578 0.543
0.378 -0.584 0.541
0.384 -0.582 0.54
0.393 -0.586 0.538
0.396 -0.58 0.537
0.407 -0.586 0.535
0.412 -0.582 0.534
0.427 -0.595 0.531
0.427 -0.583 0.531
0.443 -0.596 0.527
0.448 -0.593 0.526
0.459 -0.597 0.524
0.464 -0.593 0.523
0.479 -0.603 0.52
0.482 -0.597 0.519
0.491 -0.597 0.517
0.505 -0.604 0.514
0.512 -0.603 0.513
0.524 -0.606 0.51
0.531 -0.604 0.509
0.543 -0.608 0.506
0.55 -0.606 0.505
0.575 -0.624 0.499
0.677 -0.729 0.478
0.799 -0.853 0.452
0.817 -0.857 0.448
0.831 -0.857 0.445
0.852 -0.865 0.44
0.867 -0.866 0.437
0.89 -0.874 0.432
0.904 -0.873 0.429
0.919 -0.873 0.426
0.941 -0.879 0.422
0.965 -0.887 0.416
0.981 -0.886 0.413
1.004 -0.893 0.408
1.029 -0.899 0.403
1.044 -0.897 0.4
1.068 -0.902 0.394
1.091 -0.906 0.39
1.117 -0.912 0.384
1.155 -0.928 0.376
1.175 -0.927 0.372
1.183 -0.917 0.37
1.191 -0.907 0.368
1.19 -0.89 0.369
1.198 -0.88 0.367
1.197 -0.863 0.367
1.197 -0.847 0.367
1.204 -0.837 0.366
1.209 -0.825 0.364
1.241 -0.832 0.358
1.275 -0.839 0.35
1.316 -0.851 0.342
1.351 -0.857 0.334
1.385 -0.863 0.327
1.405 -0.858 0.323
1.437 -0.862 0.316
1.494 -0.879 0.304
1.547 -0.892 0.293
1.59 -0.9 0.283
1.728 -0.959 0.254
2.267 -1.239 0.14
2.278 -1.219 0.137
2.281 -1.195 0.137
2.291 -1.175 0.134
2.293 -1.151 0.134
2.295 -1.127 0.134
2.32 -1.114 0.128
2.317 -1.088 0.129
2.314 -1.062 0.13
2.32 -1.04 0.128
2.399 -1.051 0.111
2.642 -1.132 0.06
2.776 -1.161 0.032
2.785 -1.136 0.029
2.786 -1.108 0.029
1.841 -0.709 0.23
2.836 -1.071 0.019
2.802 -1.03 0.026
2.783 -0.995 0.03
2.769 -0.962 0.033
2.811 -0.95 0.024
2.754 -0.903 0.036
2.672 -0.85 0.054
2.785 -0.86 0.03
2.797 -0.836 0.027
2.786 -0.807 0.029
2.812 -0.788 0.024
2.799 -0.757 0.026
2.799 -0.731 0.027
2.763 -0.696 0.034
2.776 -0.673 0.031
2.765 -0.644 0.034
2.783 -0.623 0.03
2.766 -0.594 0.033
2.787 -0.572 0.029
2.773 -0.544 0.032
2.8 -0.524 0.026
2.772 -0.494 0.032
2.786 -0.471 0.029
2.763 -0.442 0.034
2.787 -0.421 0.029
2.763 -0.392 0.034
2.791 -0.371 0.028
2.779 -0.345 0.031
2.8 -0.322 0.026
2.772 -0.294 0.032
2.791 -0.271 0.028
2.78 -0.246 0.031
2.798 -0.222 0.027
2.777 -0.196 0.031
2.795 -0.173 0.027
2.777 -0.147 0.031
2.791 -0.123 0.028
2.769 -0.098 0.033
2.792 -0.074 0.028
2.777 -0.049 0.031
2.803 -0.025 0.026
2.78 -0 0.03
2.807 0.025 0.025
2.783 0.049 0.03
2.796 0.074 0.027
2.786 0.098 0.029
2.797 0.123 0.027
2.783 0.147 0.03
2.799 0.173 0.027
2.787 0.197 0.029
2.763 0.22 0.034
2.745 0.242 0.038
2.94 0.286 -0.003
2.809 0.298 0.024
2.826 0.325 0.021
2.797 0.347 0.027
2.813 0.374 0.024
2.803 0.398 0.026
2.876 0.434 0.01
2.834 0.453 0.019
2.241 0.377 0.145
2.936 0.523 -0.003
2.924 0.547 -0
2.901 0.57 0.005
2.95 0.606 -0.005
2.834 0.608 0.019
2.929 0.656 -0.001
2.902 0.677 0.005
2.858 0.693 0.014
2.862 0.721 0.013
2.861 0.747 0.013
2.828 0.765 0.02
2.795 0.782 0.027
2.748 0.795 0.037
2.676 0.8 0.053
2.299 0.708 0.133
2.236 0.71 0.146
2.215 0.724 0.151
2.129 0.716 0.169
2.107 0.73 0.174
2.105 0.749 0.174
2.101 0.769 0.175
2.12 0.797 0.171
2.117 0.817 0.172
2.119 0.839 0.171
2.267 0.922 0.14
2.309 0.963 0.131
2.362 1.01 0.119
0 0 0
0 0 0
0 0 0
0.956 0.439 0.418
0 0 0
0.977 0.47 0.414
0.942 0.462 0.421
0 0 0
0 0 0
0 0 0
0 0 0
0 0 0
0.9 0.5 0.43
0.894 0.507 0.432
0.886 0.513 0.433
0.89 0.525 0.432
0.888 0.535 0.433
0.878 0.539 0.435
0.876 0.548 0.435
0.867 0.552 0.437
0.87 0.565 0.437
0.871 0.577 0.436
0.895 0.604 0.431
0.911 0.627 0.428
0.923 0.647 0.425
0.919 0.657 0.426
0.911 0.663 0.428
0.903 0.669 0.429
0.901 0.679 0.43
0.9 0.691 0.43
0.904 0.707 0.429
0.894 0.711 0.432
0.892 0.723 0.432
0.89 0.734 0.432
0.889 0.746 0.432
0.88 0.751 0.434
0.887 0.771 0.433
0.888 0.786 0.433
0.877 0.789 0.435
0.842 0.77 0.442
0.846 0.787 0.442
0.841 0.796 0.443
0.842 0.811 0.443
0.832 0.815 0.445
0.831 0.828 0.445
0.826 0.837 0.446
0.839 0.867 0.443
0.935 0.987 0.423
1.017 1.096 0.405
1.408 1.559 0.322
0 0 0
0.769 0.864 0.458
0 0 0
0 0 0
0 0 0
1.276 1.568 0.35
1.243 1.553 0.357
1.188 1.509 0.369
1.154 1.491 0.376
