# .PCD v0.7 - Point Cloud Data file format
VERSION 0.7
FIELDS x y z
SIZE 4 4 4
TYPE F F F
COUNT 1 1 1
WIDTH 2498
HEIGHT 1
VIEWPOINT 0 0 0 1 0 0 0
POINTS 2498
DATA ascii
0.659 1.231 0.587
0.65 1.24 0.587
0.637 1.242 0.588
0.625 1.245 0.588
0.61 1.242 0.589
0.595 1.238 0.59
0.587 1.249 0.59
0.574 1.249 0.591
0.562 1.249 0.592
0.549 1.251 0.592
0.538 1.254 0.593
0.529 1.264 0.593
0.517 1.266 0.594
0.506 1.27 0.594
0.491 1.264 0.595
0.48 1.268 0.596
0.468 1.268 0.596
0.455 1.266 0.597
0.442 1.265 0.598
0.432 1.271 0.598
0.424 1.283 0.599
0.414 1.291 0.599
0.4 1.284 0.6
0.389 1.289 0.601
0.38 1.3 0.601
0.365 1.288 0.602
0.357 1.304 0.602
0.342 1.293 0.603
0.334 1.312 0.604
0.321 1.305 0.604
0.309 1.304 0.605
0.299 1.312 0.605
0.287 1.314 0.606
0.274 1.309 0.607
0.263 1.313 0.607
0.253 1.321 0.608
0.242 1.33 0.608
0.229 1.318 0.609
0.219 1.332 0.61
0.235 1.547 0.609
0.225 1.573 0.609
0.212 1.58 0.61
0.198 1.581 0.611
0.184 1.583 0.611
0.17 1.584 0.612
0.157 1.585 0.613
0.143 1.595 0.614
0.13 1.596 0.614
0.116 1.595 0.615
0.102 1.593 0.616
0.088 1.596 0.616
0.074 1.594 0.617
0.06 1.578 0.618
0.045 1.482 0.619
0.032 0.176 0.619
0.032 -0.426 0.62
0.036 -0.476 0.62
0.041 -0.514 0.619
0.046 -0.542 0.619
0.051 -0.554 0.619
0.056 -0.561 0.619
0.061 -0.564 0.619
0.066 -0.565 0.618
0.071 -0.567 0.618
0.076 -0.565 0.618
0.082 -0.575 0.618
0.087 -0.575 0.618
0.092 -0.573 0.617
0.098 -0.583 0.617
0.103 -0.583 0.617
0.108 -0.581 0.617
0.114 -0.587 0.616
0.121 -0.595 0.616
0.125 -0.59 0.616
0.13 -0.588 0.616
0.137 -0.598 0.616
0.143 -0.598 0.615
0.148 -0.597 0.615
0.153 -0.596 0.615
0.159 -0.597 0.615
0.164 -0.597 0.614
0.171 -0.604 0.614
0.176 -0.603 0.614
0.182 -0.603 0.614
0.187 -0.601 0.614
0.195 -0.609 0.613
0.201 -0.609 0.613
0.206 -0.608 0.613
0.211 -0.606 0.613
0.219 -0.613 0.612
0.224 -0.611 0.612
0.23 -0.61 0.612
0.238 -0.615 0.611
0.243 -0.613 0.611
0.251 -0.619 0.611
0.259 -0.626 0.611
0.264 -0.621 0.61
0.272 -0.627 0.61
0.278 -0.625 0.61
0.286 -0.63 0.61
0.292 -0.628 0.609
0.301 -0.634 0.609
0.307 -0.634 0.609
0.316 -0.639 0.608
0.321 -0.636 0.608
0.33 -0.641 0.608
0.338 -0.642 0.607
0.348 -0.649 0.607
0.359 -0.656 0.607
0.364 -0.652 0.606
0.374 -0.658 0.606
0.38 -0.655 0.606
0.39 -0.661 0.605
0.396 -0.658 0.605
0.408 -0.665 0.605
0.414 -0.662 0.604
0.424 -0.666 0.604
0.434 -0.669 0.604
0.445 -0.674 0.603
0.456 -0.679 0.603
0.461 -0.675 0.603
0.474 -0.681 0.602
0.485 -0.685 0.602
0.496 -0.689 0.601
0.502 -0.684 0.601
0.512 -0.686 0.6
0.531 -0.7 0.6
0.533 -0.691 0.6
0.546 -0.695 0.599
0.558 -0.699 0.599
0.576 -0.71 0.598
0.634 -0.771 0.596
0.688 -0.826 0.593
0.696 -0.821 0.593
0.713 -0.826 0.592
0.724 -0.825 0.592
0.738 -0.827 0.591
0.754 -0.832 0.591
0.769 -0.834 0.59
0.783 -0.835 0.59
0.798 -0.837 0.589
0.808 -0.833 0.589
0.826 -0.838 0.588
0.848 -0.846 0.587
0.865 -0.849 0.586
0.881 -0.85 0.586
0.897 -0.851 0.585
0.92 -0.859 0.584
0.936 -0.859 0.583
0.961 -0.867 0.582
0.975 -0.865 0.582
0.999 -0.872 0.581
1.023 -0.878 0.58
1.039 -0.876 0.579
1.064 -0.883 0.578
1.087 -0.886 0.577
1.111 -0.891 0.576
1.128 -0.889 0.576
1.16 -0.898 0.574
1.184 -0.901 0.574
1.214 -0.908 0.572
1.242 -0.912 0.571
1.268 -0.915 0.57
1.294 -0.918 0.569
1.324 -0.922 0.568
1.355 -0.927 0.567
1.386 -0.931 0.565
1.418 -0.936 0.564
1.451 -0.94 0.563
1.484 -0.944 0.561
1.518 -0.948 0.56
1.552 -0.951 0.559
1.594 -0.958 0.557
1.631 -0.962 0.556
1.668 -0.964 0.554
1.706 -0.967 0.553
1.756 -0.976 0.551
1.803 -0.983 0.549
1.864 -0.996 0.546
1.922 -1.006 0.544
1.986 -1.018 0.541
2.059 -1.034 0.538
2.131 -1.047 0.536
2.221 -1.069 0.532
2.316 -1.09 0.528
2.384 -1.098 0.525
2.471 -1.113 0.522
2.566 -1.129 0.518
2.656 -1.142 0.514
2.788 -1.171 0.509
2.974 -1.22 0.502
3.1 -1.241 0.497
3.236 -1.263 0.491
3.318 -1.263 0.488
5.334 -1.984 0.407
5.342 -1.934 0.407
5.354 -1.886 0.406
3.987 -1.363 0.461
3.996 -1.328 0.461
4.033 -1.301 0.459
4.061 -1.271 0.458
4.106 -1.247 0.456
4.673 -1.376 0.434
5.403 -1.541 0.404
4.369 -1.204 0.446
5.418 -1.444 0.404
4.135 -1.062 0.455
4.107 -1.017 0.456
4.068 -0.97 0.458
4.119 -0.944 0.456
4.795 -1.057 0.429
5.455 -1.154 0.402
5.469 -1.107 0.402
5.483 -1.061 0.401
5.484 -1.011 0.401
5.489 -0.963 0.401
5.494 -0.915 0.401
5.498 -0.866 0.4
5.501 -0.818 0.4
3.71 -0.517 0.472
3.522 -0.46 0.48
5.538 -0.677 0.399
5.547 -0.629 0.398
5.553 -0.581 0.398
5.565 -0.533 0.398
5.562 -0.484 0.398
5.578 -0.437 0.397
5.58 -0.388 0.397
5.588 -0.34 0.397
5.596 -0.292 0.396
5.611 -0.244 0.396
5.616 -0.195 0.396
5.625 -0.147 0.395
5.631 -0.098 0.395
5.644 -0.049 0.395
5.044 -0 0.419
4.591 0.04 0.437
5.296 0.092 0.409
5.027 0.131 0.419
5.006 0.174 0.42
5.017 0.218 0.42
4.316 0.225 0.448
4.077 0.248 0.457
4.017 0.279 0.46
3.988 0.312 0.461
3.995 0.347 0.461
4.002 0.383 0.46
4.003 0.418 0.46
3.86 0.437 0.466
3.763 0.458 0.47
3.157 0.412 0.494
2.686 0.373 0.513
2.627 0.388 0.516
2.612 0.409 0.516
2.624 0.434 0.516
2.61 0.455 0.516
2.619 0.48 0.516
2.611 0.502 0.516
2.632 0.53 0.515
2.612 0.549 0.516
2.639 0.579 0.515
2.589 0.591 0.517
2.117 0.501 0.536
1.999 0.491 0.541
1.785 0.454 0.549
1.719 0.452 0.552
1.691 0.46 0.553
1.677 0.472 0.554
1.653 0.481 0.555
1.639 0.492 0.555
1.61 0.498 0.556
1.589 0.506 0.557
1.573 0.516 0.558
1.558 0.526 0.559
1.537 0.533 0.559
1.524 0.543 0.56
1.502 0.55 0.561
1.49 0.56 0.561
1.481 0.571 0.562
1.467 0.58 0.562
1.472 0.597 0.562
1.461 0.607 0.562
1.461 0.622 0.562
1.458 0.635 0.563
1.456 0.649 0.563
1.454 0.664 0.563
1.455 0.679 0.563
1.469 0.701 0.562
1.474 0.72 0.562
1.479 0.738 0.562
1.49 0.76 0.561
1.5 0.781 0.561
1.502 0.799 0.561
1.511 0.821 0.56
1.512 0.838 0.56
1.519 0.86 0.56
1.521 0.878 0.56
1.506 0.886 0.561
1.501 0.901 0.561
1.494 0.914 0.561
1.495 0.933 0.561
1.497 0.952 0.561
1.475 0.956 0.562
1.473 0.973 0.562
1.467 0.987 0.562
1.458 0.999 0.563
1.446 1.01 0.563
1.427 1.015 0.564
1.417 1.025 0.564
1.411 1.04 0.564
1.409 1.057 0.564
1.419 1.085 0.564
1.402 1.091 0.565
1.38 1.093 0.566
1.363 1.099 0.566
1.344 1.102 0.567
1.32 1.101 0.568
1.311 1.113 0.568
1.293 1.117 0.569
1.281 1.125 0.57
1.255 1.121 0.571
1.242 1.129 0.571
1.222 1.13 0.572
1.201 1.13 0.573
1.184 1.133 0.573
1.17 1.139 0.574
1.15 1.138 0.575
1.133 1.141 0.576
1.116 1.143 0.576
1.102 1.148 0.577
1.087 1.152 0.577
1.07 1.154 0.578
1.055 1.157 0.579
1.032 1.152 0.58
1.023 1.162 0.58
1.005 1.161 0.581
0.993 1.167 0.581
0.977 1.168 0.582
0.963 1.172 0.582
0.956 1.184 0.583
0.937 1.181 0.583
0.923 1.184 0.584
0.908 1.186 0.585
0.897 1.192 0.585
0.883 1.194 0.586
0.87 1.198 0.586
0.858 1.203 0.587
0.838 1.196 0.587
0.829 1.205 0.588
0.818 1.212 0.588
0.805 1.215 0.589
0.792 1.218 0.589
0.778 1.219 0.59
0.77 1.23 0.59
0.759 1.235 0.591
0.749 1.244 0.591
0.734 1.242 0.592
0.715 1.233 0.592
0.703 1.237 0.593
0.689 1.237 0.593
0.679 1.244 0.594
0.663 1.239 0.594
0.651 1.242 0.595
0.638 1.245 0.595
0.625 1.245 0.596
0.611 1.243 0.596
0.601 1.25 0.597
0.586 1.246 0.597
0.575 1.251 0.598
0.562 1.249 0.598
0.549 1.249 0.599
0.538 1.254 0.599
0.529 1.263 0.6
0.516 1.262 0.6
0.505 1.266 0.601
0.492 1.266 0.601
0.482 1.273 0.602
0.468 1.268 0.602
0.458 1.274 0.603
0.445 1.273 0.603
0.434 1.276 0.604
0.424 1.282 0.604
0.412 1.284 0.604
0.401 1.287 0.605
0.388 1.285 0.605
0.378 1.293 0.606
0.366 1.293 0.606
0.357 1.307 0.607
0.343 1.299 0.607
0.332 1.302 0.608
0.323 1.315 0.608
0.311 1.313 0.609
0.299 1.315 0.609
0.287 1.314 0.609
0.274 1.308 0.61
0.264 1.318 0.61
0.252 1.318 0.611
0.241 1.324 0.611
0.231 1.334 0.612
0.219 1.33 0.612
0.235 1.547 0.612
0.226 1.582 0.612
0.212 1.587 0.612
0.199 1.587 0.613
0.185 1.59 0.614
0.171 1.591 0.614
0.157 1.591 0.615
0.143 1.593 0.615
0.13 1.603 0.616
0.116 1.604 0.616
0.102 1.603 0.617
0.088 1.605 0.617
0.074 1.605 0.618
0.06 1.588 0.619
0.045 1.491 0.619
0.032 1.406 0.62
0.032 -0.418 0.62
0.036 -0.476 0.62
0.041 -0.513 0.62
0.046 -0.541 0.62
0.051 -0.554 0.619
0.056 -0.561 0.619
0.061 -0.564 0.619
0.066 -0.564 0.619
0.072 -0.576 0.619
0.077 -0.575 0.618
0.082 -0.575 0.618
0.087 -0.574 0.618
0.093 -0.582 0.618
0.097 -0.573 0.618
0.103 -0.583 0.618
0.108 -0.581 0.617
0.114 -0.586 0.617
0.12 -0.593 0.617
0.125 -0.59 0.617
0.13 -0.588 0.617
0.137 -0.597 0.617
0.142 -0.596 0.616
0.148 -0.597 0.616
0.153 -0.595 0.616
0.158 -0.596 0.616
0.164 -0.597 0.616
0.171 -0.604 0.615
0.176 -0.602 0.615
0.182 -0.603 0.615
0.19 -0.611 0.615
0.195 -0.609 0.615
0.2 -0.608 0.614
0.206 -0.608 0.614
0.211 -0.606 0.614
0.219 -0.613 0.614
0.224 -0.611 0.614
0.232 -0.617 0.613
0.237 -0.615 0.613
0.246 -0.622 0.613
0.251 -0.618 0.613
0.259 -0.624 0.613
0.264 -0.622 0.612
0.269 -0.62 0.612
0.277 -0.624 0.612
0.286 -0.63 0.612
0.291 -0.627 0.611
0.301 -0.634 0.611
0.307 -0.633 0.611
0.316 -0.639 0.611
0.325 -0.643 0.61
0.33 -0.641 0.61
0.342 -0.652 0.61
0.348 -0.649 0.61
0.358 -0.655 0.609
0.364 -0.653 0.609
0.369 -0.649 0.609
0.38 -0.655 0.609
0.39 -0.66 0.608
0.396 -0.658 0.608
0.408 -0.665 0.608
0.413 -0.661 0.607
0.424 -0.667 0.607
0.434 -0.67 0.607
0.444 -0.674 0.606
0.451 -0.672 0.606
0.462 -0.676 0.606
0.474 -0.681 0.606
0.486 -0.687 0.605
0.496 -0.689 0.605
0.507 -0.692 0.604
0.512 -0.686 0.604
0.525 -0.692 0.604
0.539 -0.699 0.603
0.547 -0.697 0.603
0.564 -0.707 0.603
0.576 -0.71 0.602
0.64 -0.779 0.6
0.687 -0.824 0.599
0.696 -0.821 0.598
0.71 -0.823 0.598
0.724 -0.825 0.597
0.739 -0.828 0.597
0.754 -0.831 0.596
0.769 -0.834 0.596
0.783 -0.835 0.595
0.798 -0.837 0.595
0.807 -0.832 0.595
0.827 -0.839 0.594
0.849 -0.847 0.593
0.865 -0.848 0.593
0.883 -0.851 0.592
0.897 -0.851 0.592
0.921 -0.859 0.591
0.938 -0.86 0.59
0.961 -0.867 0.59
0.976 -0.866 0.589
0.999 -0.871 0.588
1.015 -0.871 0.588
1.04 -0.877 0.587
1.065 -0.883 0.586
1.087 -0.886 0.585
1.104 -0.884 0.585
1.136 -0.895 0.584
1.16 -0.898 0.583
1.184 -0.901 0.582
1.214 -0.908 0.581
1.243 -0.913 0.58
1.269 -0.916 0.579
1.294 -0.918 0.579
1.317 -0.918 0.578
1.354 -0.926 0.577
1.378 -0.926 0.576
1.418 -0.936 0.575
1.444 -0.935 0.574
1.484 -0.944 0.572
1.519 -0.948 0.571
1.551 -0.95 0.57
1.585 -0.953 0.569
1.631 -0.962 0.568
1.666 -0.963 0.566
1.715 -0.972 0.565
1.758 -0.977 0.563
1.811 -0.987 0.562
1.874 -1.001 0.56
1.925 -1.007 0.558
1.986 -1.018 0.556
2.059 -1.034 0.554
2.131 -1.047 0.551
2.227 -1.071 0.548
2.312 -1.088 0.545
2.384 -1.098 0.543
2.474 -1.113 0.54
2.556 -1.125 0.537
2.658 -1.142 0.534
2.786 -1.17 0.53
2.975 -1.22 0.524
3.102 -1.241 0.519
3.236 -1.263 0.515
3.338 -1.27 0.512
5.332 -1.983 0.446
5.349 -1.937 0.446
5.354 -1.886 0.446
3.989 -1.363 0.49
3.96 -1.315 0.491
4.02 -1.297 0.489
4.014 -1.256 0.49
4.344 -1.319 0.479
4.573 -1.346 0.471
4.581 -1.305 0.471
4.624 -1.274 0.47
4.554 -1.212 0.472
4.308 -1.106 0.48
4.084 -1.011 0.487
4.057 -0.967 0.488
4.107 -0.941 0.487
4.77 -1.051 0.465
5.468 -1.156 0.442
5.474 -1.108 0.442
5.488 -1.061 0.441
5.484 -1.011 0.441
5.497 -0.964 0.441
5.501 -0.916 0.441
5.515 -0.869 0.44
5.516 -0.82 0.44
3.719 -0.519 0.499
3.513 -0.459 0.506
5.548 -0.678 0.439
5.55 -0.629 0.439
5.559 -0.581 0.439
5.56 -0.533 0.439
5.575 -0.485 0.439
5.576 -0.437 0.438
5.592 -0.389 0.438
5.592 -0.34 0.438
5.611 -0.293 0.437
5.606 -0.244 0.437
5.625 -0.195 0.437
5.631 -0.147 0.437
5.646 -0.098 0.436
5.642 -0.049 0.436
5.166 -0 0.452
4.587 0.04 0.471
5.259 0.091 0.449
5.024 0.131 0.457
5.007 0.174 0.457
5.009 0.217 0.457
4.33 0.225 0.479
4.076 0.247 0.488
4.018 0.279 0.489
3.999 0.312 0.49
3.996 0.347 0.49
4.003 0.383 0.49
3.994 0.417 0.49
3.86 0.436 0.495
3.764 0.458 0.498
3.164 0.413 0.517
2.686 0.373 0.533
2.622 0.387 0.535
2.616 0.41 0.535
2.62 0.433 0.535
2.626 0.458 0.535
2.622 0.48 0.535
2.633 0.506 0.535
2.642 0.531 0.535
2.647 0.556 0.534
2.653 0.581 0.534
2.63 0.6 0.535
2.116 0.501 0.552
1.987 0.488 0.556
1.785 0.454 0.563
1.72 0.453 0.565
1.693 0.461 0.566
1.671 0.47 0.566
1.655 0.481 0.567
1.633 0.49 0.568
1.613 0.499 0.568
1.592 0.507 0.569
1.577 0.517 0.569
1.553 0.524 0.57
1.54 0.534 0.571
1.525 0.544 0.571
1.502 0.55 0.572
1.496 0.562 0.572
1.488 0.574 0.572
1.479 0.585 0.573
1.47 0.596 0.573
1.471 0.611 0.573
1.47 0.626 0.573
1.46 0.636 0.573
1.468 0.655 0.573
1.461 0.667 0.573
1.462 0.682 0.573
1.47 0.702 0.573
1.483 0.724 0.572
1.487 0.742 0.572
1.491 0.76 0.572
1.501 0.782 0.572
1.502 0.799 0.572
1.512 0.821 0.572
1.512 0.838 0.572
1.521 0.861 0.571
1.522 0.879 0.571
1.514 0.891 0.571
1.503 0.902 0.572
1.495 0.915 0.572
1.502 0.937 0.572
1.499 0.953 0.572
1.489 0.965 0.572
1.47 0.971 0.573
1.468 0.988 0.573
1.464 1.004 0.573
1.447 1.01 0.574
1.426 1.014 0.574
1.416 1.025 0.575
1.407 1.037 0.575
1.422 1.068 0.574
1.42 1.085 0.575
1.398 1.088 0.575
1.385 1.096 0.576
1.367 1.101 0.576
1.344 1.102 0.577
1.321 1.101 0.578
1.31 1.112 0.578
1.297 1.12 0.579
1.282 1.126 0.579
1.262 1.128 0.58
1.236 1.123 0.581
1.222 1.13 0.581
1.204 1.133 0.582
1.182 1.131 0.582
1.166 1.135 0.583
1.148 1.136 0.583
1.136 1.144 0.584
1.115 1.142 0.585
1.106 1.153 0.585
1.088 1.154 0.585
1.072 1.156 0.586
1.06 1.163 0.586
1.04 1.161 0.587
1.028 1.167 0.587
1.013 1.171 0.588
0.994 1.167 0.588
0.978 1.17 0.589
0.966 1.175 0.589
0.952 1.178 0.59
0.941 1.186 0.59
0.927 1.188 0.591
0.907 1.184 0.591
0.898 1.192 0.592
0.886 1.198 0.592
0.867 1.194 0.593
0.856 1.201 0.593
0.844 1.205 0.593
0.834 1.212 0.594
0.814 1.206 0.594
0.804 1.213 0.595
0.791 1.215 0.595
0.773 1.211 0.596
0.764 1.22 0.596
0.765 1.246 0.596
0.745 1.236 0.597
0.735 1.245 0.597
0.718 1.239 0.597
0.705 1.241 0.598
0.69 1.24 0.598
0.677 1.24 0.599
0.666 1.246 0.599
0.653 1.247 0.6
0.64 1.248 0.6
0.623 1.241 0.601
0.614 1.25 0.601
0.603 1.255 0.601
0.586 1.246 0.602
0.576 1.254 0.602
0.563 1.252 0.603
0.551 1.254 0.603
0.541 1.261 0.603
0.53 1.265 0.604
0.518 1.267 0.604
0.507 1.273 0.604
0.493 1.268 0.605
0.482 1.272 0.605
0.471 1.276 0.606
0.46 1.28 0.606
0.448 1.283 0.606
0.435 1.28 0.607
0.423 1.28 0.607
0.411 1.281 0.608
0.401 1.287 0.608
0.392 1.3 0.608
0.376 1.288 0.609
0.369 1.304 0.609
0.357 1.306 0.609
0.345 1.306 0.61
0.333 1.307 0.61
0.321 1.305 0.611
0.309 1.304 0.611
0.297 1.303 0.611
0.288 1.317 0.612
0.276 1.32 0.612
0.265 1.326 0.612
0.251 1.312 0.613
0.242 1.328 0.613
0.231 1.331 0.613
0.217 1.322 0.614
0.235 1.548 0.613
0.226 1.582 0.614
0.212 1.587 0.614
0.199 1.588 0.615
0.185 1.59 0.615
0.171 1.591 0.615
0.157 1.592 0.616
0.143 1.593 0.616
0.13 1.603 0.617
0.116 1.604 0.617
0.102 1.603 0.618
0.088 1.605 0.618
0.074 1.604 0.619
0.059 1.588 0.619
0.045 1.491 0.62
0.032 0.198 0.62
0.032 -0.416 0.62
0.036 -0.476 0.62
0.041 -0.514 0.62
0.046 -0.543 0.62
0.051 -0.554 0.62
0.056 -0.563 0.619
0.061 -0.564 0.619
0.066 -0.566 0.619
0.071 -0.566 0.619
0.076 -0.565 0.619
0.081 -0.565 0.619
0.087 -0.574 0.619
0.092 -0.574 0.618
0.098 -0.583 0.618
0.103 -0.581 0.618
0.108 -0.581 0.618
0.113 -0.578 0.618
0.119 -0.585 0.618
0.125 -0.591 0.618
0.132 -0.598 0.617
0.135 -0.587 0.617
0.142 -0.597 0.617
0.147 -0.596 0.617
0.153 -0.595 0.617
0.158 -0.597 0.617
0.164 -0.597 0.616
0.171 -0.604 0.616
0.176 -0.601 0.616
0.184 -0.612 0.616
0.187 -0.602 0.616
0.195 -0.609 0.616
0.2 -0.609 0.615
0.206 -0.608 0.615
0.211 -0.607 0.615
0.219 -0.612 0.615
0.224 -0.61 0.615
0.232 -0.618 0.615
0.237 -0.615 0.614
0.242 -0.612 0.614
0.25 -0.616 0.614
0.256 -0.615 0.614
0.264 -0.621 0.614
0.273 -0.628 0.613
0.277 -0.624 0.613
0.286 -0.63 0.613
0.295 -0.637 0.613
0.301 -0.635 0.613
0.307 -0.633 0.613
0.315 -0.638 0.612
0.321 -0.636 0.612
0.331 -0.643 0.612
0.337 -0.641 0.612
0.348 -0.649 0.611
0.358 -0.655 0.611
0.364 -0.652 0.611
0.374 -0.658 0.611
0.38 -0.656 0.61
0.39 -0.661 0.61
0.401 -0.667 0.61
0.407 -0.664 0.61
0.413 -0.661 0.61
0.424 -0.667 0.609
0.434 -0.669 0.609
0.445 -0.674 0.609
0.456 -0.679 0.608
0.468 -0.686 0.608
0.474 -0.682 0.608
0.486 -0.687 0.608
0.496 -0.689 0.607
0.507 -0.692 0.607
0.513 -0.687 0.607
0.526 -0.693 0.606
0.534 -0.692 0.606
0.552 -0.704 0.606
0.565 -0.708 0.605
0.578 -0.712 0.605
0.642 -0.782 0.603
0.682 -0.818 0.602
0.697 -0.822 0.602
0.711 -0.824 0.601
0.724 -0.826 0.601
0.739 -0.829 0.601
0.754 -0.831 0.6
0.763 -0.827 0.6
0.777 -0.829 0.599
0.798 -0.837 0.599
0.814 -0.84 0.598
0.833 -0.845 0.598
0.848 -0.846 0.598
0.865 -0.849 0.597
0.881 -0.85 0.597
0.897 -0.851 0.596
0.921 -0.859 0.595
0.938 -0.86 0.595
0.959 -0.865 0.594
0.976 -0.866 0.594
0.998 -0.871 0.593
1.016 -0.871 0.593
1.039 -0.876 0.592
1.057 -0.876 0.592
1.081 -0.881 0.591
1.105 -0.885 0.59
1.128 -0.889 0.59
1.16 -0.898 0.589
1.185 -0.901 0.588
1.214 -0.908 0.587
1.244 -0.914 0.587
1.269 -0.916 0.586
1.295 -0.918 0.585
1.317 -0.917 0.585
1.355 -0.927 0.583
1.388 -0.932 0.583
1.418 -0.936 0.582
1.443 -0.934 0.581
1.484 -0.944 0.58
1.518 -0.947 0.579
1.552 -0.95 0.578
1.585 -0.953 0.577
1.633 -0.963 0.576
1.677 -0.969 0.575
1.706 -0.967 0.574
1.759 -0.978 0.572
1.804 -0.983 0.571
1.874 -1.001 0.569
1.926 -1.007 0.568
1.988 -1.019 0.566
2.06 -1.034 0.564
2.131 -1.047 0.562
2.231 -1.073 0.559
2.309 -1.087 0.557
2.394 -1.102 0.555
2.474 -1.113 0.552
2.567 -1.129 0.55
2.667 -1.146 0.547
2.766 -1.161 0.544
2.976 -1.22 0.539
3.104 -1.242 0.535
3.237 -1.263 0.531
3.33 -1.266 0.529
3.567 -1.322 0.522
3.451 -1.245 0.525
3.589 -1.26 0.522
3.619 -1.236 0.521
3.482 -1.155 0.525
3.508 -1.13 0.524
3.495 -1.092 0.524
3.592 -1.089 0.521
3.573 -1.049 0.522
3.621 -1.03 0.521
3.58 -0.985 0.522
3.625 -0.963 0.521
3.565 -0.914 0.522
3.549 -0.877 0.523
3.527 -0.839 0.523
3.549 -0.812 0.523
3.605 -0.793 0.521
3.686 -0.777 0.519
3.655 -0.737 0.52
3.69 -0.711 0.519
3.657 -0.672 0.52
3.702 -0.647 0.518
3.669 -0.609 0.519
3.702 -0.582 0.518
3.669 -0.544 0.519
3.712 -0.517 0.518
3.553 -0.464 0.523
5.537 -0.676 0.468
5.543 -0.628 0.467
5.548 -0.58 0.467
5.563 -0.533 0.467
5.567 -0.484 0.467
5.58 -0.437 0.466
5.583 -0.388 0.466
5.587 -0.34 0.466
5.599 -0.292 0.466
5.601 -0.243 0.466
5.614 -0.195 0.465
5.616 -0.146 0.465
5.637 -0.098 0.465
5.637 -0.049 0.465
5.581 -0 0.466
4.608 0.04 0.493
4.667 0.081 0.492
5.023 0.131 0.482
5.008 0.174 0.482
5.01 0.217 0.482
4.352 0.227 0.5
4.083 0.248 0.508
4.018 0.279 0.51
3.99 0.312 0.51
3.997 0.347 0.51
4.005 0.383 0.51
3.994 0.417 0.51
3.867 0.437 0.514
3.761 0.458 0.517
3.197 0.417 0.532
2.693 0.374 0.546
2.622 0.387 0.548
2.613 0.409 0.549
2.617 0.433 0.549
2.617 0.456 0.549
2.632 0.482 0.548
2.631 0.505 0.548
2.634 0.53 0.548
2.643 0.555 0.548
2.642 0.579 0.548
2.615 0.597 0.549
2.111 0.499 0.563
1.994 0.489 0.566
1.876 0.477 0.569
1.71 0.45 0.574
1.691 0.46 0.574
1.672 0.471 0.575
1.649 0.479 0.575
1.634 0.49 0.576
1.604 0.496 0.577
1.583 0.504 0.577
1.568 0.514 0.578
1.554 0.524 0.578
1.537 0.533 0.578
1.523 0.543 0.579
1.508 0.552 0.579
1.5 0.564 0.579
1.495 0.577 0.58
1.49 0.59 0.58
1.487 0.603 0.58
1.482 0.616 0.58
1.478 0.629 0.58
1.474 0.642 0.58
1.475 0.658 0.58
1.468 0.67 0.58
1.469 0.686 0.58
1.471 0.702 0.58
1.483 0.724 0.58
1.489 0.743 0.58
1.491 0.76 0.58
1.501 0.782 0.579
1.51 0.803 0.579
1.52 0.825 0.579
1.522 0.844 0.579
1.521 0.86 0.579
1.522 0.878 0.579
1.522 0.896 0.579
1.509 0.905 0.579
1.503 0.92 0.579
1.509 0.941 0.579
1.509 0.96 0.579
1.497 0.97 0.58
1.479 0.976 0.58
1.47 0.989 0.58
1.466 1.005 0.58
1.449 1.012 0.581
1.433 1.019 0.581
1.416 1.025 0.582
1.404 1.035 0.582
1.442 1.082 0.581
1.427 1.09 0.581
1.406 1.094 0.582
1.389 1.099 0.583
1.371 1.105 0.583
1.342 1.1 0.584
1.33 1.109 0.584
1.31 1.112 0.585
1.296 1.119 0.585
1.282 1.126 0.585
1.262 1.128 0.586
1.247 1.133 0.586
1.226 1.134 0.587
1.201 1.13 0.588
1.184 1.133 0.588
1.169 1.138 0.589
1.155 1.144 0.589
1.134 1.142 0.59
1.114 1.141 0.59
1.107 1.154 0.59
1.088 1.154 0.591
1.07 1.153 0.591
1.057 1.159 0.592
1.04 1.161 0.592
1.028 1.167 0.593
1.01 1.167 0.593
0.999 1.174 0.593
0.98 1.172 0.594
0.968 1.178 0.594
0.95 1.177 0.595
0.941 1.186 0.595
0.925 1.186 0.595
0.91 1.188 0.596
0.898 1.192 0.596
0.886 1.198 0.596
0.87 1.198 0.597
0.859 1.205 0.597
0.841 1.2 0.598
0.835 1.215 0.598
0.816 1.209 0.598
0.808 1.22 0.599
0.796 1.224 0.599
0.786 1.231 0.599
0.767 1.224 0.6
0.764 1.243 0.6
0.749 1.244 0.6
0.735 1.245 0.601
0.716 1.235 0.601
0.704 1.239 0.602
0.693 1.245 0.602
0.679 1.244 0.602
0.662 1.238 0.603
0.652 1.245 0.603
0.642 1.252 0.603
0.623 1.241 0.604
0.608 1.236 0.604
0.6 1.248 0.604
0.589 1.252 0.605
0.578 1.256 0.605
0.563 1.252 0.605
0.551 1.256 0.606
0.54 1.26 0.606
0.529 1.263 0.606
0.518 1.269 0.607
0.507 1.273 0.607
0.493 1.269 0.607
0.484 1.278 0.608
0.468 1.269 0.608
0.456 1.269 0.608
0.445 1.273 0.609
0.435 1.28 0.609
0.421 1.275 0.609
0.411 1.283 0.61
0.401 1.29 0.61
0.387 1.283 0.61
0.379 1.296 0.611
0.368 1.303 0.611
0.355 1.296 0.611
0.343 1.299 0.611
0.334 1.309 0.612
0.322 1.311 0.612
0.308 1.301 0.612
0.298 1.308 0.613
0.29 1.331 0.613
0.275 1.316 0.613
0.264 1.318 0.614
0.252 1.321 0.614
0.24 1.314 0.614
0.231 1.337 0.615
0.219 1.337 0.615
0.235 1.544 0.615
0.226 1.582 0.615
0.212 1.588 0.615
0.198 1.588 0.616
0.184 1.589 0.616
0.171 1.59 0.616
0.157 1.592 0.617
0.143 1.592 0.617
0.13 1.603 0.617
0.116 1.604 0.618
0.102 1.604 0.618
0.088 1.605 0.619
0.074 1.605 0.619
0.059 1.579 0.619
0.045 1.494 0.62
0.032 1.406 0.62
0.031 -0.407 0.62
0.036 -0.476 0.62
0.04 -0.514 0.62
0.045 -0.534 0.62
0.051 -0.553 0.62
0.056 -0.562 0.62
0.061 -0.563 0.62
0.066 -0.564 0.62
0.071 -0.566 0.62
0.076 -0.565 0.619
0.082 -0.575 0.619
0.087 -0.574 0.619
0.093 -0.583 0.619
0.098 -0.583 0.619
0.103 -0.583 0.619
0.108 -0.582 0.619
0.113 -0.578 0.619
0.119 -0.584 0.619
0.125 -0.59 0.618
0.13 -0.588 0.618
0.136 -0.596 0.618
0.142 -0.597 0.618
0.147 -0.595 0.618
0.153 -0.596 0.618
0.158 -0.596 0.618
0.165 -0.603 0.618
0.17 -0.602 0.618
0.176 -0.603 0.617
0.182 -0.603 0.617
0.187 -0.601 0.617
0.195 -0.609 0.617
0.201 -0.61 0.617
0.206 -0.608 0.617
0.211 -0.607 0.617
0.219 -0.613 0.617
0.224 -0.611 0.616
0.232 -0.618 0.616
0.24 -0.624 0.616
0.246 -0.622 0.616
0.251 -0.619 0.616
0.258 -0.624 0.616
0.264 -0.621 0.616
0.269 -0.619 0.615
0.277 -0.624 0.615
0.285 -0.629 0.615
0.292 -0.629 0.615
0.301 -0.634 0.615
0.306 -0.632 0.615
0.316 -0.64 0.615
0.322 -0.637 0.614
0.33 -0.641 0.614
0.341 -0.65 0.614
0.348 -0.649 0.614
0.354 -0.648 0.614
0.364 -0.652 0.614
0.369 -0.649 0.613
0.38 -0.656 0.613
0.39 -0.661 0.613
0.396 -0.658 0.613
0.408 -0.666 0.613
0.413 -0.661 0.613
0.424 -0.666 0.612
0.433 -0.669 0.612
0.444 -0.674 0.612
0.455 -0.678 0.612
0.466 -0.682 0.611
0.474 -0.682 0.611
0.486 -0.686 0.611
0.495 -0.688 0.611
0.501 -0.684 0.611
0.519 -0.697 0.61
0.524 -0.691 0.61
0.539 -0.699 0.61
0.546 -0.696 0.61
0.559 -0.7 0.61
0.577 -0.712 0.609
0.641 -0.78 0.608
0.682 -0.818 0.607
0.697 -0.822 0.607
0.71 -0.823 0.606
0.724 -0.826 0.606
0.738 -0.827 0.606
0.754 -0.832 0.606
0.769 -0.834 0.605
0.783 -0.835 0.605
0.793 -0.831 0.605
0.814 -0.84 0.604
0.827 -0.839 0.604
0.85 -0.847 0.604
0.865 -0.849 0.603
0.881 -0.85 0.603
0.898 -0.852 0.603
0.92 -0.859 0.602
0.937 -0.859 0.602
0.959 -0.865 0.601
0.976 -0.865 0.601
0.998 -0.871 0.601
1.023 -0.877 0.6
1.04 -0.876 0.6
1.064 -0.882 0.599
1.081 -0.881 0.599
1.112 -0.891 0.598
1.136 -0.895 0.598
1.161 -0.899 0.597
1.185 -0.901 0.597
1.214 -0.908 0.596
1.243 -0.913 0.596
1.269 -0.916 0.595
1.296 -0.919 0.594
1.324 -0.922 0.594
1.355 -0.927 0.593
1.379 -0.926 0.593
1.411 -0.93 0.592
1.444 -0.935 0.591
1.476 -0.938 0.591
1.518 -0.947 0.59
1.553 -0.951 0.589
1.585 -0.952 0.589
1.633 -0.963 0.588
1.669 -0.965 0.587
1.715 -0.972 0.586
1.76 -0.978 0.585
1.804 -0.983 0.584
1.876 -1.002 0.583
1.927 -1.008 0.582
1.99 -1.02 0.58
2.062 -1.035 0.579
2.132 -1.048 0.577
2.231 -1.073 0.575
2.303 -1.084 0.574
2.385 -1.098 0.572
2.474 -1.113 0.57
2.568 -1.13 0.568
2.655 -1.141 0.567
2.753 -1.155 0.565
2.976 -1.22 0.56
3.104 -1.242 0.557
3.238 -1.263 0.555
3.272 -1.244 0.554
3.488 -1.293 0.55
3.545 -1.279 0.548
3.484 -1.223 0.55
3.505 -1.196 0.549
3.462 -1.148 0.55
3.478 -1.12 0.55
3.474 -1.086 0.55
3.538 -1.072 0.549
3.52 -1.034 0.549
3.559 -1.012 0.548
3.529 -0.97 0.549
3.569 -0.948 0.548
3.534 -0.906 0.549
3.512 -0.868 0.549
3.504 -0.834 0.549
3.52 -0.806 0.549
3.511 -0.772 0.549
3.616 -0.762 0.547
3.566 -0.719 0.548
3.618 -0.697 0.547
3.568 -0.656 0.548
3.629 -0.635 0.547
3.579 -0.594 0.548
3.641 -0.572 0.546
3.588 -0.532 0.548
3.647 -0.508 0.546
3.682 -0.481 0.546
5.538 -0.676 0.508
5.544 -0.628 0.507
5.549 -0.58 0.507
5.554 -0.532 0.507
5.568 -0.484 0.507
5.572 -0.436 0.507
5.584 -0.388 0.507
5.588 -0.34 0.507
5.591 -0.291 0.507
5.602 -0.243 0.506
5.604 -0.195 0.506
5.626 -0.147 0.506
5.627 -0.098 0.506
5.638 -0.049 0.506
5.649 -0 0.505
4.633 0.04 0.526
4.545 0.079 0.528
5.03 0.131 0.518
5.006 0.174 0.518
5.01 0.217 0.518
4.366 0.227 0.532
4.084 0.248 0.537
4.02 0.279 0.539
3.99 0.312 0.539
3.997 0.347 0.539
4.004 0.383 0.539
3.995 0.417 0.539
3.873 0.438 0.542
3.763 0.458 0.544
3.168 0.413 0.556
2.69 0.374 0.566
2.622 0.387 0.567
2.61 0.408 0.568
2.621 0.433 0.567
2.617 0.456 0.567
2.626 0.481 0.567
2.621 0.504 0.567
2.634 0.53 0.567
2.644 0.555 0.567
2.642 0.579 0.567
2.63 0.6 0.567
2.113 0.5 0.578
1.994 0.489 0.58
1.959 0.499 0.581
1.733 0.456 0.586
1.697 0.462 0.586
1.679 0.472 0.587
1.655 0.481 0.587
1.634 0.49 0.588
1.613 0.499 0.588
1.593 0.507 0.588
1.566 0.514 0.589
1.561 0.527 0.589
1.544 0.536 0.589
1.529 0.545 0.59
1.527 0.559 0.59
1.509 0.567 0.59
1.509 0.582 0.59
1.495 0.592 0.59
1.491 0.605 0.59
1.493 0.62 0.59
1.488 0.634 0.591
1.481 0.645 0.591
1.48 0.66 0.591
1.477 0.674 0.591
1.476 0.689 0.591
1.479 0.706 0.591
1.493 0.729 0.59
1.497 0.747 0.59
1.5 0.765 0.59
1.501 0.782 0.59
1.51 0.803 0.59
1.52 0.825 0.59
1.521 0.843 0.59
1.522 0.861 0.59
1.53 0.883 0.59
1.522 0.896 0.59
1.517 0.911 0.59
1.503 0.92 0.59
1.508 0.941 0.59
1.518 0.966 0.59
1.509 0.978 0.59
1.482 0.979 0.591
1.477 0.994 0.591
1.468 1.006 0.591
1.449 1.012 0.591
1.432 1.017 0.592
1.417 1.025 0.592
1.408 1.038 0.592
1.44 1.081 0.592
1.424 1.088 0.592
1.409 1.096 0.592
1.389 1.099 0.593
1.367 1.101 0.593
1.344 1.102 0.593
1.338 1.116 0.594
1.311 1.113 0.594
1.301 1.124 0.594
1.288 1.132 0.595
1.268 1.133 0.595
1.242 1.129 0.596
1.222 1.13 0.596
1.203 1.132 0.596
1.194 1.142 0.597
1.172 1.141 0.597
1.155 1.144 0.597
1.14 1.148 0.598
1.123 1.15 0.598
1.109 1.156 0.598
1.086 1.152 0.599
1.078 1.163 0.599
1.067 1.171 0.599
1.044 1.165 0.6
1.027 1.166 0.6
1.01 1.167 0.6
0.997 1.171 0.601
0.985 1.177 0.601
0.967 1.176 0.601
0.956 1.184 0.601
0.943 1.188 0.602
0.927 1.188 0.602
0.913 1.191 0.602
0.898 1.193 0.603
0.886 1.198 0.603
0.87 1.198 0.603
0.86 1.207 0.603
0.846 1.208 0.604
0.829 1.205 0.604
0.818 1.212 0.604
0.804 1.213 0.605
0.796 1.224 0.605
0.781 1.224 0.605
0.768 1.227 0.605
0.76 1.237 0.605
0.746 1.238 0.606
0.734 1.243 0.606
0.72 1.242 0.606
0.705 1.241 0.607
0.692 1.242 0.607
0.677 1.24 0.607
0.666 1.246 0.607
0.651 1.243 0.608
0.64 1.248 0.608
0.628 1.25 0.608
0.614 1.25 0.608
0.603 1.255 0.609
0.59 1.255 0.609
0.578 1.258 0.609
0.564 1.256 0.609
0.553 1.26 0.61
0.541 1.261 0.61
0.529 1.264 0.61
0.515 1.26 0.61
0.506 1.27 0.611
0.495 1.275 0.611
0.482 1.272 0.611
0.471 1.276 0.611
0.459 1.279 0.612
0.448 1.283 0.612
0.438 1.289 0.612
0.424 1.283 0.612
0.41 1.278 0.613
0.403 1.297 0.613
0.388 1.285 0.613
0.376 1.288 0.613
0.366 1.294 0.614
0.357 1.306 0.614
0.344 1.302 0.614
0.333 1.307 0.614
0.322 1.309 0.614
0.308 1.302 0.615
0.298 1.311 0.615
0.288 1.321 0.615
0.276 1.319 0.615
0.263 1.313 0.616
0.251 1.315 0.616
0.241 1.322 0.616
0.229 1.324 0.616
0.218 1.327 0.617
0.236 1.551 0.616
0.226 1.582 0.616
0.212 1.587 0.617
0.198 1.588 0.617
0.184 1.59 0.617
0.171 1.591 0.618
0.157 1.602 0.618
0.143 1.593 0.618
0.129 1.593 0.618
0.115 1.604 0.619
0.101 1.604 0.619
0.087 1.605 0.619
0.073 1.605 0.62
0.059 1.589 0.62
0.044 1.492 0.62
0.031 0.187 0.62
0.031 -0.397 0.621
0.035 -0.476 0.62
0.04 -0.515 0.62
0.046 -0.544 0.62
0.051 -0.553 0.62
0.056 -0.562 0.62
0.061 -0.564 0.62
0.066 -0.574 0.62
0.071 -0.567 0.62
0.077 -0.574 0.62
0.081 -0.565 0.62
0.087 -0.574 0.62
0.092 -0.573 0.62
0.098 -0.583 0.619
0.103 -0.583 0.619
0.108 -0.581 0.619
0.114 -0.587 0.619
0.119 -0.585 0.619
0.125 -0.591 0.619
0.13 -0.588 0.619
0.135 -0.588 0.619
0.142 -0.595 0.619
0.147 -0.595 0.619
0.153 -0.596 0.619
0.158 -0.597 0.619
0.165 -0.604 0.618
0.17 -0.602 0.618
0.176 -0.602 0.618
0.184 -0.612 0.618
0.187 -0.601 0.618
0.195 -0.609 0.618
0.2 -0.609 0.618
0.206 -0.608 0.618
0.211 -0.607 0.618
0.219 -0.613 0.618
0.224 -0.611 0.618
0.232 -0.618 0.617
0.237 -0.615 0.617
0.245 -0.621 0.617
0.25 -0.617 0.617
0.259 -0.625 0.617
0.264 -0.622 0.617
0.272 -0.627 0.617
0.278 -0.625 0.617
0.286 -0.63 0.617
0.291 -0.627 0.617
0.301 -0.634 0.616
0.31 -0.641 0.616
0.316 -0.639 0.616
0.324 -0.643 0.616
0.33 -0.641 0.616
0.341 -0.65 0.616
0.348 -0.649 0.616
0.353 -0.646 0.616
0.364 -0.652 0.615
0.374 -0.659 0.615
0.38 -0.655 0.615
0.39 -0.661 0.615
0.396 -0.658 0.615
0.407 -0.663 0.615
0.413 -0.662 0.615
0.429 -0.675 0.614
0.434 -0.669 0.614
0.443 -0.672 0.614
0.45 -0.67 0.614
0.461 -0.675 0.614
0.474 -0.681 0.614
0.485 -0.685 0.614
0.495 -0.688 0.613
0.5 -0.682 0.613
0.518 -0.695 0.613
0.525 -0.692 0.613
0.534 -0.692 0.613
0.547 -0.697 0.613
0.564 -0.707 0.612
0.582 -0.718 0.612
0.641 -0.78 0.611
0.682 -0.818 0.61
0.696 -0.821 0.61
0.71 -0.823 0.61
0.726 -0.828 0.61
0.738 -0.827 0.61
0.754 -0.832 0.609
0.769 -0.834 0.609
0.777 -0.828 0.609
0.792 -0.83 0.609
0.815 -0.84 0.608
0.827 -0.839 0.608
0.849 -0.847 0.608
0.866 -0.849 0.608
0.881 -0.85 0.607
0.898 -0.852 0.607
0.921 -0.859 0.607
0.936 -0.859 0.607
0.96 -0.866 0.606
0.976 -0.866 0.606
0.999 -0.871 0.606
1.016 -0.871 0.605
1.039 -0.876 0.605
1.063 -0.881 0.605
1.088 -0.887 0.604
1.113 -0.892 0.604
1.137 -0.896 0.603
1.16 -0.898 0.603
1.185 -0.901 0.603
1.214 -0.908 0.602
1.244 -0.914 0.602
1.269 -0.916 0.601
1.288 -0.913 0.601
1.317 -0.917 0.601
1.355 -0.927 0.6
1.379 -0.926 0.6
1.418 -0.936 0.599
1.443 -0.934 0.599
1.484 -0.943 0.598
1.518 -0.947 0.598
1.552 -0.95 0.597
1.585 -0.953 0.597
1.634 -0.963 0.596
1.678 -0.97 0.595
1.715 -0.972 0.595
1.761 -0.978 0.594
1.805 -0.983 0.593
1.866 -0.996 0.592
1.929 -1.009 0.591
1.991 -1.02 0.59
2.064 -1.036 0.589
2.132 -1.048 0.588
2.234 -1.074 0.586
2.304 -1.084 0.585
2.394 -1.102 0.584
2.474 -1.113 0.583
2.567 -1.129 0.581
2.659 -1.143 0.58
2.8 -1.175 0.578
2.978 -1.221 0.575
3.105 -1.242 0.573
3.23 -1.26 0.571
3.268 -1.242 0.571
3.431 -1.271 0.568
3.443 -1.242 0.568
3.449 -1.21 0.568
3.445 -1.176 0.568
3.455 -1.146 0.568
3.456 -1.113 0.568
3.457 -1.08 0.568
3.466 -1.05 0.567
3.467 -1.018 0.567
3.477 -0.988 0.567
3.476 -0.955 0.567
3.484 -0.925 0.567
3.492 -0.895 0.567
3.499 -0.865 0.567
3.498 -0.832 0.567
3.505 -0.802 0.567
3.504 -0.77 0.567
3.511 -0.74 0.567
3.517 -0.709 0.567
3.525 -0.679 0.567
3.531 -0.649 0.566
3.537 -0.618 0.566
3.532 -0.586 0.566
3.547 -0.557 0.566
3.541 -0.525 0.566
3.555 -0.495 0.566
3.662 -0.478 0.564
5.528 -0.675 0.536
5.535 -0.627 0.536
5.549 -0.58 0.535
5.555 -0.532 0.535
5.569 -0.484 0.535
5.573 -0.436 0.535
5.584 -0.388 0.535
5.589 -0.34 0.535
5.591 -0.291 0.535
5.602 -0.243 0.534
5.615 -0.195 0.534
5.617 -0.146 0.534
5.628 -0.098 0.534
5.639 -0.049 0.534
5.649 -0 0.534
4.687 0.041 0.549
4.505 0.078 0.551
5.025 0.131 0.543
5.007 0.174 0.544
5.012 0.217 0.544
4.349 0.226 0.554
4.076 0.247 0.558
4.019 0.279 0.559
3.991 0.312 0.559
3.998 0.347 0.559
3.996 0.382 0.559
3.995 0.417 0.559
3.868 0.437 0.561
3.762 0.458 0.563
3.205 0.418 0.572
2.687 0.373 0.579
2.619 0.387 0.581
2.61 0.408 0.581
2.611 0.432 0.581
2.617 0.456 0.581
2.619 0.48 0.581
2.628 0.505 0.58
2.637 0.53 0.58
2.634 0.553 0.58
2.637 0.578 0.58
2.613 0.596 0.581
2.137 0.506 0.588
1.984 0.487 0.59
1.959 0.499 0.591
1.775 0.467 0.594
1.702 0.463 0.595
1.689 0.475 0.595
1.669 0.485 0.595
1.642 0.492 0.596
1.62 0.501 0.596
1.598 0.509 0.596
1.584 0.519 0.597
1.567 0.529 0.597
1.56 0.541 0.597
1.543 0.55 0.597
1.535 0.562 0.597
1.517 0.571 0.598
1.515 0.585 0.598
1.505 0.596 0.598
1.499 0.608 0.598
1.499 0.623 0.598
1.498 0.638 0.598
1.486 0.648 0.598
1.483 0.662 0.598
1.477 0.674 0.598
1.478 0.69 0.598
1.481 0.707 0.598
1.493 0.729 0.598
1.498 0.747 0.598
1.5 0.765 0.598
1.509 0.786 0.598
1.51 0.803 0.598
1.52 0.825 0.598
1.521 0.843 0.598
1.53 0.866 0.597
1.53 0.883 0.597
1.53 0.901 0.597
1.517 0.911 0.598
1.503 0.92 0.598
1.521 0.949 0.598
1.521 0.967 0.598
1.522 0.987 0.597
1.499 0.99 0.598
1.477 0.993 0.598
1.467 1.005 0.598
1.453 1.014 0.599
1.433 1.019 0.599
1.419 1.027 0.599
1.409 1.038 0.599
1.446 1.085 0.599
1.428 1.092 0.599
1.411 1.097 0.599
1.392 1.102 0.6
1.369 1.103 0.6
1.347 1.104 0.6
1.334 1.113 0.6
1.314 1.115 0.601
1.298 1.12 0.601
1.293 1.136 0.601
1.27 1.135 0.601
1.249 1.136 0.602
1.229 1.136 0.602
1.209 1.138 0.602
1.192 1.14 0.603
1.182 1.15 0.603
1.153 1.141 0.603
1.14 1.148 0.603
1.122 1.15 0.604
1.107 1.154 0.604
1.091 1.156 0.604
1.074 1.158 0.604
1.06 1.163 0.605
1.043 1.165 0.605
1.035 1.175 0.605
1.017 1.174 0.605
0.997 1.171 0.606
0.985 1.177 0.606
0.972 1.183 0.606
0.952 1.178 0.606
0.943 1.188 0.606
0.929 1.192 0.607
0.916 1.195 0.607
0.893 1.187 0.607
0.886 1.198 0.607
0.872 1.2 0.608
0.86 1.207 0.608
0.848 1.21 0.608
0.834 1.212 0.608
0.818 1.212 0.608
0.812 1.225 0.608
0.793 1.219 0.609
0.783 1.226 0.609
0.771 1.232 0.609
0.762 1.24 0.609
0.75 1.244 0.609
0.735 1.245 0.61
0.721 1.244 0.61
0.71 1.25 0.61
0.698 1.254 0.61
0.682 1.251 0.61
0.671 1.256 0.611
0.657 1.255 0.611
0.641 1.249 0.611
0.628 1.25 0.611
0.616 1.253 0.611
0.603 1.255 0.612
0.592 1.26 0.612
0.579 1.26 0.612
0.564 1.256 0.612
0.553 1.26 0.612
0.542 1.265 0.613
0.53 1.265 0.613
0.518 1.267 0.613
0.506 1.27 0.613
0.494 1.27 0.613
0.481 1.27 0.614
0.471 1.278 0.614
0.457 1.273 0.614
0.448 1.281 0.614
0.44 1.296 0.614
0.422 1.28 0.614
0.414 1.293 0.615
0.402 1.294 0.615
0.392 1.3 0.615
0.379 1.296 0.615
0.367 1.299 0.615
0.354 1.296 0.616
0.346 1.312 0.616
0.333 1.307 0.616
0.322 1.309 0.616
0.31 1.313 0.616
0.296 1.301 0.616
0.287 1.313 0.617
0.277 1.323 0.617
0.264 1.321 0.617
0.254 1.332 0.617
0.241 1.325 0.617
0.23 1.327 0.617
0.218 1.33 0.618
0.234 1.537 0.617
0.225 1.581 0.618
0.212 1.587 0.618
0.198 1.588 0.618
0.184 1.591 0.618
0.17 1.591 0.618
0.157 1.592 0.619
0.143 1.592 0.619
0.129 1.603 0.619
0.115 1.604 0.619
0.101 1.604 0.619
0.087 1.605 0.62
0.073 1.605 0.62
0.059 1.592 0.62
0.044 1.491 0.62
0.031 0.19 0.621
0.031 -0.408 0.621
0.035 -0.476 0.621
0.04 -0.514 0.621
0.045 -0.541 0.621
0.05 -0.553 0.621
0.056 -0.561 0.621
0.061 -0.563 0.621
0.066 -0.563 0.62
0.071 -0.566 0.62
0.075 -0.563 0.62
0.081 -0.575 0.62
0.086 -0.572 0.62
0.091 -0.574 0.62
0.098 -0.582 0.62
0.103 -0.583 0.62
0.108 -0.58 0.62
0.114 -0.586 0.62
0.118 -0.583 0.62
0.125 -0.591 0.62
0.13 -0.589 0.62
0.136 -0.597 0.62
0.141 -0.594 0.62
0.147 -0.595 0.62
0.152 -0.594 0.62
0.158 -0.596 0.62
0.165 -0.602 0.62
0.171 -0.604 0.62
0.176 -0.602 0.62
0.181 -0.602 0.62
0.189 -0.61 0.619
0.194 -0.609 0.619
0.2 -0.607 0.619
0.206 -0.608 0.619
0.214 -0.616 0.619
0.219 -0.614 0.619
0.224 -0.61 0.619
0.232 -0.618 0.619
0.237 -0.615 0.619
0.246 -0.623 0.619
0.249 -0.616 0.619
0.259 -0.625 0.619
0.263 -0.62 0.619
0.272 -0.627 0.619
0.276 -0.622 0.619
0.286 -0.63 0.619
0.291 -0.626 0.619
0.301 -0.635 0.619
0.306 -0.632 0.619
0.316 -0.64 0.618
0.324 -0.643 0.618
0.33 -0.641 0.618
0.341 -0.65 0.618
0.344 -0.642 0.618
0.353 -0.645 0.618
0.364 -0.653 0.618
0.369 -0.649 0.618
0.38 -0.656 0.618
0.39 -0.66 0.618
0.401 -0.667 0.618
0.406 -0.663 0.618
0.413 -0.661 0.618
0.422 -0.664 0.618
0.434 -0.671 0.617
0.443 -0.672 0.617
0.45 -0.671 0.617
0.461 -0.675 0.617
0.474 -0.682 0.617
0.485 -0.685 0.617
0.495 -0.687 0.617
0.506 -0.691 0.617
0.512 -0.687 0.617
0.524 -0.69 0.617
0.534 -0.692 0.617
0.546 -0.695 0.617
0.564 -0.707 0.616
0.582 -0.718 0.616
0.641 -0.781 0.616
0.682 -0.818 0.616
0.696 -0.821 0.615
0.709 -0.823 0.615
0.725 -0.827 0.615
0.738 -0.827 0.615
0.755 -0.832 0.615
0.768 -0.833 0.615
0.783 -0.835 0.615
0.791 -0.829 0.615
0.815 -0.84 0.614
0.825 -0.836 0.614
0.849 -0.847 0.614
0.864 -0.847 0.614
0.882 -0.851 0.614
0.896 -0.85 0.614
0.921 -0.859 0.614
0.936 -0.859 0.613
0.954 -0.861 0.613
0.976 -0.865 0.613
0.999 -0.872 0.613
1.021 -0.876 0.613
1.039 -0.876 0.613
1.063 -0.881 0.612
1.088 -0.887 0.612
1.112 -0.891 0.612
1.136 -0.895 0.612
1.16 -0.898 0.612
1.184 -0.901 0.611
1.214 -0.908 0.611
1.244 -0.914 0.611
1.269 -0.916 0.611
1.289 -0.914 0.611
1.324 -0.922 0.61
1.347 -0.921 0.61
1.379 -0.926 0.61
1.418 -0.936 0.61
1.45 -0.939 0.609
1.484 -0.943 0.609
1.516 -0.946 0.609
1.552 -0.95 0.608
1.585 -0.952 0.608
1.634 -0.963 0.608
1.676 -0.969 0.607
1.715 -0.972 0.607
1.76 -0.978 0.607
1.806 -0.984 0.606
1.867 -0.997 0.606
1.93 -1.01 0.605
2.002 -1.026 0.605
2.065 -1.036 0.604
2.132 -1.048 0.604
2.237 -1.076 0.603
2.302 -1.083 0.602
2.386 -1.098 0.602
2.464 -1.109 0.601
2.569 -1.13 0.6
2.658 -1.142 0.6
2.792 -1.172 0.598
2.977 -1.22 0.597
3.106 -1.242 0.596
3.229 -1.26 0.595
3.268 -1.242 0.595
3.43 -1.271 0.593
3.442 -1.242 0.593
3.439 -1.207 0.593
3.445 -1.176 0.593
3.445 -1.142 0.593
3.456 -1.113 0.593
3.455 -1.08 0.593
3.467 -1.05 0.593
3.465 -1.017 0.593
3.477 -0.988 0.593
3.475 -0.955 0.593
3.484 -0.925 0.593
3.482 -0.892 0.593
3.49 -0.862 0.593
3.498 -0.832 0.593
3.505 -0.802 0.593
3.503 -0.77 0.593
3.51 -0.74 0.593
3.516 -0.709 0.593
3.526 -0.679 0.593
3.519 -0.646 0.593
3.527 -0.616 0.593
3.531 -0.586 0.593
3.536 -0.555 0.592
3.54 -0.524 0.592
3.547 -0.494 0.592
3.661 -0.478 0.591
5.529 -0.675 0.576
5.533 -0.627 0.576
5.551 -0.58 0.576
5.552 -0.532 0.576
5.559 -0.484 0.576
5.57 -0.436 0.576
5.575 -0.388 0.576
5.587 -0.34 0.576
5.592 -0.291 0.576
5.593 -0.243 0.576
5.606 -0.195 0.576
5.617 -0.146 0.576
5.629 -0.098 0.576
5.627 -0.049 0.576
5.64 -0 0.576
4.847 0.042 0.582
4.501 0.078 0.585
5.026 0.131 0.58
5.006 0.174 0.581
5.01 0.217 0.581
4.335 0.226 0.586
4.088 0.248 0.588
4.019 0.279 0.589
3.99 0.312 0.589
3.989 0.346 0.589
3.993 0.381 0.589
3.996 0.417 0.589
3.866 0.437 0.59
3.762 0.458 0.591
2.805 0.365 0.598
2.694 0.374 0.599
2.613 0.386 0.6
2.603 0.407 0.6
2.612 0.432 0.6
2.613 0.455 0.6
2.614 0.479 0.6
2.628 0.505 0.6
2.629 0.529 0.6
2.639 0.554 0.6
2.644 0.579 0.6
2.631 0.6 0.6
2.158 0.511 0.604
1.987 0.488 0.605
1.958 0.498 0.605
1.906 0.502 0.606
1.725 0.47 0.607
1.687 0.475 0.607
1.67 0.485 0.608
1.647 0.494 0.608
1.63 0.504 0.608
1.614 0.514 0.608
1.598 0.524 0.608
1.584 0.535 0.608
1.571 0.545 0.608
1.551 0.553 0.608
1.546 0.566 0.609
1.529 0.575 0.609
1.522 0.587 0.609
1.509 0.597 0.609
1.509 0.612 0.609
1.498 0.623 0.609
1.5 0.639 0.609
1.493 0.651 0.609
1.489 0.664 0.609
1.484 0.677 0.609
1.483 0.693 0.609
1.485 0.709 0.609
1.493 0.729 0.609
1.499 0.748 0.609
1.506 0.768 0.609
1.517 0.79 0.609
1.517 0.807 0.609
1.528 0.83 0.609
1.535 0.851 0.609
1.539 0.871 0.609
1.541 0.889 0.609
1.534 0.903 0.609
1.525 0.915 0.609
1.512 0.925 0.609
1.525 0.952 0.609
1.534 0.976 0.609
1.525 0.989 0.609
1.499 0.99 0.609
1.481 0.996 0.609
1.465 1.004 0.609
1.452 1.013 0.609
1.436 1.021 0.609
1.416 1.025 0.61
1.414 1.042 0.61
1.458 1.095 0.609
1.431 1.094 0.609
1.41 1.097 0.61
1.39 1.1 0.61
1.375 1.108 0.61
1.349 1.106 0.61
1.34 1.118 0.61
1.322 1.123 0.61
1.302 1.124 0.611
1.291 1.134 0.611
1.268 1.133 0.611
1.249 1.136 0.611
1.228 1.136 0.611
1.21 1.139 0.611
1.191 1.14 0.611
1.179 1.148 0.611
1.158 1.147 0.612
1.138 1.146 0.612
1.124 1.151 0.612
1.111 1.158 0.612
1.09 1.155 0.612
1.08 1.165 0.612
1.061 1.164 0.612
1.045 1.167 0.613
1.022 1.16 0.613
1.017 1.174 0.613
0.995 1.17 0.613
0.986 1.18 0.613
0.971 1.182 0.613
0.962 1.191 0.613
0.944 1.19 0.613
0.929 1.192 0.614
0.913 1.192 0.614
0.902 1.199 0.614
0.888 1.202 0.614
0.875 1.206 0.614
0.86 1.206 0.614
0.853 1.219 0.614
0.831 1.208 0.614
0.823 1.219 0.614
0.806 1.216 0.615
0.796 1.224 0.615
0.781 1.224 0.615
0.769 1.227 0.615
0.759 1.236 0.615
0.752 1.248 0.615
0.735 1.245 0.615
0.724 1.251 0.615
0.709 1.249 0.615
0.693 1.245 0.615
0.678 1.243 0.616
0.664 1.242 0.616
0.653 1.248 0.616
0.64 1.248 0.616
0.63 1.256 0.616
0.616 1.253 0.616
0.603 1.254 0.616
0.59 1.255 0.616
0.575 1.252 0.616
0.566 1.26 0.616
0.553 1.26 0.617
0.542 1.265 0.617
0.531 1.268 0.617
0.517 1.267 0.617
0.505 1.268 0.617
0.495 1.275 0.617
0.485 1.281 0.617
0.474 1.286 0.617
0.46 1.281 0.617
0.447 1.281 0.617
0.438 1.291 0.617
0.424 1.286 0.618
0.411 1.284 0.618
0.403 1.297 0.618
0.391 1.299 0.618
0.376 1.286 0.618
0.367 1.298 0.618
0.357 1.306 0.618
0.344 1.301 0.618
0.333 1.309 0.618
0.322 1.313 0.618
0.31 1.312 0.619
0.3 1.319 0.619
0.288 1.322 0.619
0.275 1.316 0.619
0.263 1.315 0.619
0.251 1.313 0.619
0.242 1.332 0.619
0.229 1.326 0.619
0.219 1.337 0.619
0.235 1.545 0.619
0.225 1.581 0.619
0.212 1.587 0.619
0.198 1.589 0.619
0.184 1.589 0.62
0.171 1.593 0.62
0.156 1.591 0.62
0.143 1.593 0.62
0.129 1.602 0.62
0.115 1.604 0.62
0.101 1.603 0.62
0.087 1.606 0.62
0.073 1.604 0.62
0.059 1.592 0.621
0.044 1.491 0.621
0.031 0.171 0.621
0.031 -0.408 0.621
0.035 -0.464 0.621
0.04 -0.514 0.621
0.045 -0.541 0.621
0.05 -0.553 0.621
0.055 -0.552 0.621
0.061 -0.562 0.621
0.066 -0.564 0.621
0.071 -0.565 0.621
0.076 -0.574 0.621
0.081 -0.574 0.621
0.086 -0.572 0.621
0.091 -0.574 0.621
0.097 -0.582 0.621
0.102 -0.581 0.621
0.107 -0.58 0.621
0.113 -0.585 0.621
0.118 -0.584 0.621
0.124 -0.589 0.621
0.129 -0.587 0.621
0.136 -0.596 0.621
0.141 -0.595 0.621
0.147 -0.594 0.621
0.152 -0.594 0.621
0.157 -0.595 0.62
0.165 -0.602 0.62
0.17 -0.601 0.62
0.175 -0.6 0.62
0.181 -0.601 0.62
0.189 -0.61 0.62
0.194 -0.609 0.62
0.2 -0.608 0.62
0.208 -0.617 0.62
0.21 -0.604 0.62
0.219 -0.614 0.62
0.224 -0.61 0.62
0.232 -0.617 0.62
0.236 -0.613 0.62
0.242 -0.612 0.62
0.249 -0.616 0.62
0.255 -0.615 0.62
0.263 -0.62 0.62
0.271 -0.625 0.62
0.277 -0.623 0.62
0.285 -0.63 0.62
0.291 -0.627 0.62
0.3 -0.634 0.62
0.305 -0.629 0.62
0.315 -0.638 0.62
0.324 -0.642 0.62
0.329 -0.64 0.62
0.336 -0.639 0.62
0.348 -0.649 0.62
0.354 -0.647 0.62
0.363 -0.652 0.62
0.369 -0.649 0.62
0.379 -0.655 0.62
0.385 -0.652 0.62
0.395 -0.657 0.62
0.406 -0.662 0.62
0.412 -0.659 0.62
0.422 -0.664 0.62
0.433 -0.669 0.62
0.443 -0.673 0.62
0.45 -0.67 0.62
0.461 -0.675 0.62
0.472 -0.679 0.619
0.478 -0.675 0.619
0.494 -0.686 0.619
0.506 -0.691 0.619
0.518 -0.695 0.619
0.522 -0.689 0.619
0.538 -0.698 0.619
0.551 -0.703 0.619
0.563 -0.706 0.619
0.581 -0.717 0.619
0.645 -0.786 0.619
0.687 -0.825 0.619
0.696 -0.821 0.619
0.71 -0.823 0.619
0.723 -0.824 0.619
0.737 -0.827 0.619
0.751 -0.829 0.619
0.768 -0.833 0.619
0.776 -0.827 0.619
0.798 -0.837 0.618
0.806 -0.832 0.618
0.826 -0.838 0.618
0.851 -0.849 0.618
0.865 -0.849 0.618
0.881 -0.85 0.618
0.903 -0.857 0.618
0.92 -0.859 0.618
0.935 -0.858 0.618
0.959 -0.865 0.618
0.975 -0.865 0.618
0.997 -0.87 0.618
1.014 -0.869 0.618
1.039 -0.876 0.618
1.062 -0.881 0.618
1.088 -0.887 0.618
1.112 -0.891 0.617
1.135 -0.894 0.617
1.16 -0.898 0.617
1.182 -0.899 0.617
1.213 -0.907 0.617
1.243 -0.914 0.617
1.269 -0.916 0.617
1.287 -0.913 0.617
1.316 -0.916 0.617
1.345 -0.92 0.617
1.378 -0.926 0.617
1.417 -0.935 0.616
1.443 -0.934 0.616
1.483 -0.943 0.616
1.516 -0.946 0.616
1.551 -0.95 0.616
1.585 -0.952 0.616
1.632 -0.962 0.616
1.676 -0.969 0.616
1.704 -0.966 0.616
1.76 -0.978 0.615
1.806 -0.984 0.615
1.877 -1.002 0.615
1.928 -1.008 0.615
1.993 -1.021 0.615
2.064 -1.036 0.614
2.133 -1.048 0.614
2.236 -1.075 0.614
2.301 -1.083 0.614
2.392 -1.101 0.613
2.473 -1.113 0.613
2.566 -1.129 0.613
2.658 -1.142 0.613
2.798 -1.175 0.612
2.977 -1.22 0.611
3.104 -1.241 0.611
3.229 -1.26 0.611
3.265 -1.241 0.611
3.43 -1.271 0.61
3.432 -1.238 0.61
3.439 -1.207 0.61
3.443 -1.175 0.61
3.445 -1.142 0.61
3.455 -1.112 0.61
3.455 -1.08 0.61
3.464 -1.05 0.61
3.465 -1.017 0.61
3.473 -0.987 0.61
3.474 -0.955 0.61
3.483 -0.925 0.61
3.482 -0.892 0.61
3.489 -0.862 0.61
3.487 -0.83 0.61
3.494 -0.799 0.61
3.503 -0.77 0.61
3.509 -0.739 0.61
3.517 -0.709 0.61
3.522 -0.679 0.61
3.528 -0.648 0.61
3.526 -0.616 0.61
3.53 -0.586 0.61
3.535 -0.555 0.61
3.54 -0.524 0.61
3.545 -0.494 0.61
3.651 -0.477 0.609
5.527 -0.675 0.603
5.533 -0.627 0.603
5.539 -0.579 0.603
5.544 -0.531 0.603
5.557 -0.483 0.603
5.57 -0.436 0.603
5.574 -0.388 0.603
5.578 -0.339 0.603
5.589 -0.291 0.603
5.593 -0.243 0.603
5.605 -0.195 0.603
5.605 -0.146 0.603
5.618 -0.098 0.603
5.627 -0.049 0.603
5.637 -0 0.603
5.093 0.044 0.605
4.513 0.078 0.607
5.025 0.131 0.605
5.004 0.174 0.605
5.01 0.217 0.605
4.311 0.224 0.607
4.076 0.247 0.608
4.017 0.279 0.608
3.979 0.311 0.608
3.987 0.346 0.608
3.993 0.381 0.608
3.995 0.417 0.608
3.866 0.437 0.609
3.762 0.458 0.609
2.853 0.371 0.612
2.708 0.376 0.612
2.621 0.387 0.613
2.607 0.408 0.613
2.609 0.431 0.613
2.618 0.456 0.613
2.625 0.481 0.613
2.624 0.504 0.613
2.623 0.527 0.613
2.641 0.555 0.613
2.636 0.577 0.613
2.639 0.602 0.613
2.186 0.517 0.614
1.988 0.488 0.615
1.95 0.496 0.615
1.907 0.503 0.615
1.798 0.49 0.615
1.722 0.485 0.616
1.686 0.49 0.616
1.649 0.495 0.616
1.643 0.508 0.616
1.623 0.517 0.616
1.617 0.531 0.616
1.596 0.539 0.616
1.581 0.549 0.616
1.566 0.559 0.616
1.551 0.568 0.616
1.545 0.581 0.616
1.537 0.593 0.616
1.519 0.601 0.616
1.514 0.614 0.616
1.506 0.626 0.616
1.5 0.639 0.616
1.495 0.652 0.616
1.498 0.668 0.616
1.492 0.681 0.616
1.494 0.698 0.616
1.496 0.715 0.616
1.493 0.729 0.616
1.506 0.751 0.616
1.514 0.772 0.616
1.516 0.79 0.616
1.516 0.806 0.616
1.527 0.829 0.616
1.534 0.85 0.616
1.538 0.87 0.616
1.536 0.887 0.616
1.535 0.903 0.616
1.527 0.916 0.616
1.512 0.925 0.616
1.529 0.954 0.616
1.529 0.973 0.616
1.52 0.986 0.616
1.506 0.995 0.616
1.484 0.999 0.616
1.468 1.006 0.616
1.453 1.014 0.616
1.439 1.023 0.616
1.42 1.028 0.616
1.415 1.043 0.616
1.458 1.095 0.616
1.441 1.101 0.616
1.415 1.101 0.616
1.385 1.096 0.617
1.375 1.108 0.617
1.356 1.111 0.617
1.337 1.115 0.617
1.321 1.121 0.617
1.304 1.126 0.617
1.294 1.138 0.617
1.274 1.139 0.617
1.25 1.137 0.617
1.233 1.141 0.617
1.215 1.143 0.617
1.194 1.142 0.617
1.181 1.15 0.617
1.17 1.159 0.617
1.145 1.153 0.617
1.127 1.155 0.617
1.11 1.157 0.617
1.09 1.155 0.618
1.076 1.161 0.618
