# .PCD v0.7 - Point Cloud Data file format
VERSION 0.7
FIELDS x y z
SIZE 4 4 4
TYPE F F F
COUNT 1 1 1
WIDTH 2498
HEIGHT 1
VIEWPOINT 0 0 0 1 0 0 0
POINTS 2498
DATA ascii
3.437 -4.606 4.368
3.45 -4.544 4.381
3.434 -4.444 4.365
3.451 -4.388 4.382
3.436 -4.292 4.366
3.457 -4.245 4.388
3.434 -4.142 4.365
3.448 -4.086 4.378
3.431 -3.995 4.362
3.445 -3.94 4.376
3.426 -3.848 4.356
3.446 -3.802 4.376
3.426 -3.712 4.356
3.443 -3.664 4.374
3.425 -3.578 4.355
3.44 -3.53 4.371
3.428 -3.453 4.358
3.448 -3.409 4.378
3.43 -3.329 4.361
3.444 -3.28 4.374
3.426 -3.202 4.356
3.45 -3.164 4.38
3.429 -3.085 4.359
3.447 -3.042 4.378
3.427 -2.965 4.357
3.441 -2.92 4.371
3.425 -2.849 4.356
3.44 -2.805 4.371
3.418 -2.731 4.348
3.442 -2.695 4.373
3.427 -2.628 4.357
3.444 -2.586 4.374
3.425 -2.518 4.355
3.437 -2.473 4.367
3.429 -2.414 4.359
3.437 -2.368 4.368
3.422 -2.305 4.352
3.442 -2.267 4.372
3.419 -2.2 4.349
3.438 -2.162 4.369
3.416 -2.097 4.346
3.434 -2.059 4.365
3.418 -1.999 4.348
3.434 -1.959 4.364
3.412 -1.898 4.342
3.434 -1.862 4.365
3.412 -1.801 4.342
3.434 -1.765 4.364
3.409 -1.705 4.339
3.42 -1.663 4.35
3.4 -1.606 4.329
3.422 -1.57 4.352
3.401 -1.514 4.33
3.411 -1.472 4.34
3.395 -1.42 4.325
3.411 -1.381 4.34
3.396 -1.33 4.325
3.416 -1.293 4.346
3.393 -1.239 4.322
3.407 -1.199 4.337
3.384 -1.147 4.313
3.403 -1.109 4.333
3.379 -1.058 4.308
3.398 -1.02 4.327
3.363 -0.966 4.292
3.385 -0.929 4.314
3.355 -0.878 4.283
3.388 -0.844 4.318
3.369 -0.796 4.298
3.395 -0.759 4.324
3.373 -0.712 4.302
3.39 -0.673 4.32
3.38 -0.628 4.309
3.392 -0.588 4.321
3.377 -0.543 4.305
3.392 -0.503 4.322
3.37 -0.458 4.298
3.391 -0.419 4.32
3.368 -0.374 4.296
3.389 -0.335 4.318
3.372 -0.291 4.3
3.387 -0.251 4.316
3.367 -0.208 4.296
3.388 -0.167 4.318
3.369 -0.125 4.298
3.391 -0.084 4.32
3.371 -0.042 4.3
3.39 -0 4.32
3.371 0.042 4.3
3.384 0.083 4.313
3.364 0.124 4.292
3.382 0.167 4.311
3.361 0.207 4.29
3.38 0.25 4.309
3.365 0.291 4.293
3.376 0.333 4.305
3.361 0.373 4.289
3.378 0.417 4.307
3.363 0.457 4.291
3.378 0.501 4.307
3.368 0.542 4.297
3.377 0.585 4.306
3.363 0.625 4.292
3.379 0.67 4.308
3.362 0.709 4.291
3.378 0.755 4.306
3.36 0.794 4.289
3.375 0.84 4.304
3.356 0.878 4.284
3.37 0.925 4.299
3.358 0.964 4.286
3.372 1.012 4.301
3.359 1.051 4.287
3.377 1.101 4.306
3.358 1.138 4.286
3.375 1.188 4.304
3.358 1.226 4.286
3.375 1.277 4.304
3.355 1.313 4.283
3.366 1.362 4.294
3.351 1.401 4.279
3.368 1.454 4.297
3.352 1.492 4.28
3.374 1.548 4.303
3.352 1.583 4.28
3.373 1.64 4.302
3.357 1.678 4.285
3.369 1.731 4.297
3.352 1.769 4.28
3.368 1.825 4.297
3.354 1.865 4.282
3.372 1.923 4.3
3.354 1.961 4.282
3.37 2.02 4.299
3.359 2.062 4.288
3.373 2.12 4.302
3.36 2.162 4.289
3.375 2.222 4.304
3.364 2.265 4.293
3.357 2.311 4.285
3.292 2.317 4.219
3.234 2.325 4.159
3.175 2.331 4.099
3.117 2.337 4.039
3.058 2.34 3.978
3.004 2.346 3.922
2.949 2.35 3.866
2.905 2.362 3.821
2.852 2.365 3.767
2.804 2.371 3.717
2.752 2.372 3.663
2.71 2.381 3.62
2.659 2.382 3.568
2.613 2.384 3.52
2.571 2.39 3.477
2.525 2.392 3.43
2.485 2.398 3.389
2.447 2.404 3.35
2.407 2.409 3.309
2.371 2.416 3.273
2.331 2.419 3.231
2.292 2.42 3.19
2.256 2.425 3.154
2.221 2.43 3.118
2.185 2.433 3.081
2.15 2.436 3.045
2.114 2.437 3.008
2.084 2.445 2.977
2.048 2.445 2.94
2.019 2.452 2.91
1.985 2.452 2.875
1.951 2.452 2.84
1.922 2.457 2.811
1.888 2.455 2.776
1.863 2.465 2.751
1.833 2.466 2.719
1.803 2.468 2.689
1.779 2.476 2.664
1.75 2.478 2.634
1.717 2.472 2.6
1.693 2.479 2.575
1.67 2.487 2.551
1.641 2.487 2.522
1.059 1.604 1.924
1.015 1.562 1.879
1.074 1.687 1.94
1.54 2.498 2.418
1.513 2.497 2.391
1.49 2.501 2.366
1.467 2.506 2.343
1.44 2.503 2.316
1.421 2.513 2.296
1.395 2.509 2.269
1.371 2.511 2.245
1.349 2.513 2.222
1.326 2.514 2.198
1.306 2.521 2.178
1.284 2.524 2.156
1.261 2.522 2.131
1.238 2.522 2.108
1.219 2.528 2.088
1.196 2.527 2.065
1.177 2.533 2.045
1.155 2.531 2.023
1.136 2.537 2.003
1.113 2.533 1.98
1.095 2.538 1.961
1.076 2.544 1.941
1.056 2.546 1.921
1.035 2.543 1.899
1.016 2.545 1.879
0.997 2.549 1.86
0.979 2.553 1.841
0.96 2.556 1.823
0.941 2.558 1.803
0.92 2.553 1.781
0.902 2.554 1.762
0.883 2.557 1.743
0.868 2.568 1.728
0.847 2.562 1.706
0.832 2.571 1.69
0.812 2.569 1.671
0.245 0.667 1.087
0.237 0.656 1.079
0.234 0.664 1.077
0.228 0.657 1.07
0.224 0.659 1.066
0.22 0.661 1.061
0.215 0.663 1.057
0.211 0.665 1.053
0.207 0.667 1.049
0.201 0.659 1.043
0.197 0.66 1.038
0.193 0.663 1.034
0.189 0.664 1.03
0.185 0.666 1.026
0.181 0.668 1.022
0.175 0.662 1.016
0.171 0.663 1.012
0.167 0.665 1.008
0.163 0.666 1.004
0.159 0.667 1
0.154 0.659 0.994
0.151 0.67 0.991
0.147 0.671 0.987
0.143 0.672 0.983
0.139 0.674 0.979
0.135 0.675 0.974
0.131 0.676 0.97
0.125 0.667 0.965
0.121 0.668 0.961
0.117 0.669 0.957
0.113 0.67 0.952
0.11 0.68 0.949
0.105 0.671 0.944
0.101 0.67 0.94
0.097 0.671 0.935
0.093 0.68 0.932
0.089 0.671 0.927
0.085 0.681 0.923
0.081 0.682 0.919
0.077 0.681 0.915
0.072 0.672 0.91
0.068 0.672 0.906
0.064 0.682 0.902
0.06 0.683 0.898
0.056 0.673 0.893
0.052 0.683 0.889
0.051 -0.401 0.889
0.054 -0.396 0.892
0.056 -0.404 0.895
0.058 -0.402 0.897
0.061 -0.397 0.899
0.063 -0.403 0.902
0.066 -0.396 0.904
0.068 -0.406 0.907
0.071 -0.408 0.91
0.073 -0.405 0.912
0.075 -0.4 0.915
0.078 -0.4 0.917
0.08 -0.401 0.92
0.083 -0.399 0.922
0.086 -0.409 0.926
0.088 -0.407 0.928
0.091 -0.405 0.931
0.093 -0.407 0.933
0.095 -0.4 0.935
0.099 -0.409 0.939
0.1 -0.398 0.94
0.103 -0.401 0.943
0.106 -0.405 0.946
0.108 -0.403 0.949
0.11 -0.401 0.951
0.113 -0.404 0.954
0.115 -0.399 0.956
0.118 -0.402 0.959
0.121 -0.406 0.962
0.124 -0.405 0.965
0.126 -0.403 0.967
0.128 -0.403 0.97
0.133 -0.411 0.975
0.136 -0.411 0.977
0.139 -0.413 0.981
0.139 -0.404 0.981
0.144 -0.411 0.986
0.146 -0.411 0.989
0.149 -0.411 0.992
0.152 -0.412 0.995
0.153 -0.404 0.996
0.158 -0.414 1.001
0.161 -0.412 1.004
0.164 -0.412 1.007
0.166 -0.411 1.009
0.171 -0.417 1.014
0.173 -0.414 1.016
0.175 -0.413 1.019
0.178 -0.411 1.022
0.184 -0.419 1.027
0.183 -0.41 1.027
0.189 -0.416 1.033
0.191 -0.414 1.035
0.194 -0.413 1.038
0.197 -0.414 1.042
0.2 -0.412 1.044
0.205 -0.418 1.05
0.207 -0.415 1.052
0.21 -0.413 1.055
0.212 -0.412 1.058
0.218 -0.417 1.063
0.223 -0.421 1.069
0.226 -0.419 1.071
0.228 -0.418 1.074
0.232 -0.417 1.078
0.237 -0.422 1.083
0.24 -0.42 1.086
0.242 -0.416 1.088
0.248 -0.421 1.094
0.251 -0.419 1.098
0.256 -0.423 1.103
0.258 -0.419 1.105
0.262 -0.419 1.109
0.259 -0.406 1.106
2.772 -5.216 3.726
2.827 -5.226 3.784
2.877 -5.225 3.835
2.929 -5.227 3.89
2.986 -5.236 3.95
3.038 -5.235 4.004
3.098 -5.245 4.066
3.155 -5.25 4.126
3.214 -5.257 4.187
3.276 -5.265 4.251
3.335 -5.27 4.314
3.378 -5.245 4.358
3.391 -5.174 4.372
3.376 -5.062 4.357
3.391 -4.997 4.372
3.379 -4.892 4.359
3.395 -4.83 4.376
3.379 -4.725 4.36
3.393 -4.663 4.374
3.377 -4.56 4.357
3.389 -4.497 4.37
3.378 -4.404 4.358
3.388 -4.341 4.369
3.378 -4.252 4.358
3.391 -4.194 4.372
3.373 -4.099 4.353
3.394 -4.052 4.375
3.377 -3.96 4.357
3.387 -3.902 4.368
3.368 -3.811 4.347
3.389 -3.767 4.37
3.364 -3.672 4.343
3.385 -3.629 4.365
3.364 -3.542 4.344
3.383 -3.497 4.363
3.362 -3.412 4.341
3.385 -3.373 4.366
3.363 -3.288 4.342
3.382 -3.246 4.362
3.368 -3.172 4.348
3.382 -3.125 4.362
3.37 -3.055 4.35
3.378 -3.004 4.359
3.369 -2.937 4.349
3.386 -2.895 4.366
3.364 -2.819 4.344
3.382 -2.778 4.362
3.359 -2.703 4.338
3.38 -2.666 4.361
3.363 -2.598 4.343
3.379 -2.556 4.359
3.366 -2.493 4.346
3.385 -2.454 4.365
3.362 -2.384 4.341
3.382 -2.347 4.363
3.361 -2.281 4.341
3.38 -2.242 4.36
3.357 -2.177 4.337
3.377 -2.139 4.357
3.355 -2.075 4.334
3.373 -2.037 4.353
3.352 -1.975 4.331
3.369 -1.937 4.349
3.352 -1.879 4.332
3.372 -1.842 4.352
3.351 -1.782 4.33
3.367 -1.744 4.347
3.344 -1.684 4.322
3.358 -1.645 4.338
3.335 -1.587 4.314
3.318 -1.533 4.295
3.314 -1.486 4.292
3.35 -1.457 4.329
3.334 -1.405 4.312
3.349 -1.366 4.328
3.334 -1.315 4.313
3.349 -1.276 4.328
3.333 -1.226 4.312
3.352 -1.189 4.331
3.328 -1.137 4.306
3.34 -1.097 4.319
3.325 -1.048 4.303
3.325 -1.005 4.303
3.298 -0.954 4.275
3.311 -0.916 4.289
3.291 -0.868 4.268
3.326 -0.834 4.304
3.314 -0.789 4.291
3.33 -0.75 4.308
3.309 -0.703 4.286
3.333 -0.666 4.311
3.318 -0.621 4.295
3.334 -0.582 4.313
3.311 -0.537 4.288
3.327 -0.497 4.305
3.311 -0.454 4.289
3.328 -0.414 4.306
3.31 -0.371 4.288
3.324 -0.331 4.302
3.307 -0.288 4.285
3.328 -0.248 4.306
3.309 -0.205 4.286
3.33 -0.165 4.308
3.311 -0.123 4.288
3.325 -0.083 4.303
3.313 -0.041 4.29
3.33 -0 4.308
3.312 0.041 4.289
3.325 0.083 4.303
3.306 0.123 4.283
3.324 0.165 4.302
3.304 0.205 4.281
3.322 0.248 4.3
3.301 0.287 4.278
3.317 0.33 4.295
3.303 0.37 4.28
3.32 0.413 4.298
3.305 0.453 4.282
3.321 0.497 4.299
3.304 0.535 4.281
3.319 0.58 4.297
3.303 0.618 4.28
3.315 0.663 4.292
3.298 0.701 4.275
3.313 0.746 4.29
3.301 0.786 4.278
3.316 0.832 4.294
3.298 0.869 4.274
3.312 0.916 4.289
3.293 0.953 4.269
3.313 1.002 4.291
3.302 1.041 4.279
3.314 1.088 4.292
3.293 1.125 4.27
3.317 1.176 4.295
3.301 1.214 4.278
3.314 1.263 4.291
3.299 1.301 4.276
3.311 1.35 4.288
3.295 1.388 4.272
3.311 1.44 4.289
3.297 1.479 4.274
3.313 1.531 4.291
3.298 1.569 4.275
3.312 1.622 4.29
3.295 1.66 4.272
3.314 1.716 4.292
3.293 1.751 4.27
3.311 1.808 4.288
3.3 1.849 4.277
3.311 1.903 4.289
3.294 1.941 4.271
3.317 2.003 4.295
3.298 2.04 4.275
3.315 2.1 4.293
3.299 2.138 4.276
3.316 2.2 4.294
3.3 2.239 4.277
3.314 2.299 4.292
3.272 2.32 4.247
3.209 2.325 4.183
3.152 2.332 4.123
3.094 2.337 4.062
3.04 2.345 4.006
2.98 2.346 3.943
2.933 2.355 3.894
2.883 2.362 3.842
2.835 2.369 3.792
2.783 2.371 3.738
2.731 2.372 3.683
2.689 2.381 3.64
2.639 2.382 3.588
2.597 2.389 3.544
2.551 2.39 3.496
2.511 2.397 3.455
2.472 2.404 3.414
2.428 2.404 3.368
2.389 2.409 3.327
2.348 2.411 3.285
2.314 2.419 3.248
2.274 2.42 3.207
2.24 2.426 3.171
2.204 2.43 3.134
2.169 2.433 3.097
2.133 2.435 3.06
2.098 2.437 3.024
2.068 2.445 2.992
2.033 2.446 2.956
2.004 2.452 2.926
1.969 2.452 2.889
1.941 2.458 2.859
1.907 2.456 2.824
1.878 2.461 2.794
1.85 2.466 2.765
1.819 2.466 2.733
1.794 2.475 2.707
1.765 2.476 2.677
1.738 2.479 2.648
1.709 2.48 2.618
1.68 2.479 2.588
1.652 2.48 2.559
1.628 2.487 2.534
1.603 2.49 2.507
1.074 1.669 1.955
1.55 2.491 2.452
1.528 2.498 2.429
1.502 2.497 2.402
1.479 2.502 2.378
1.456 2.507 2.355
1.433 2.511 2.331
1.41 2.513 2.306
1.384 2.509 2.279
1.361 2.511 2.255
1.338 2.513 2.231
1.316 2.515 2.208
1.297 2.523 2.188
1.274 2.523 2.164
1.251 2.522 2.14
1.232 2.53 2.121
1.21 2.528 2.097
1.187 2.527 2.074
1.168 2.533 2.054
1.146 2.531 2.031
1.127 2.537 2.012
1.108 2.542 1.992
1.086 2.538 1.969
1.067 2.543 1.949
1.048 2.547 1.929
1.027 2.543 1.907
1.008 2.546 1.887
0.99 2.55 1.868
0.971 2.553 1.849
0.953 2.556 1.83
0.934 2.559 1.81
0.916 2.561 1.791
0.898 2.564 1.772
0.876 2.557 1.75
0.858 2.559 1.731
0.843 2.569 1.715
0.825 2.571 1.696
0.806 2.568 1.676
0.241 0.661 1.087
0.272 0.79 1.12
0.232 0.663 1.078
0.226 0.657 1.072
0.222 0.659 1.067
0.218 0.661 1.063
0.214 0.664 1.059
0.21 0.665 1.055
0.203 0.657 1.048
0.202 0.669 1.046
0.195 0.66 1.04
0.191 0.663 1.036
0.188 0.665 1.032
0.183 0.666 1.027
0.179 0.668 1.023
0.174 0.661 1.017
0.171 0.672 1.015
0.166 0.666 1.009
0.163 0.675 1.006
0.158 0.667 1.001
0.154 0.669 0.996
0.15 0.67 0.992
0.146 0.671 0.988
0.142 0.672 0.984
0.136 0.664 0.978
0.134 0.675 0.975
0.128 0.666 0.97
0.124 0.668 0.966
0.121 0.678 0.963
0.117 0.679 0.958
0.113 0.68 0.954
0.108 0.67 0.949
0.104 0.67 0.945
0.101 0.679 0.941
0.097 0.681 0.937
0.092 0.68 0.932
0.088 0.682 0.928
0.084 0.681 0.924
0.08 0.682 0.92
0.076 0.671 0.915
0.071 0.671 0.911
0.068 0.682 0.907
0.064 0.683 0.902
0.059 0.682 0.898
0.055 0.673 0.894
0.051 0.683 0.889
0.051 -0.401 0.89
0.053 -0.387 0.892
0.056 -0.403 0.895
0.058 -0.401 0.897
0.061 -0.405 0.9
0.063 -0.404 0.902
0.065 -0.405 0.905
0.068 -0.405 0.908
0.07 -0.405 0.91
0.073 -0.404 0.913
0.075 -0.4 0.915
0.077 -0.398 0.917
0.08 -0.401 0.92
0.082 -0.397 0.922
0.085 -0.4 0.925
0.088 -0.407 0.929
0.09 -0.407 0.931
0.093 -0.407 0.934
0.095 -0.408 0.936
0.098 -0.407 0.939
0.1 -0.405 0.941
0.102 -0.399 0.943
0.105 -0.404 0.947
0.107 -0.404 0.949
0.111 -0.409 0.953
0.113 -0.404 0.955
0.114 -0.399 0.956
0.117 -0.401 0.959
0.121 -0.406 0.963
0.123 -0.406 0.966
0.125 -0.404 0.968
0.128 -0.404 0.971
0.132 -0.41 0.975
0.133 -0.402 0.976
0.138 -0.411 0.981
0.14 -0.412 0.984
0.141 -0.403 0.985
0.144 -0.402 0.987
0.146 -0.402 0.99
0.151 -0.411 0.995
0.154 -0.413 0.998
0.157 -0.412 1.001
0.159 -0.41 1.004
0.163 -0.412 1.007
0.165 -0.411 1.01
0.167 -0.408 1.012
0.172 -0.415 1.017
0.174 -0.411 1.019
0.177 -0.41 1.022
0.18 -0.41 1.025
0.185 -0.419 1.031
0.188 -0.417 1.034
0.19 -0.415 1.036
0.193 -0.413 1.039
0.196 -0.413 1.042
0.199 -0.412 1.045
0.204 -0.418 1.051
0.206 -0.416 1.053
0.212 -0.422 1.059
0.214 -0.418 1.061
0.216 -0.416 1.064
0.222 -0.421 1.069
0.224 -0.419 1.072
0.227 -0.417 1.075
0.231 -0.417 1.079
0.236 -0.421 1.084
0.238 -0.418 1.087
0.24 -0.415 1.089
0.247 -0.421 1.095
0.249 -0.419 1.098
0.253 -0.419 1.102
0.256 -0.418 1.105
0.259 -0.415 1.108
0.262 -0.413 1.111
2.76 -5.215 3.736
2.811 -5.217 3.789
2.865 -5.225 3.846
2.917 -5.227 3.901
2.974 -5.236 3.961
3.03 -5.242 4.02
3.085 -5.245 4.078
3.141 -5.248 4.136
3.197 -5.249 4.195
3.258 -5.258 4.259
3.324 -5.273 4.329
3.331 -5.192 4.336
3.345 -5.124 4.351
3.326 -5.007 4.331
2.628 -3.871 3.597
3.335 -4.847 4.34
3.351 -4.786 4.357
3.33 -4.674 4.335
3.345 -4.615 4.351
3.33 -4.514 4.335
3.344 -4.454 4.349
3.328 -4.356 4.333
3.346 -4.303 4.351
3.325 -4.201 4.329
3.346 -4.155 4.352
3.32 -4.049 4.324
3.339 -4.001 4.344
3.318 -3.906 4.322
3.337 -3.86 4.342
3.317 -3.768 4.321
3.332 -3.719 4.337
3.316 -3.634 4.32
3.33 -3.584 4.334
3.312 -3.501 4.316
3.333 -3.459 4.338
3.316 -3.379 4.32
3.332 -3.332 4.336
3.316 -3.255 4.32
3.332 -3.21 4.337
3.316 -3.134 4.32
3.335 -3.093 4.34
3.32 -3.021 4.324
3.337 -2.978 4.342
3.32 -2.906 4.325
3.34 -2.866 4.345
3.312 -2.786 4.316
3.328 -2.744 4.332
3.318 -2.681 4.322
3.334 -2.639 4.339
3.311 -2.568 4.315
3.332 -2.53 4.337
3.317 -2.466 4.321
3.332 -2.425 4.337
3.314 -2.36 4.318
3.333 -2.322 4.338
3.313 -2.257 4.317
3.331 -2.218 4.335
3.31 -2.154 4.314
3.323 -2.113 4.327
3.308 -2.054 4.311
3.32 -2.013 4.324
3.304 -1.954 4.307
3.321 -1.916 4.326
3.305 -1.859 4.309
3.319 -1.82 4.324
3.297 -1.76 4.3
3.314 -1.722 4.317
3.295 -1.666 4.298
3.31 -1.628 4.314
3.262 -1.558 4.263
3.243 -1.505 4.244
3.26 -1.467 4.261
3.307 -1.444 4.311
3.285 -1.39 4.288
3.306 -1.354 4.31
3.285 -1.301 4.287
3.305 -1.265 4.309
3.286 -1.213 4.288
3.301 -1.175 4.304
3.283 -1.125 4.285
3.297 -1.087 4.3
3.272 -1.036 4.274
3.274 -0.994 4.276
3.257 -0.946 4.258
3.264 -0.906 4.266
3.258 -0.862 4.259
3.273 -0.824 4.274
3.267 -0.781 4.269
3.285 -0.743 4.288
3.271 -0.698 4.273
3.288 -0.66 4.29
3.272 -0.615 4.274
3.282 -0.575 4.284
3.266 -0.531 4.268
3.282 -0.493 4.284
3.265 -0.449 4.267
3.282 -0.41 4.284
3.264 -0.367 4.265
3.279 -0.327 4.281
3.261 -0.285 4.262
3.283 -0.246 4.285
3.264 -0.203 4.265
3.284 -0.164 4.286
3.265 -0.122 4.267
3.278 -0.082 4.28
3.265 -0.041 4.266
3.277 -0 4.28
3.26 0.041 4.261
3.28 0.082 4.282
3.261 0.122 4.262
3.272 0.163 4.274
3.258 0.203 4.259
3.277 0.245 4.279
3.256 0.284 4.257
3.272 0.327 4.274
3.257 0.366 4.258
3.275 0.409 4.277
3.259 0.448 4.26
3.276 0.492 4.278
3.261 0.53 4.262
3.275 0.574 4.277
3.262 0.613 4.263
3.275 0.657 4.277
3.258 0.695 4.259
3.267 0.739 4.269
3.256 0.778 4.257
3.271 0.823 4.272
3.253 0.861 4.254
3.273 0.908 4.275
3.255 0.945 4.255
3.268 0.992 4.269
3.256 1.03 4.256
3.27 1.078 4.272
3.25 1.114 4.251
3.269 1.164 4.271
3.254 1.202 4.255
3.268 1.25 4.27
3.253 1.288 4.254
3.266 1.337 4.267
3.25 1.374 4.25
3.268 1.427 4.27
3.25 1.463 4.25
3.263 1.514 4.264
3.25 1.553 4.251
3.269 1.607 4.27
3.248 1.642 4.249
3.264 1.696 4.266
3.249 1.735 4.25
3.266 1.79 4.267
3.254 1.83 4.255
3.272 1.888 4.274
3.252 1.923 4.253
3.265 1.979 4.267
3.25 2.018 4.251
3.267 2.077 4.269
3.249 2.114 4.249
3.268 2.176 4.27
3.254 2.216 4.255
3.274 2.28 4.276
3.253 2.316 4.254
3.201 2.328 4.199
3.138 2.331 4.133
3.081 2.337 4.073
3.027 2.344 4.016
2.974 2.35 3.961
2.92 2.355 3.904
2.871 2.362 3.853
2.824 2.369 3.803
2.772 2.371 3.748
2.725 2.377 3.699
2.678 2.381 3.65
2.629 2.382 3.598
2.587 2.389 3.554
2.541 2.39 3.506
2.501 2.397 3.463
2.461 2.403 3.422
2.418 2.404 3.377
2.379 2.408 3.335
2.339 2.411 3.293
2.304 2.419 3.257
2.27 2.425 3.221
2.23 2.425 3.179
2.195 2.429 3.142
2.16 2.433 3.106
2.124 2.435 3.068
2.089 2.437 3.031
2.059 2.444 2.999
2.025 2.445 2.963
1.995 2.452 2.933
1.961 2.452 2.897
1.932 2.457 2.866
1.899 2.456 2.831
1.871 2.461 2.802
1.842 2.466 2.772
1.811 2.465 2.739
1.782 2.468 2.709
1.758 2.476 2.683
1.73 2.479 2.654
1.702 2.48 2.624
1.673 2.479 2.594
1.645 2.48 2.565
1.621 2.486 2.54
1.599 2.493 2.516
1.571 2.493 2.487
1.544 2.491 2.458
1.522 2.498 2.435
1.495 2.497 2.407
1.472 2.501 2.383
1.45 2.506 2.36
1.428 2.511 2.336
1.404 2.513 2.312
1.382 2.516 2.288
1.355 2.511 2.26
1.337 2.52 2.24
1.314 2.521 2.216
1.291 2.522 2.193
1.269 2.523 2.169
1.25 2.531 2.15
1.227 2.529 2.125
1.205 2.528 2.102
1.182 2.527 2.078
1.163 2.533 2.058
1.141 2.531 2.035
1.122 2.536 2.015
1.103 2.541 1.995
1.082 2.538 1.973
1.063 2.542 1.953
1.044 2.547 1.933
1.026 2.55 1.914
1.004 2.545 1.891
0.986 2.55 1.872
0.967 2.553 1.852
0.949 2.556 1.833
0.93 2.558 1.813
0.912 2.561 1.794
0.891 2.554 1.772
0.875 2.565 1.756
0.855 2.559 1.734
0.837 2.561 1.715
0.819 2.561 1.696
0.805 2.576 1.682
0.241 0.666 1.09
0.268 0.779 1.118
0.231 0.663 1.079
0.225 0.656 1.072
0.221 0.658 1.068
0.219 0.67 1.066
0.212 0.662 1.059
0.208 0.664 1.055
0.204 0.666 1.051
0.201 0.669 1.047
0.194 0.66 1.04
0.19 0.662 1.036
0.186 0.664 1.032
0.183 0.666 1.028
0.177 0.659 1.022
0.173 0.661 1.018
0.169 0.662 1.014
0.165 0.665 1.01
0.161 0.666 1.005
0.157 0.667 1.001
0.153 0.668 0.997
0.149 0.67 0.993
0.145 0.671 0.989
0.141 0.671 0.984
0.137 0.673 0.98
0.133 0.674 0.976
0.129 0.675 0.971
0.124 0.667 0.966
0.121 0.676 0.963
0.116 0.668 0.958
0.112 0.669 0.953
0.108 0.67 0.949
0.103 0.67 0.945
0.099 0.669 0.941
0.095 0.67 0.936
0.092 0.68 0.933
0.088 0.681 0.928
0.084 0.681 0.924
0.08 0.681 0.92
0.075 0.681 0.916
0.071 0.681 0.911
0.067 0.682 0.907
0.063 0.682 0.903
0.059 0.682 0.898
0.055 0.682 0.894
0.051 0.683 0.89
0.05 -0.401 0.89
0.053 -0.406 0.893
0.055 -0.404 0.895
0.057 -0.401 0.898
0.06 -0.404 0.9
0.062 -0.396 0.903
0.064 -0.395 0.905
0.067 -0.404 0.908
0.07 -0.404 0.911
0.072 -0.403 0.913
0.074 -0.4 0.916
0.077 -0.4 0.918
0.08 -0.409 0.921
0.081 -0.399 0.923
0.085 -0.409 0.927
0.086 -0.4 0.928
0.089 -0.408 0.932
0.092 -0.405 0.934
0.094 -0.4 0.936
0.097 -0.407 0.94
0.099 -0.405 0.942
0.101 -0.4 0.944
0.104 -0.405 0.948
0.106 -0.404 0.95
0.109 -0.401 0.952
0.11 -0.395 0.954
0.113 -0.4 0.957
0.116 -0.404 0.961
0.119 -0.406 0.964
0.122 -0.406 0.967
0.124 -0.404 0.969
0.127 -0.403 0.972
0.129 -0.402 0.974
0.132 -0.402 0.977
0.135 -0.404 0.98
0.139 -0.412 0.985
0.142 -0.411 0.987
0.144 -0.409 0.99
0.147 -0.409 0.993
0.148 -0.403 0.994
0.153 -0.412 0.999
0.155 -0.411 1.002
0.158 -0.411 1.005
0.161 -0.411 1.008
0.163 -0.41 1.011
0.166 -0.409 1.014
0.17 -0.413 1.018
0.175 -0.419 1.023
0.178 -0.418 1.026
0.178 -0.409 1.026
0.183 -0.418 1.032
0.186 -0.415 1.034
0.189 -0.415 1.038
0.192 -0.414 1.041
0.194 -0.413 1.043
0.2 -0.42 1.049
0.202 -0.417 1.052
0.204 -0.415 1.054
0.21 -0.421 1.06
0.212 -0.418 1.062
0.214 -0.416 1.065
0.217 -0.414 1.068
0.222 -0.418 1.073
0.225 -0.417 1.076
0.229 -0.417 1.08
0.234 -0.421 1.086
0.236 -0.418 1.088
0.242 -0.423 1.094
0.244 -0.42 1.097
0.247 -0.418 1.099
0.253 -0.423 1.106
0.254 -0.418 1.107
0.258 -0.418 1.112
0.259 -0.412 1.112
2.737 -5.212 3.754
2.792 -5.223 3.813
2.842 -5.223 3.866
2.895 -5.227 3.922
2.95 -5.235 3.982
3.002 -5.235 4.037
3.058 -5.24 4.097
3.117 -5.249 4.16
3.172 -5.25 4.218
3.238 -5.266 4.288
3.285 -5.251 4.338
3.273 -5.14 4.325
3.287 -5.074 4.341
3.274 -4.966 4.327
2.703 -4.015 3.718
3.273 -4.794 4.326
3.292 -4.738 4.346
3.272 -4.628 4.325
3.291 -4.575 4.345
3.267 -4.463 4.32
3.282 -4.406 4.336
3.266 -4.307 4.318
3.286 -4.258 4.339
3.265 -4.157 4.317
3.28 -4.104 4.333
3.261 -4.008 4.313
3.273 -3.953 4.326
3.257 -3.864 4.308
3.278 -3.821 4.331
3.262 -3.734 4.314
3.272 -3.68 4.325
3.252 -3.591 4.303
3.271 -3.547 4.323
3.255 -3.467 4.307
3.27 -3.42 4.323
3.255 -3.341 4.307
3.275 -3.3 4.328
3.258 -3.223 4.31
3.277 -3.182 4.331
3.258 -3.104 4.31
3.276 -3.062 4.329
3.256 -2.985 4.308
3.273 -2.944 4.326
3.257 -2.873 4.309
3.27 -2.828 4.322
3.254 -2.758 4.306
3.275 -2.721 4.328
3.251 -2.647 4.302
3.27 -2.609 4.323
3.26 -2.547 4.311
3.27 -2.502 4.322
3.264 -2.445 4.316
3.277 -2.403 4.33
3.254 -2.335 4.305
3.274 -2.298 4.326
3.253 -2.233 4.305
3.267 -2.193 4.319
3.246 -2.129 4.297
3.265 -2.092 4.317
3.244 -2.03 4.295
3.261 -1.992 4.313
3.245 -1.934 4.296
3.256 -1.893 4.308
3.244 -1.839 4.295
3.258 -1.8 4.31
3.243 -1.745 4.294
3.254 -1.704 4.305
3.234 -1.648 4.284
3.25 -1.61 4.301
3.223 -1.552 4.273
3.216 -1.503 4.265
3.23 -1.466 4.28
3.246 -1.428 4.297
3.23 -1.377 4.28
3.244 -1.339 4.295
3.228 -1.288 4.278
3.242 -1.25 4.293
3.223 -1.199 4.272
3.243 -1.164 4.294
3.221 -1.113 4.27
3.234 -1.074 4.284
3.216 -1.026 4.265
3.219 -0.985 4.269
3.207 -0.939 4.256
3.217 -0.9 4.266
3.204 -0.855 4.253
3.226 -0.818 4.275
3.211 -0.773 4.26
3.229 -0.736 4.279
3.213 -0.691 4.262
3.23 -0.653 4.28
3.21 -0.608 4.259
3.231 -0.571 4.281
3.209 -0.526 4.258
3.225 -0.488 4.275
3.209 -0.445 4.258
3.224 -0.406 4.274
3.208 -0.363 4.256
3.228 -0.325 4.278
3.212 -0.283 4.261
3.226 -0.243 4.275
3.207 -0.201 4.256
3.227 -0.162 4.277
3.208 -0.121 4.257
3.221 -0.081 4.271
3.21 -0.04 4.259
3.217 -0 4.266
3.21 0.04 4.259
3.223 0.081 4.273
3.204 0.121 4.252
3.221 0.162 4.271
3.202 0.201 4.25
3.218 0.243 4.267
3.2 0.282 4.248
3.216 0.324 4.264
3.207 0.363 4.256
3.217 0.405 4.266
3.203 0.444 4.251
3.217 0.487 4.267
3.204 0.525 4.252
3.218 0.569 4.267
3.195 0.605 4.242
3.218 0.651 4.267
3.203 0.689 4.251
3.216 0.733 4.265
3.199 0.77 4.246
3.213 0.815 4.262
3.2 0.853 4.248
3.215 0.899 4.264
3.202 0.937 4.25
3.211 0.982 4.259
3.195 1.019 4.243
3.212 1.067 4.261
3.196 1.104 4.244
3.217 1.154 4.266
3.197 1.19 4.245
3.214 1.239 4.262
3.195 1.275 4.242
3.211 1.325 4.26
3.194 1.361 4.241
3.213 1.414 4.262
3.191 1.447 4.238
3.212 1.502 4.26
3.19 1.535 4.237
3.21 1.59 4.258
3.195 1.628 4.242
3.203 1.677 4.251
3.193 1.718 4.241
3.203 1.769 4.251
3.188 1.807 4.236
3.21 1.866 4.258
3.197 1.905 4.244
3.214 1.963 4.263
3.197 2 4.244
3.213 2.058 4.261
3.195 2.095 4.243
3.216 2.157 4.264
3.193 2.191 4.24
3.211 2.254 4.26
3.197 2.293 4.245
3.173 2.326 4.219
3.114 2.331 4.156
3.063 2.342 4.102
3.003 2.344 4.038
2.952 2.351 3.983
2.897 2.354 3.925
2.849 2.362 3.874
2.802 2.369 3.824
2.75 2.371 3.768
2.704 2.377 3.719
2.658 2.381 3.67
2.613 2.387 3.622
2.567 2.389 3.573
2.521 2.39 3.524
2.486 2.402 3.487
2.437 2.398 3.434
2.399 2.404 3.395
2.36 2.408 3.352
2.325 2.416 3.315
2.286 2.419 3.274
2.252 2.425 3.237
2.212 2.425 3.195
2.178 2.429 3.158
2.143 2.433 3.121
2.108 2.436 3.084
2.078 2.444 3.052
2.043 2.445 3.015
2.008 2.445 2.978
1.98 2.452 2.947
1.946 2.452 2.911
1.918 2.458 2.881
1.889 2.463 2.85
1.856 2.461 2.815
1.828 2.466 2.785
1.797 2.465 2.752
1.769 2.469 2.722
1.744 2.476 2.696
1.717 2.479 2.666
1.688 2.479 2.636
1.66 2.479 2.606
1.637 2.487 2.581
1.609 2.487 2.552
1.581 2.486 2.522
1.559 2.493 2.498
1.532 2.492 2.47
1.51 2.498 2.446
1.483 2.497 2.418
1.461 2.501 2.394
1.439 2.507 2.371
1.416 2.511 2.347
1.394 2.515 2.323
1.371 2.516 2.298
1.345 2.511 2.27
1.326 2.52 2.25
1.303 2.521 2.226
1.281 2.521 2.202
1.259 2.523 2.179
1.236 2.522 2.154
1.217 2.529 2.134
1.195 2.528 2.11
1.177 2.535 2.091
1.154 2.533 2.067
1.132 2.531 2.044
1.114 2.537 2.024
1.095 2.542 2.004
1.076 2.545 1.984
1.055 2.543 1.961
1.036 2.547 1.941
1.014 2.543 1.918
0.996 2.545 1.898
0.977 2.549 1.879
0.959 2.553 1.859
0.941 2.556 1.84
0.92 2.55 1.817
0.905 2.561 1.801
0.887 2.563 1.782
0.868 2.565 1.762
0.851 2.568 1.744
0.832 2.568 1.724
0.815 2.571 1.705
0.798 2.576 1.687
0.237 0.661 1.09
0.262 0.765 1.115
0.226 0.653 1.078
0.223 0.656 1.074
0.219 0.658 1.07
0.215 0.661 1.065
0.21 0.662 1.061
0.207 0.664 1.057
0.203 0.667 1.053
0.197 0.659 1.046
0.193 0.66 1.042
0.189 0.662 1.038
0.185 0.664 1.033
0.181 0.665 1.029
0.175 0.659 1.023
0.173 0.669 1.021
0.169 0.671 1.017
0.163 0.664 1.011
0.159 0.665 1.006
0.155 0.666 1.002
0.151 0.668 0.998
0.147 0.669 0.994
0.144 0.671 0.99
0.14 0.672 0.985
0.134 0.663 0.98
0.131 0.674 0.977
0.127 0.675 0.972
0.122 0.667 0.967
0.118 0.668 0.963
0.114 0.667 0.958
0.11 0.668 0.954
0.106 0.67 0.95
0.102 0.67 0.946
0.098 0.669 0.941
0.094 0.67 0.937
0.091 0.68 0.933
0.086 0.671 0.929
0.082 0.671 0.924
0.079 0.682 0.92
0.075 0.681 0.916
0.071 0.681 0.912
0.066 0.671 0.907
0.062 0.681 0.903
0.058 0.683 0.899
0.054 0.682 0.894
0.05 0.673 0.89
0.05 -0.394 0.89
0.052 -0.396 0.893
0.055 -0.413 0.896
0.057 -0.401 0.898
0.059 -0.405 0.901
0.062 -0.405 0.903
0.064 -0.404 0.906
0.067 -0.404 0.908
0.069 -0.396 0.91
0.071 -0.404 0.913
0.074 -0.4 0.916
0.077 -0.409 0.919
0.078 -0.398 0.921
0.082 -0.408 0.924
0.084 -0.407 0.927
0.086 -0.408 0.93
0.088 -0.399 0.931
0.091 -0.406 0.935
0.094 -0.408 0.938
0.095 -0.398 0.939
0.097 -0.396 0.941
0.101 -0.401 0.945
0.104 -0.405 0.948
0.106 -0.403 0.95
0.108 -0.4 0.952
0.111 -0.404 0.956
0.113 -0.399 0.958
0.116 -0.403 0.961
0.119 -0.405 0.964
0.121 -0.405 0.967
0.124 -0.404 0.969
0.126 -0.405 0.972
0.13 -0.41 0.976
0.133 -0.411 0.979
0.134 -0.405 0.981
0.138 -0.41 0.985
0.141 -0.411 0.988
0.143 -0.411 0.991
0.146 -0.411 0.994
0.149 -0.41 0.997
0.152 -0.412 1
0.155 -0.411 1.003
0.157 -0.411 1.006
0.16 -0.412 1.009
0.165 -0.417 1.014
0.165 -0.407 1.014
0.17 -0.415 1.019
0.172 -0.412 1.021
0.174 -0.41 1.024
0.179 -0.417 1.029
0.18 -0.41 1.03
0.185 -0.416 1.035
0.188 -0.417 1.039
0.191 -0.414 1.041
0.196 -0.421 1.047
0.196 -0.411 1.047
0.204 -0.426 1.056
0.203 -0.415 1.055
0.208 -0.42 1.061
0.211 -0.418 1.063
0.213 -0.416 1.066
0.216 -0.414 1.069
0.221 -0.418 1.074
0.224 -0.416 1.077
0.227 -0.416 1.081
0.233 -0.421 1.086
0.235 -0.418 1.089
0.237 -0.415 1.091
0.243 -0.421 1.098
0.246 -0.419 1.101
0.25 -0.42 1.106
0.257 -0.426 1.113
0.255 -0.414 1.11
0.258 -0.413 1.114
0.266 -0.42 1.122
2.776 -5.213 3.818
2.83 -5.223 3.877
2.883 -5.227 3.933
2.938 -5.235 3.993
2.99 -5.235 4.049
3.045 -5.239 4.108
3.105 -5.249 4.172
3.159 -5.25 4.23
3.222 -5.261 4.297
3.248 -5.212 4.325
3.226 -5.086 4.302
3.249 -5.035 4.326
3.226 -4.912 4.302
2.653 -3.956 3.686
3.23 -4.75 4.306
3.238 -4.678 4.314
3.224 -4.578 4.3
3.237 -4.517 4.314
3.221 -4.416 4.296
3.237 -4.362 4.314
3.22 -4.264 4.296
3.234 -4.208 4.311
3.219 -4.115 4.294
3.234 -4.062 4.31
3.214 -3.966 4.289
3.223 -3.908 4.299
3.212 -3.825 4.287
3.23 -3.779 4.306
3.213 -3.692 4.288
3.226 -3.642 4.302
3.212 -3.561 4.287
3.227 -3.513 4.303
3.21 -3.432 4.284
3.223 -3.384 4.299
3.206 -3.304 4.281
3.226 -3.264 4.302
3.213 -3.191 4.288
3.231 -3.149 4.308
3.212 -3.072 4.287
3.23 -3.031 4.306
3.215 -2.959 4.29
3.231 -2.917 4.307
3.213 -2.844 4.288
3.224 -2.799 4.299
3.205 -2.728 4.279
3.221 -2.687 4.297
3.21 -2.624 4.284
3.226 -2.584 4.302
3.213 -2.521 4.288
3.229 -2.481 4.305
3.21 -2.414 4.285
3.232 -2.38 4.309
3.207 -2.31 4.282
3.221 -2.27 4.297
3.208 -2.211 4.283
3.221 -2.17 4.296
3.206 -2.111 4.28
3.218 -2.07 4.294
3.197 -2.008 4.271
3.214 -1.971 4.289
3.198 -1.914 4.272
3.215 -1.877 4.29
3.199 -1.82 4.273
3.218 -1.785 4.294
3.196 -1.726 4.269
3.21 -1.688 4.285
3.191 -1.633 4.265
3.203 -1.593 4.277
3.19 -1.542 4.264
3.199 -1.502 4.273
3.189 -1.453 4.262
3.203 -1.415 4.277
3.186 -1.364 4.259
3.2 -1.326 4.274
3.19 -1.278 4.264
3.198 -1.238 4.272
3.185 -1.19 4.258
3.193 -1.15 4.266
3.182 -1.103 4.254
3.19 -1.064 4.263
3.171 -1.016 4.243
3.185 -0.978 4.258
3.167 -0.931 4.238
3.179 -0.893 4.252
3.165 -0.847 4.236
3.182 -0.81 4.254
3.168 -0.766 4.24
3.185 -0.729 4.258
3.17 -0.684 4.242
3.186 -0.647 4.259
3.167 -0.602 4.238
3.181 -0.564 4.254
3.165 -0.521 4.237
3.18 -0.483 4.252
3.171 -0.441 4.243
3.18 -0.402 4.252
3.163 -0.36 4.234
3.184 -0.322 4.257
3.167 -0.28 4.238
3.181 -0.241 4.253
3.162 -0.199 4.233
3.182 -0.161 4.255
3.165 -0.12 4.236
3.184 -0.08 4.257
3.165 -0.04 4.236
3.176 -0 4.248
3.159 0.04 4.23
3.172 0.08 4.244
3.159 0.119 4.23
3.178 0.16 4.25
3.163 0.199 4.234
3.175 0.24 4.247
3.165 0.28 4.236
3.177 0.321 4.25
3.159 0.359 4.23
3.179 0.402 4.252
3.161 0.44 4.232
3.172 0.482 4.244
3.161 0.52 4.232
3.178 0.564 4.25
3.161 0.601 4.232
3.177 0.645 4.25
3.155 0.681 4.225
3.175 0.726 4.247
3.154 0.762 4.225
3.172 0.808 4.243
3.155 0.844 4.225
3.171 0.891 4.243
3.155 0.927 4.225
3.17 0.973 4.242
3.155 1.01 4.226
3.167 1.056 4.239
3.157 1.095 4.227
3.166 1.14 4.237
3.156 1.179 4.226
3.164 1.225 4.236
3.153 1.263 4.223
3.166 1.311 4.238
3.151 1.348 4.221
3.167 1.398 4.238
3.151 1.435 4.221
3.168 1.487 4.24
3.146 1.521 4.216
3.168 1.576 4.24
3.146 1.609 4.216
3.16 1.662 4.231
3.145 1.699 4.215
3.165 1.755 4.236
3.149 1.791 4.219
3.165 1.847 4.237
3.15 1.884 4.22
3.167 1.942 4.239
3.15 1.979 4.221
3.167 2.037 4.239
3.149 2.073 4.219
3.164 2.131 4.235
3.151 2.171 4.222
3.167 2.231 4.238
3.154 2.271 4.224
3.162 2.327 4.233
3.108 2.336 4.175
3.044 2.337 4.107
2.998 2.349 4.057
2.939 2.35 3.994
2.885 2.354 3.936
2.837 2.362 3.885
2.79 2.369 3.833
2.744 2.376 3.784
2.692 2.376 3.728
2.646 2.381 3.679
2.603 2.387 3.632
2.556 2.389 3.583
2.515 2.395 3.538
2.476 2.402 3.496
2.432 2.403 3.449
2.394 2.408 3.408
2.355 2.413 3.367
2.316 2.416 3.324
2.277 2.419 3.282
2.243 2.425 3.246
2.203 2.425 3.203
2.169 2.429 3.166
2.134 2.433 3.129
2.099 2.435 3.092
2.07 2.444 3.06
2.034 2.444 3.022
2.005 2.451 2.991
1.972 2.452 2.954
1.943 2.458 2.924
1.909 2.457 2.888
1.876 2.456 2.852
1.848 2.461 2.822
1.82 2.466 2.792
1.79 2.466 2.759
1.765 2.474 2.733
1.737 2.476 2.703
1.709 2.479 2.673
1.681 2.479 2.642
1.653 2.479 2.612
1.63 2.487 2.587
1.603 2.487 2.558
1.58 2.493 2.533
1.552 2.493 2.504
1.525 2.491 2.475
1.504 2.498 2.452
1.481 2.503 2.427
1.455 2.501 2.399
1.433 2.506 2.376
1.411 2.511 2.352
1.388 2.513 2.327
1.366 2.517 2.304
1.339 2.511 2.275
1.32 2.52 2.255
1.298 2.521 2.231
1.275 2.521 2.207
1.254 2.523 2.183
1.231 2.522 2.159
1.213 2.53 2.139
1.19 2.528 2.115
1.168 2.527 2.091
1.149 2.533 2.071
1.131 2.54 2.052
1.109 2.537 2.028
1.09 2.542 2.008
1.069 2.538 1.985
1.05 2.543 1.965
1.032 2.547 1.945
1.013 2.551 1.925
0.992 2.546 1.902
0.974 2.55 1.883
0.955 2.553 1.863
0.937 2.555 1.843
0.919 2.558 1.824
0.901 2.561 1.804
0.883 2.563 1.785
0.865 2.565 1.766
0.847 2.567 1.746
0.829 2.569 1.727
0.811 2.571 1.708
0.795 2.575 1.69
0.237 0.662 1.091
0.253 0.739 1.109
0.228 0.663 1.081
0.224 0.666 1.077
0.218 0.658 1.07
0.214 0.661 1.066
0.21 0.663 1.062
0.206 0.665 1.058
0.202 0.666 1.053
0.196 0.659 1.047
0.192 0.66 1.043
0.189 0.67 1.04
0.184 0.664 1.034
0.18 0.665 1.03
0.174 0.659 1.024
0.172 0.669 1.022
0.167 0.662 1.016
0.163 0.664 1.011
0.159 0.665 1.007
0.155 0.667 1.003
0.151 0.668 0.999
0.147 0.67 0.994
0.143 0.67 0.99
0.139 0.672 0.986
0.134 0.663 0.98
0.13 0.664 0.976
0.126 0.666 0.972
0.122 0.666 0.967
0.118 0.668 0.963
0.114 0.668 0.959
0.111 0.677 0.955
0.106 0.67 0.95
0.102 0.67 0.946
0.099 0.68 0.943
0.094 0.679 0.938
0.09 0.67 0.933
0.086 0.681 0.929
0.082 0.681 0.925
0.078 0.68 0.921
0.074 0.681 0.916
0.07 0.681 0.912
0.066 0.682 0.908
0.062 0.682 0.903
0.058 0.672 0.899
0.054 0.682 0.895
0.05 0.683 0.89
0.049 -0.393 0.891
0.052 -0.397 0.893
0.054 -0.404 0.896
0.056 -0.4 0.898
0.059 -0.405 0.901
0.061 -0.396 0.903
0.064 -0.404 0.906
0.066 -0.405 0.909
0.068 -0.406 0.912
0.071 -0.404 0.914
0.073 -0.4 0.916
0.075 -0.4 0.919
0.077 -0.398 0.921
0.081 -0.407 0.925
0.083 -0.405 0.927
0.085 -0.4 0.929
0.088 -0.407 0.933
0.09 -0.401 0.935
0.093 -0.409 0.938
0.094 -0.4 0.94
0.097 -0.405 0.943
0.1 -0.402 0.946
0.103 -0.406 0.949
0.104 -0.401 0.951
0.107 -0.4 0.953
0.11 -0.404 0.957
0.112 -0.399 0.959
0.115 -0.403 0.962
0.118 -0.407 0.965
0.12 -0.405 0.968
0.122 -0.404 0.97
0.125 -0.403 0.973
0.127 -0.402 0.975
0.131 -0.409 0.98
0.133 -0.405 0.982
0.137 -0.413 0.987
0.139 -0.411 0.989
0.142 -0.41 0.992
0.145 -0.411 0.995
0.148 -0.411 0.998
0.15 -0.411 1.001
0.153 -0.411 1.004
0.154 -0.404 1.005
0.158 -0.409 1.009
0.163 -0.416 1.015
0.164 -0.408 1.015
0.168 -0.414 1.02
0.17 -0.412 1.023
0.173 -0.411 1.025
0.178 -0.418 1.031
0.179 -0.411 1.032
0.183 -0.415 1.037
0.186 -0.416 1.04
0.188 -0.413 1.042
0.191 -0.413 1.045
0.197 -0.419 1.051
0.2 -0.419 1.055
0.201 -0.415 1.057
0.204 -0.413 1.059
0.209 -0.418 1.065
0.211 -0.415 1.067
0.214 -0.414 1.07
0.219 -0.417 1.075
0.222 -0.417 1.079
0.225 -0.416 1.082
0.23 -0.421 1.088
0.233 -0.418 1.09
0.235 -0.415 1.093
0.241 -0.42 1.1
0.243 -0.418 1.102
0.249 -0.422 1.108
0.252 -0.42 1.111
0.254 -0.417 1.114
0.259 -0.42 1.12
0.253 -0.4 1.113
2.757 -5.22 3.842
2.807 -5.221 3.897
2.859 -5.225 3.953
2.915 -5.235 4.014
2.97 -5.242 4.075
3.021 -5.239 4.13
3.076 -5.242 4.19
3.135 -5.251 4.254
3.171 -5.219 4.293
3.185 -5.152 4.309
3.169 -5.036 4.291
3.184 -4.972 4.307
3.169 -4.863 4.291
2.64 -3.969 3.715
3.167 -4.693 4.289
3.184 -4.636 4.307
3.165 -4.529 4.287
3.182 -4.476 4.306
3.163 -4.37 4.284
3.179 -4.317 4.302
3.166 -4.225 4.288
3.184 -4.175 4.307
3.158 -4.069 4.28
3.176 -4.02 4.299
3.157 -3.927 4.278
3.171 -3.875 4.293
3.155 -3.787 4.275
3.174 -3.743 4.296
3.156 -3.655 4.277
3.169 -3.606 4.292
3.152 -3.522 4.273
3.168 -3.477 4.29
3.153 -3.397 4.273
3.167 -3.351 4.289
3.154 -3.276 4.275
3.169 -3.231 4.291
3.155 -3.158 4.276
3.174 -3.118 4.296
3.16 -3.046 4.281
3.166 -2.994 4.288
3.153 -2.925 4.274
3.17 -2.885 4.293
3.149 -2.81 4.27
3.167 -2.771 4.289
3.152 -2.704 4.273
3.168 -2.664 4.291
3.152 -2.597 4.272
3.166 -2.556 4.288
3.155 -2.494 4.275
3.175 -2.458 4.297
3.154 -2.391 4.275
3.169 -2.352 4.292
3.152 -2.288 4.272
3.164 -2.247 4.286
3.149 -2.187 4.269
3.162 -2.147 4.284
3.148 -2.089 4.269
3.16 -2.049 4.281
3.144 -1.991 4.264
3.162 -1.954 4.283
3.144 -1.896 4.264
3.161 -1.86 4.283
3.147 -1.805 4.267
3.158 -1.765 4.279
3.141 -1.71 4.26
3.156 -1.673 4.277
3.137 -1.618 4.257
3.152 -1.581 4.273
3.131 -1.525 4.25
3.149 -1.49 4.269
3.132 -1.438 4.251
3.147 -1.401 4.267
3.13 -1.35 4.249
3.144 -1.313 4.264
3.135 -1.266 4.254
3.147 -1.228 4.267
3.128 -1.178 4.246
3.144 -1.141 4.264
3.126 -1.093 4.245
3.139 -1.055 4.259
3.121 -1.008 4.239
3.135 -0.97 4.254
3.116 -0.923 4.234
3.128 -0.885 4.247
3.115 -0.84 4.232
3.132 -0.804 4.25
3.118 -0.76 4.236
3.128 -0.721 4.246
3.115 -0.678 4.232
3.13 -0.64 4.249
3.112 -0.596 4.229
3.124 -0.558 4.242
3.109 -0.516 4.226
3.124 -0.478 4.243
3.109 -0.436 4.226
3.124 -0.398 4.242
3.108 -0.356 4.224
3.122 -0.318 4.24
3.109 -0.277 4.225
3.124 -0.238 4.242
3.108 -0.198 4.225
3.121 -0.159 4.238
3.11 -0.119 4.227
3.122 -0.079 4.24
3.11 -0.04 4.227
3.119 -0 4.237
3.107 0.039 4.224
3.125 0.079 4.243
3.107 0.118 4.224
3.122 0.159 4.24
3.109 0.198 4.226
3.12 0.238 4.237
3.106 0.277 4.222
3.125 0.318 4.243
3.108 0.356 4.224
3.126 0.398 4.244
3.108 0.436 4.225
3.12 0.477 4.237
3.112 0.516 4.229
3.12 0.558 4.238
3.107 0.595 4.223
3.118 0.638 4.236
3.101 0.675 4.217
3.116 0.719 4.233
3.105 0.756 4.221
3.118 0.801 4.236
3.102 0.837 4.218
3.115 0.882 4.232
3.104 0.919 4.22
3.117 0.965 4.235
3.1 1 4.216
3.117 1.048 4.235
3.099 1.083 4.215
3.113 1.13 4.23
3.098 1.167 4.214
3.107 1.212 4.224
3.097 1.25 4.213
3.114 1.3 4.232
3.101 1.337 4.217
3.112 1.385 4.229
3.096 1.421 4.212
3.113 1.472 4.23
3.092 1.506 4.208
3.113 1.56 4.23
3.091 1.594 4.207
3.106 1.646 4.223
3.097 1.686 4.213
3.111 1.738 4.228
3.088 1.771 4.203
3.107 1.827 4.223
3.097 1.867 4.213
3.109 1.921 4.226
3.091 1.956 4.206
3.108 2.015 4.225
3.09 2.05 4.205
3.111 2.112 4.228
3.094 2.148 4.209
3.108 2.207 4.225
3.095 2.247 4.211
3.11 2.307 4.227
3.082 2.336 4.197
3.025 2.341 4.135
2.974 2.349 4.079
2.916 2.35 4.015
2.868 2.359 3.963
2.814 2.361 3.904
2.767 2.368 3.853
2.722 2.376 3.804
2.671 2.377 3.749
2.626 2.381 3.699
2.582 2.387 3.652
2.541 2.394 3.607
2.496 2.395 3.557
2.451 2.397 3.509
2.413 2.403 3.467
2.375 2.409 3.426
2.336 2.413 3.384
2.296 2.415 3.34
2.259 2.419 3.299
2.224 2.425 3.262
2.185 2.424 3.218
2.152 2.43 3.182
2.117 2.433 3.144
2.082 2.435 3.107
2.053 2.444 3.075
2.019 2.445 3.037
1.989 2.451 3.005
1.955 2.451 2.968
1.928 2.458 2.938
1.894 2.457 2.901
1.866 2.463 2.871
1.834 2.461 2.836
1.806 2.466 2.805
1.777 2.469 2.774
1.751 2.474 2.746
1.723 2.476 2.715
1.696 2.479 2.685
1.667 2.479 2.655
1.644 2.487 2.629
1.617 2.487 2.599
1.59 2.487 2.57
1.567 2.493 2.545
1.54 2.493 2.516
1.517 2.498 2.491
1.491 2.498 2.463
1.469 2.503 2.438
1.443 2.502 2.41
1.421 2.506 2.386
1.399 2.511 2.362
1.376 2.513 2.337
1.355 2.517 2.314
1.332 2.519 2.289
1.31 2.52 2.265
1.287 2.521 2.24
1.265 2.522 2.216
1.244 2.524 2.193
1.221 2.522 2.168
1.203 2.529 2.148
1.18 2.528 2.124
1.159 2.527 2.1
1.14 2.534 2.08
1.122 2.539 2.06
1.103 2.544 2.039
1.082 2.542 2.016
1.063 2.545 1.995
1.042 2.543 1.972
1.024 2.548 1.953
1.005 2.55 1.932
0.983 2.545 1.909
0.966 2.55 1.89
0.948 2.553 1.87
0.93 2.557 1.851
0.911 2.558 1.83
0.893 2.561 1.811
0.876 2.564 1.792
0.858 2.565 1.772
0.84 2.567 1.753
0.822 2.569 1.733
0.805 2.57 1.714
0.787 2.572 1.695
0.235 0.662 1.093
0.241 0.702 1.1
0.223 0.654 1.08
0.219 0.656 1.076
0.216 0.658 1.072
0.212 0.661 1.068
0.208 0.662 1.063
0.204 0.665 1.059
0.2 0.666 1.055
0.196 0.668 1.05
0.192 0.67 1.046
0.188 0.671 1.042
0.182 0.664 1.035
0.178 0.666 1.031
0.174 0.668 1.027
0.17 0.669 1.023
0.165 0.661 1.017
0.161 0.664 1.013
0.157 0.665 1.008
0.153 0.667 1.004
0.149 0.669 1
0.145 0.669 0.995
0.141 0.67 0.991
0.137 0.671 0.987
0.132 0.663 0.981
0.129 0.674 0.978
0.125 0.675 0.974
0.122 0.676 0.969
0.117 0.667 0.964
0.114 0.678 0.961
0.109 0.669 0.956
0.106 0.679 0.952
0.101 0.67 0.947
0.097 0.669 0.942
0.094 0.681 0.939
0.089 0.68 0.934
0.085 0.681 0.93
0.081 0.681 0.926
0.077 0.681 0.921
0.073 0.681 0.917
0.069 0.68 0.912
0.065 0.681 0.908
0.061 0.682 0.904
0.057 0.682 0.899
0.053 0.682 0.895
0.049 0.683 0.891
0.049 -0.403 0.891
0.051 -0.397 0.894
0.053 -0.404 0.896
0.056 -0.401 0.899
0.058 -0.396 0.901
0.06 -0.405 0.904
0.062 -0.395 0.906
0.065 -0.405 0.909
0.068 -0.406 0.912
0.07 -0.405 0.915
0.072 -0.4 0.917
0.074 -0.399 0.919
0.077 -0.399 0.922
0.079 -0.398 0.925
0.082 -0.405 0.928
0.084 -0.406 0.931
0.087 -0.405 0.933
0.089 -0.408 0.936
0.092 -0.407 0.939
0.093 -0.4 0.941
0.095 -0.396 0.943
0.099 -0.403 0.946
0.102 -0.407 0.95
0.103 -0.401 0.951
0.107 -0.408 0.955
0.109 -0.404 0.957
0.11 -0.399 0.959
0.114 -0.405 0.963
0.115 -0.399 0.965
0.119 -0.406 0.969
0.121 -0.403 0.971
0.123 -0.403 0.974
0.126 -0.402 0.976
0.128 -0.401 0.979
0.131 -0.403 0.982
0.134 -0.404 0.986
0.138 -0.409 0.99
0.14 -0.41 0.993
0.143 -0.411 0.996
0.146 -0.411 0.999
0.149 -0.41 1.002
0.151 -0.41 1.005
0.154 -0.411 1.008
0.157 -0.411 1.011
0.159 -0.408 1.013
0.161 -0.407 1.016
0.166 -0.414 1.021
0.169 -0.412 1.024
0.171 -0.411 1.027
0.176 -0.417 1.032
0.177 -0.411 1.033
0.182 -0.417 1.038
0.184 -0.413 1.041
0.187 -0.414 1.044
0.192 -0.42 1.05
0.195 -0.419 1.053
0.197 -0.416 1.055
0.2 -0.415 1.058
0.205 -0.42 1.064
0.207 -0.418 1.066
0.209 -0.416 1.069
0.212 -0.414 1.072
0.217 -0.418 1.077
0.22 -0.416 1.08
0.222 -0.415 1.083
0.228 -0.421 1.09
0.231 -0.418 1.093
0.237 -0.424 1.099
0.239 -0.42 1.101
0.241 -0.417 1.104
0.247 -0.423 1.11
0.249 -0.42 1.113
0.254 -0.422 1.119
0.252 -0.411 1.116
0.255 -0.408 1.119
2.734 -5.218 3.861
2.784 -5.221 3.917
2.836 -5.225 3.974
2.888 -5.229 4.032
2.942 -5.234 4.091
2.997 -5.241 4.153
3.051 -5.242 4.212
3.108 -5.247 4.275
3.117 -5.172 4.285
3.13 -5.104 4.3
3.115 -4.991 4.283
3.13 -4.927 4.299
3.118 -4.823 4.286
3.13 -4.758 4.299
2.795 -4.168 3.929
3.123 -4.584 4.291
3.108 -4.483 4.275
3.125 -4.431 4.294
3.103 -4.323 4.27
3.124 -4.277 4.293
3.104 -4.175 4.271
3.121 -4.126 4.29
3.106 -4.033 4.273
3.117 -3.977 4.285
3.098 -3.884 4.264
3.116 -3.838 4.284
3.103 -3.754 4.269
3.115 -3.702 4.282
3.102 -3.622 4.268
3.115 -3.572 4.282
3.101 -3.492 4.267
3.113 -3.443 4.28
3.095 -3.362 4.261
3.11 -3.316 4.277
3.098 -3.244 4.264
3.111 -3.197 4.278
3.099 -3.126 4.265
3.118 -3.087 4.286
3.1 -3.012 4.266
3.121 -2.975 4.289
3.101 -2.9 4.267
3.112 -2.855 4.28
3.095 -2.784 4.261
3.112 -2.745 4.279
3.094 -2.675 4.26
3.11 -2.636 4.278
3.099 -2.573 4.265
3.114 -2.534 4.282
3.098 -2.469 4.264
3.115 -2.431 4.283
3.098 -2.367 4.264
3.112 -2.328 4.28
3.094 -2.264 4.259
3.106 -2.224 4.273
3.092 -2.165 4.257
3.11 -2.129 4.277
3.089 -2.066 4.254
3.107 -2.03 4.274
3.092 -1.973 4.257
3.097 -1.929 4.263
3.091 -1.879 4.256
3.101 -1.839 4.267
3.087 -1.784 4.251
3.1 -1.747 4.266
3.086 -1.694 4.251
3.097 -1.654 4.263
3.083 -1.602 4.247
3.098 -1.566 4.264
3.076 -1.51 4.239
3.092 -1.475 4.258
3.076 -1.424 4.24
3.091 -1.387 4.256
3.074 -1.336 4.237
3.089 -1.3 4.254
3.078 -1.253 4.242
3.089 -1.215 4.254
3.074 -1.167 4.238
3.088 -1.13 4.253
3.072 -1.082 4.235
3.084 -1.045 4.249
3.073 -1 4.237
3.08 -0.961 4.244
3.068 -0.916 4.231
3.079 -0.878 4.243
3.06 -0.832 4.222
3.077 -0.796 4.24
3.062 -0.752 4.224
3.08 -0.716 4.244
3.062 -0.671 4.224
3.075 -0.634 4.238
3.055 -0.59 4.217
3.072 -0.554 4.236
3.056 -0.511 4.217
3.07 -0.474 4.233
3.051 -0.431 4.212
3.07 -0.394 4.233
3.044 -0.351 4.204
3.074 -0.315 4.237
3.051 -0.274 4.212
3.071 -0.236 4.234
3.054 -0.196 4.215
3.072 -0.157 4.235
3.057 -0.117 4.218
3.067 -0.079 4.229
3.06 -0.039 4.222
3.068 -0 4.231
3.065 0.039 4.227
3.068 0.079 4.231
3.066 0.118 4.229
3.067 0.157 4.229
3.071 0.197 4.234
3.074 0.236 4.238
3.075 0.276 4.239
3.069 0.315 4.232
3.08 0.356 4.244
3.082 0.396 4.247
3.078 0.435 4.242
3.082 0.475 4.247
3.08 0.515 4.244
3.082 0.555 4.247
3.085 0.596 4.25
3.064 0.632 4.226
3.053 0.67 4.214
3.066 0.713 4.229
3.05 0.749 4.211
3.063 0.793 4.226
3.047 0.829 4.207
3.06 0.873 4.222
3.043 0.908 4.203
3.061 0.955 4.224
3.044 0.99 4.204
3.062 1.037 4.224
3.046 1.073 4.206
3.063 1.121 4.226
3.044 1.155 4.205
3.064 1.205 4.226
3.047 1.24 4.208
3.06 1.288 4.222
3.046 1.324 4.207
3.056 1.371 4.217
3.042 1.407 4.202
3.058 1.458 4.219
3.038 1.491 4.197
3.052 1.542 4.213
3.037 1.578 4.196
3.052 1.63 4.213
3.037 1.666 4.196
3.057 1.722 4.219
3.04 1.757 4.2
3.054 1.811 4.216
3.042 1.849 4.202
3.055 1.903 4.216
3.038 1.938 4.198
3.049 1.992 4.209
3.037 2.031 4.197
3.053 2.089 4.214
3.036 2.125 4.196
3.051 2.184 4.212
3.038 2.223 4.198
3.052 2.282 4.214
3.041 2.323 4.201
3.002 2.342 4.158
2.951 2.35 4.101
2.898 2.355 4.043
2.844 2.359 3.983
2.793 2.363 3.926
2.745 2.368 3.873
2.699 2.375 3.823
2.655 2.382 3.774
2.604 2.381 3.718
2.561 2.387 3.671
2.521 2.394 3.626
2.476 2.395 3.576
2.436 2.402 3.532
2.394 2.403 3.485
2.355 2.408 3.442
2.318 2.413 3.401
2.278 2.416 3.357
2.245 2.424 3.321
2.207 2.425 3.278
2.172 2.43 3.24
2.134 2.43 3.198
2.1 2.433 3.16
2.065 2.435 3.122
2.036 2.443 3.089
2.002 2.444 3.051
1.973 2.451 3.02
1.94 2.452 2.983
1.911 2.458 2.952
1.879 2.457 2.915
1.851 2.463 2.884
1.819 2.461 2.849
1.791 2.465 2.818
1.763 2.469 2.787
1.737 2.474 2.759
1.709 2.476 2.728
1.686 2.484 2.702
1.654 2.479 2.667
1.631 2.486 2.641
1.604 2.487 2.611
1.581 2.493 2.586
1.554 2.493 2.556
1.527 2.493 2.527
1.505 2.498 2.502
1.479 2.497 2.473
1.457 2.503 2.449
1.431 2.502 2.421
1.41 2.507 2.397
1.388 2.511 2.372
1.366 2.515 2.348
1.344 2.517 2.324
1.321 2.519 2.299
1.299 2.52 2.274
1.277 2.522 2.25
1.255 2.522 2.225
1.234 2.524 2.202
1.211 2.523 2.177
1.193 2.53 2.157
1.171 2.528 2.132
1.153 2.535 2.112
1.131 2.533 2.088
1.113 2.54 2.068
1.091 2.537 2.044
1.073 2.542 2.024
1.054 2.546 2.003
1.033 2.543 1.98
1.015 2.547 1.96
0.997 2.55 1.94
0.978 2.554 1.92
0.958 2.55 1.897
0.94 2.553 1.877
0.922 2.556 1.857
0.904 2.558 1.837
0.886 2.561 1.817
0.868 2.563 1.798
0.851 2.565 1.778
0.833 2.568 1.759
0.816 2.569 1.739
0.798 2.569 1.719
0.779 2.566 1.699
0.232 0.66 1.094
0.228 0.661 1.089
0.224 0.663 1.085
0.22 0.666 1.08
0.214 0.658 1.074
0.21 0.661 1.069
0.206 0.663 1.065
0.202 0.665 1.061
0.198 0.667 1.056
0.194 0.668 1.052
0.188 0.661 1.046
0.184 0.662 1.041
0.181 0.664 1.037
0.177 0.666 1.033
0.173 0.668 1.028
0.169 0.67 1.024
0.163 0.662 1.018
0.159 0.664 1.014
0.156 0.665 1.009
0.152 0.667 1.005
0.148 0.668 1.001
0.144 0.669 0.996
0.14 0.671 0.992
0.136 0.671 0.988
0.131 0.664 0.982
0.128 0.675 0.979
0.124 0.676 0.975
0.119 0.667 0.969
0.116 0.676 0.966
0.112 0.668 0.961
0.108 0.669 0.956
0.104 0.67 0.952
0.1 0.67 0.948
0.096 0.679 0.944
0.092 0.67 0.939
0.088 0.68 0.935
0.084 0.671 0.93
0.08 0.68 0.926
0.076 0.681 0.922
0.072 0.681 0.917
0.068 0.68 0.913
0.064 0.681 0.909
0.06 0.681 0.904
0.057 0.682 0.9
0.052 0.672 0.895
0.049 0.683 0.891
0.048 -0.394 0.891
0.05 -0.398 0.894
0.053 -0.403 0.897
0.055 -0.4 0.899
0.057 -0.405 0.902
0.059 -0.397 0.904
0.062 -0.405 0.907
0.064 -0.406 0.91
0.067 -0.406 0.912
0.069 -0.404 0.915
0.071 -0.401 0.918
0.074 -0.406 0.92
0.076 -0.401 0.923
0.079 -0.41 0.926
0.081 -0.403 0.928
0.083 -0.405 0.931
0.086 -0.407 0.934
0.088 -0.407 0.937
0.091 -0.406 0.939
0.093 -0.408 0.942
0.095 -0.406 0.945
0.097 -0.402 0.947
0.099 -0.398 0.949
0.103 -0.41 0.954
0.105 -0.406 0.956
0.107 -0.404 0.958
0.11 -0.402 0.961
0.112 -0.404 0.964
0.115 -0.408 0.967
0.118 -0.407 0.97
0.12 -0.404 0.972
0.122 -0.401 0.974
0.126 -0.408 0.979
0.127 -0.401 0.98
0.13 -0.403 0.983
0.134 -0.412 0.988
0.136 -0.409 0.991
0.139 -0.411 0.994
0.142 -0.411 0.997
0.145 -0.411 1
0.147 -0.41 1.003
0.149 -0.408 1.005
0.153 -0.411 1.009
0.157 -0.417 1.014
0.158 -0.409 1.015
0.162 -0.415 1.02
0.165 -0.413 1.022
0.169 -0.419 1.027
0.169 -0.409 1.027
0.172 -0.409 1.031
0.177 -0.417 1.036
0.18 -0.417 1.04
0.183 -0.416 1.043
0.185 -0.413 1.045
0.187 -0.412 1.048
0.19 -0.41 1.051
0.195 -0.417 1.057
0.198 -0.415 1.059
0.2 -0.414 1.063
0.205 -0.419 1.068
0.208 -0.417 1.071
0.213 -0.421 1.077
0.215 -0.419 1.079
0.217 -0.415 1.081
