# .PCD v0.7 - Point Cloud Data file format
VERSION 0.7
FIELDS x y z
SIZE 4 4 4
TYPE F F F
COUNT 1 1 1
WIDTH 2493
HEIGHT 1
VIEWPOINT 0 0 0 1 0 0 0
POINTS 2493
DATA ascii
3.412 0.829 1.102
3.502 0.883 1.11
3.426 0.895 1.103
3.522 0.953 1.111
3.508 0.981 1.11
3.527 1.019 1.112
3.521 1.05 1.111
3.514 1.081 1.111
3.431 1.087 1.104
3.498 1.141 1.109
3.438 1.154 1.104
3.558 1.229 1.114
3.481 1.235 1.108
3.576 1.305 1.116
3.321 1.241 1.095
3.196 1.224 1.085
3.193 1.255 1.084
3.191 1.285 1.084
3.179 1.312 1.083
3.184 1.347 1.084
3.172 1.373 1.083
3.168 1.404 1.082
3.173 1.439 1.083
3.168 1.469 1.082
3.161 1.499 1.082
3.149 1.526 1.081
3.154 1.563 1.081
3.149 1.593 1.081
3.151 1.629 1.081
3.137 1.656 1.08
2.046 1.084 0.991
2.043 1.104 0.991
2.04 1.125 0.991
2.038 1.147 0.991
2.036 1.169 0.99
2.032 1.189 0.99
2.031 1.212 0.99
2.02 1.229 0.989
2.024 1.255 0.99
2.012 1.271 0.989
2.015 1.297 0.989
2.009 1.318 0.988
2.006 1.34 0.988
2.001 1.362 0.988
2.001 1.388 0.988
1.596 1.112 0.955
1.347 0.944 0.934
1.349 0.964 0.935
1.346 0.979 0.934
1.346 0.996 0.934
1.344 1.013 0.934
1.304 0.998 0.931
1.296 1.009 0.93
1.228 0.969 0.925
1.206 0.967 0.923
1.142 0.927 0.918
1.115 0.919 0.916
1.093 0.915 0.914
1.072 0.912 0.912
1.053 0.909 0.911
1.038 0.911 0.909
1.018 0.907 0.908
1.003 0.909 0.907
0.982 0.903 0.905
0.968 0.904 0.904
0.948 0.899 0.902
0.928 0.894 0.9
0.921 0.902 0.9
0.901 0.895 0.898
0.887 0.895 0.897
0.867 0.888 0.895
0.854 0.888 0.894
0.835 0.882 0.893
0.827 0.887 0.892
0.807 0.879 0.891
0.796 0.881 0.89
0.783 0.88 0.889
0.769 0.878 0.888
0.756 0.877 0.887
0.744 0.876 0.886
0.731 0.875 0.884
0.718 0.872 0.883
0.704 0.869 0.882
0.692 0.867 0.881
0.68 0.866 0.88
0.67 0.867 0.879
0.652 0.857 0.878
0.646 0.864 0.878
0.633 0.86 0.877
0.626 0.865 0.876
0.613 0.861 0.875
0.6 0.856 0.874
0.589 0.853 0.873
0.582 0.858 0.872
0.569 0.854 0.871
0.557 0.849 0.87
0.547 0.848 0.87
0.539 0.85 0.869
0.528 0.846 0.868
0.519 0.848 0.867
0.509 0.846 0.866
0.498 0.841 0.866
0.491 0.846 0.865
0.48 0.842 0.864
0.469 0.838 0.863
0.462 0.84 0.863
0.455 0.844 0.862
0.444 0.838 0.861
0.437 0.843 0.861
0.426 0.836 0.86
0.418 0.838 0.859
0.408 0.832 0.858
0.401 0.836 0.858
0.39 0.829 0.857
0.383 0.831 0.856
0.376 0.834 0.856
0.364 0.824 0.855
0.357 0.826 0.854
0.35 0.828 0.854
0.34 0.822 0.853
0.311 0.745 0.85
0.291 0.701 0.849
0.283 0.695 0.848
0.278 0.698 0.848
0.269 0.691 0.847
0.265 0.698 0.847
0.257 0.693 0.846
0.251 0.694 0.845
0.245 0.695 0.845
0.239 0.695 0.844
0.232 0.692 0.844
0.226 0.692 0.843
0.219 0.688 0.843
0.214 0.696 0.842
0.207 0.695 0.842
0.2 0.687 0.841
0.195 0.694 0.841
0.188 0.689 0.84
0.183 0.694 0.84
0.175 0.685 0.839
0.169 0.685 0.839
0.163 0.686 0.838
0.158 0.688 0.838
0.151 0.686 0.837
0.145 0.686 0.837
0.14 0.691 0.836
0.133 0.684 0.836
0.127 0.683 0.835
0.122 0.691 0.835
0.115 0.684 0.834
0.109 0.676 0.834
0.104 0.686 0.833
0.098 0.678 0.833
0.098 -0.377 0.833
0.101 -0.377 0.834
0.104 -0.378 0.834
0.107 -0.37 0.834
0.111 -0.376 0.834
0.114 -0.376 0.835
0.117 -0.373 0.835
0.12 -0.374 0.835
0.124 -0.377 0.836
0.127 -0.376 0.836
0.13 -0.376 0.836
0.133 -0.373 0.836
0.137 -0.375 0.837
0.14 -0.374 0.837
0.143 -0.373 0.837
0.147 -0.374 0.838
0.15 -0.372 0.838
0.153 -0.372 0.838
0.156 -0.369 0.838
0.159 -0.369 0.839
0.162 -0.366 0.839
0.165 -0.366 0.839
0.169 -0.37 0.839
0.17 -0.359 0.84
0.174 -0.363 0.84
0.177 -0.358 0.84
0.181 -0.362 0.84
0.184 -0.361 0.841
0.187 -0.361 0.841
0.189 -0.353 0.841
0.194 -0.362 0.842
0.198 -0.362 0.842
0.201 -0.362 0.842
0.202 -0.354 0.842
0.206 -0.356 0.843
0.21 -0.357 0.843
0.213 -0.357 0.843
0.216 -0.357 0.843
0.219 -0.356 0.844
0.223 -0.354 0.844
0.226 -0.354 0.844
0.232 -0.362 0.845
0.232 -0.353 0.845
0.236 -0.354 0.845
0.239 -0.352 0.845
0.246 -0.359 0.846
0.249 -0.358 0.846
0.249 -0.348 0.846
0.255 -0.355 0.847
0.257 -0.352 0.847
0.261 -0.353 0.847
0.264 -0.351 0.848
0.267 -0.35 0.848
0.275 -0.357 0.848
0.278 -0.356 0.849
0.281 -0.354 0.849
0.284 -0.352 0.849
0.287 -0.351 0.85
0.29 -0.348 0.85
0.293 -0.347 0.85
0.296 -0.346 0.85
0.304 -0.352 0.851
0.308 -0.351 0.851
0.311 -0.35 0.852
0.313 -0.347 0.852
0.316 -0.345 0.852
0.319 -0.342 0.852
0.322 -0.341 0.853
0.33 -0.346 0.853
0.334 -0.345 0.853
0.336 -0.342 0.854
0.344 -0.347 0.854
0.347 -0.345 0.855
0.418 -0.434 0.861
0.555 -0.609 0.872
0.641 -0.711 0.88
0.659 -0.721 0.881
0.67 -0.722 0.882
0.682 -0.724 0.883
0.693 -0.725 0.884
0.7 -0.721 0.885
0.712 -0.722 0.886
0.719 -0.717 0.886
0.732 -0.72 0.887
0.737 -0.713 0.888
0.75 -0.715 0.889
0.757 -0.709 0.889
0.77 -0.711 0.891
0.781 -0.711 0.892
0.794 -0.711 0.893
0.799 -0.704 0.893
0.806 -0.699 0.894
0.82 -0.7 0.895
0.833 -0.701 0.896
0.839 -0.694 0.896
0.852 -0.694 0.898
0.864 -0.693 0.899
0.877 -0.692 0.9
0.883 -0.685 0.9
0.903 -0.69 0.902
0.908 -0.683 0.902
0.921 -0.681 0.903
0.935 -0.68 0.905
0.947 -0.679 0.906
0.961 -0.677 0.907
0.966 -0.669 0.907
0.98 -0.667 0.908
0.994 -0.666 0.91
1.006 -0.662 0.911
1.017 -0.659 0.912
1.026 -0.652 0.912
1.041 -0.651 0.914
1.061 -0.652 0.915
1.075 -0.649 0.916
1.087 -0.645 0.918
1.1 -0.641 0.919
1.112 -0.636 0.92
1.127 -0.633 0.921
1.147 -0.633 0.923
1.162 -0.629 0.924
1.181 -0.628 0.926
1.195 -0.623 0.927
1.207 -0.617 0.928
1.228 -0.616 0.93
1.241 -0.61 0.931
1.262 -0.608 0.932
1.282 -0.606 0.934
1.302 -0.603 0.936
1.316 -0.597 0.937
1.337 -0.593 0.939
1.359 -0.59 0.941
1.38 -0.587 0.942
1.41 -0.587 0.945
1.433 -0.583 0.947
1.478 -0.588 0.951
1.486 -0.577 0.951
1.549 -0.589 0.957
1.553 -0.575 0.957
1.573 -0.568 0.959
1.564 -0.55 0.958
1.909 -0.662 0.987
2.323 -0.791 1.023
2.321 -0.768 1.022
2.318 -0.746 1.022
2.316 -0.723 1.022
2.314 -0.701 1.022
2.312 -0.679 1.022
2.309 -0.657 1.021
2.308 -0.636 1.021
2.305 -0.614 1.021
2.303 -0.593 1.021
2.298 -0.571 1.02
2.296 -0.55 1.02
2.292 -0.529 1.02
2.298 -0.51 1.02
2.295 -0.489 1.02
2.291 -0.468 1.02
2.287 -0.447 1.02
2.284 -0.426 1.019
2.287 -0.407 1.02
2.282 -0.387 1.019
2.275 -0.366 1.019
2.278 -0.347 1.019
2.272 -0.326 1.018
2.269 -0.306 1.018
3.394 -0.436 1.114
3.44 -0.412 1.118
3.463 -0.385 1.119
3.447 -0.353 1.118
3.447 -0.324 1.118
3.437 -0.293 1.117
3.435 -0.264 1.117
3.428 -0.234 1.117
3.406 -0.203 1.115
3.41 -0.174 1.115
3.711 -0.158 1.141
3.57 -0.122 1.129
3.731 -0.095 1.142
3.726 -0.064 1.142
3.833 -0.033 1.151
3.775 -0 1.146
3.677 0.031 1.138
3.509 0.06 1.123
3.594 0.092 1.131
3.514 0.12 1.124
3.591 0.153 1.13
3.513 0.18 1.124
3.589 0.214 1.13
3.535 0.241 1.126
3.595 0.276 1.131
3.527 0.301 1.125
3.606 0.339 1.132
3.527 0.362 1.125
3.616 0.402 1.133
3.547 0.425 1.127
3.615 0.465 1.132
3.545 0.486 1.127
3.621 0.528 1.133
3.536 0.547 1.126
3.629 0.593 1.134
3.549 0.611 1.127
3.624 0.656 1.133
3.548 0.673 1.127
3.634 0.722 1.134
3.551 0.737 1.127
3.649 0.79 1.135
3.565 0.804 1.128
3.652 0.857 1.136
3.569 0.869 1.129
3.662 0.925 1.136
3.602 0.942 1.131
3.724 1.009 1.142
3.669 1.028 1.137
3.543 1.024 1.126
3.576 1.067 1.129
3.723 1.147 1.142
3.528 1.119 1.125
3.643 1.191 1.135
3.563 1.197 1.128
3.623 1.253 1.133
3.616 1.285 1.133
3.635 1.327 1.134
3.49 1.307 1.122
3.187 1.221 1.096
3.184 1.252 1.096
3.18 1.281 1.095
3.186 1.316 1.096
3.175 1.343 1.095
3.171 1.373 1.095
3.167 1.404 1.094
3.163 1.435 1.094
3.159 1.465 1.094
3.152 1.495 1.093
3.149 1.527 1.093
3.152 1.562 1.093
3.148 1.593 1.093
3.142 1.624 1.092
3.14 1.658 1.092
2.041 1.081 0.999
2.042 1.104 0.999
2.039 1.125 0.998
2.036 1.146 0.998
2.035 1.169 0.998
2.025 1.186 0.997
2.022 1.207 0.997
2.019 1.228 0.997
2.015 1.25 0.996
2.013 1.272 0.996
2.015 1.298 0.996
2.008 1.318 0.996
2.004 1.34 0.995
2.001 1.362 0.995
2.002 1.389 0.995
1.598 1.114 0.961
1.352 0.948 0.94
1.349 0.964 0.94
1.347 0.98 0.94
1.326 0.981 0.938
1.312 0.987 0.937
1.263 0.964 0.932
1.249 0.969 0.931
1.183 0.931 0.926
1.156 0.924 0.923
1.136 0.922 0.922
1.114 0.919 0.92
1.093 0.915 0.918
1.073 0.913 0.916
1.052 0.909 0.915
1.037 0.911 0.913
1.016 0.906 0.912
1.003 0.909 0.91
0.982 0.903 0.909
0.963 0.899 0.907
0.948 0.899 0.906
0.935 0.901 0.905
0.915 0.895 0.903
0.901 0.895 0.902
0.881 0.888 0.9
0.867 0.888 0.899
0.853 0.888 0.898
0.84 0.888 0.896
0.82 0.88 0.895
0.807 0.88 0.894
0.796 0.881 0.893
0.789 0.888 0.892
0.769 0.878 0.89
0.757 0.878 0.889
0.744 0.876 0.888
0.731 0.875 0.887
0.717 0.872 0.886
0.704 0.869 0.885
0.691 0.867 0.884
0.679 0.866 0.883
0.669 0.866 0.882
0.656 0.864 0.881
0.646 0.864 0.88
0.633 0.861 0.879
0.62 0.856 0.878
0.613 0.861 0.877
0.599 0.855 0.876
0.592 0.86 0.875
0.576 0.849 0.874
0.569 0.854 0.873
0.558 0.851 0.873
0.551 0.856 0.872
0.539 0.851 0.871
0.527 0.846 0.87
0.519 0.849 0.869
0.509 0.847 0.868
0.497 0.841 0.867
0.491 0.846 0.867
0.48 0.842 0.866
0.472 0.845 0.865
0.462 0.841 0.864
0.454 0.843 0.864
0.443 0.838 0.863
0.436 0.841 0.862
0.425 0.836 0.861
0.418 0.838 0.861
0.407 0.832 0.86
0.4 0.834 0.859
0.393 0.837 0.858
0.383 0.831 0.858
0.375 0.834 0.857
0.364 0.824 0.856
0.357 0.826 0.855
0.348 0.821 0.855
0.34 0.822 0.854
0.313 0.756 0.852
0.291 0.701 0.85
0.283 0.695 0.849
0.277 0.695 0.849
0.27 0.693 0.848
0.265 0.698 0.848
0.256 0.691 0.847
0.251 0.694 0.846
0.245 0.695 0.846
0.238 0.692 0.845
0.232 0.693 0.845
0.225 0.692 0.844
0.218 0.688 0.844
0.212 0.687 0.843
0.206 0.684 0.843
0.2 0.69 0.842
0.195 0.694 0.842
0.188 0.691 0.841
0.182 0.692 0.841
0.175 0.685 0.84
0.17 0.694 0.84
0.163 0.686 0.839
0.157 0.686 0.838
0.151 0.687 0.838
0.145 0.687 0.837
0.139 0.682 0.837
0.133 0.683 0.836
0.127 0.682 0.836
0.121 0.689 0.835
0.115 0.683 0.835
0.109 0.684 0.834
0.103 0.687 0.834
0.098 0.678 0.833
0.097 -0.378 0.834
0.101 -0.377 0.834
0.104 -0.378 0.835
0.107 -0.378 0.835
0.11 -0.376 0.835
0.113 -0.369 0.836
0.117 -0.374 0.836
0.12 -0.375 0.836
0.123 -0.375 0.837
0.127 -0.375 0.837
0.129 -0.367 0.837
0.133 -0.373 0.837
0.137 -0.375 0.838
0.14 -0.374 0.838
0.143 -0.373 0.838
0.146 -0.374 0.839
0.15 -0.373 0.839
0.152 -0.365 0.839
0.155 -0.367 0.839
0.159 -0.368 0.84
0.162 -0.367 0.84
0.165 -0.367 0.84
0.168 -0.363 0.841
0.172 -0.366 0.841
0.174 -0.361 0.841
0.177 -0.36 0.841
0.18 -0.361 0.842
0.184 -0.361 0.842
0.187 -0.36 0.842
0.188 -0.353 0.843
0.194 -0.361 0.843
0.197 -0.362 0.843
0.2 -0.361 0.844
0.201 -0.353 0.844
0.205 -0.355 0.844
0.21 -0.358 0.844
0.212 -0.356 0.845
0.216 -0.357 0.845
0.219 -0.355 0.845
0.226 -0.364 0.846
0.228 -0.362 0.846
0.229 -0.354 0.846
0.232 -0.353 0.847
0.239 -0.36 0.847
0.239 -0.352 0.847
0.242 -0.351 0.847
0.248 -0.357 0.848
0.252 -0.357 0.848
0.254 -0.354 0.849
0.257 -0.352 0.849
0.26 -0.351 0.849
0.264 -0.351 0.85
0.271 -0.359 0.85
0.27 -0.348 0.85
0.273 -0.347 0.85
0.276 -0.345 0.851
0.284 -0.352 0.851
0.287 -0.351 0.852
0.29 -0.35 0.852
0.293 -0.347 0.852
0.3 -0.353 0.853
0.304 -0.352 0.853
0.307 -0.351 0.853
0.31 -0.348 0.854
0.313 -0.346 0.854
0.317 -0.346 0.854
0.323 -0.35 0.855
0.328 -0.349 0.855
0.33 -0.347 0.856
0.332 -0.344 0.856
0.335 -0.342 0.856
0.339 -0.34 0.856
0.351 -0.35 0.858
0.428 -0.449 0.865
0.576 -0.638 0.878
0.64 -0.711 0.884
0.653 -0.714 0.885
0.669 -0.722 0.887
0.681 -0.724 0.888
0.693 -0.726 0.889
0.7 -0.721 0.89
0.712 -0.722 0.891
0.718 -0.717 0.891
0.731 -0.719 0.893
0.737 -0.713 0.893
0.75 -0.716 0.894
0.756 -0.709 0.895
0.768 -0.71 0.896
0.781 -0.711 0.897
0.786 -0.704 0.898
0.8 -0.706 0.899
0.813 -0.707 0.9
0.82 -0.701 0.901
0.832 -0.7 0.902
0.838 -0.694 0.903
0.851 -0.694 0.904
0.863 -0.693 0.905
0.876 -0.692 0.906
0.889 -0.691 0.907
0.894 -0.683 0.908
0.908 -0.683 0.909
0.92 -0.681 0.91
0.934 -0.68 0.911
0.947 -0.679 0.913
0.952 -0.67 0.913
0.966 -0.67 0.914
0.979 -0.667 0.916
0.999 -0.67 0.917
1.004 -0.662 0.918
1.017 -0.659 0.919
1.016 -0.646 0.919
1.035 -0.647 0.921
1.052 -0.647 0.922
1.067 -0.645 0.924
1.086 -0.645 0.925
1.098 -0.64 0.927
1.111 -0.636 0.928
1.135 -0.638 0.93
1.146 -0.633 0.931
1.16 -0.629 0.932
1.18 -0.627 0.934
1.194 -0.623 0.935
1.215 -0.622 0.937
1.227 -0.616 0.938
1.249 -0.615 0.941
1.261 -0.609 0.942
1.282 -0.606 0.944
1.302 -0.603 0.945
1.315 -0.597 0.947
1.345 -0.598 0.949
1.359 -0.591 0.951
1.38 -0.587 0.953
1.402 -0.583 0.955
1.422 -0.579 0.957
1.445 -0.574 0.959
1.467 -0.57 0.961
1.494 -0.567 0.963
1.518 -0.562 0.965
1.554 -0.562 0.969
1.562 -0.55 0.969
1.912 -0.663 1.002
2.321 -0.791 1.04
2.319 -0.768 1.039
2.316 -0.746 1.039
2.314 -0.723 1.039
2.312 -0.701 1.039
2.301 -0.677 1.038
2.308 -0.657 1.038
2.296 -0.633 1.037
2.303 -0.614 1.038
2.301 -0.593 1.038
2.297 -0.571 1.037
2.295 -0.55 1.037
2.291 -0.529 1.037
2.298 -0.51 1.037
2.286 -0.487 1.036
2.29 -0.468 1.037
2.285 -0.447 1.036
2.28 -0.426 1.036
2.286 -0.407 1.036
2.27 -0.385 1.035
2.274 -0.366 1.035
2.268 -0.345 1.035
2.271 -0.326 1.035
2.266 -0.306 1.034
3.346 -0.43 1.134
3.452 -0.414 1.144
3.438 -0.382 1.143
3.444 -0.353 1.143
3.437 -0.323 1.143
3.432 -0.293 1.142
3.424 -0.263 1.141
3.427 -0.234 1.142
3.42 -0.204 1.141
3.422 -0.175 1.141
3.832 -0.164 1.179
3.809 -0.13 1.177
3.889 -0.1 1.184
3.86 -0.066 1.182
3.972 -0.034 1.192
3.909 -0 1.186
3.789 0.032 1.175
3.669 0.063 1.164
3.739 0.096 1.171
3.662 0.125 1.163
3.744 0.16 1.171
3.668 0.188 1.164
3.763 0.225 1.173
3.689 0.252 1.166
3.752 0.289 1.172
3.68 0.315 1.165
3.767 0.355 1.173
3.684 0.379 1.165
3.762 0.419 1.173
3.689 0.443 1.166
3.803 0.49 1.176
3.679 0.505 1.165
3.775 0.552 1.174
3.706 0.574 1.167
3.787 0.62 1.175
3.698 0.638 1.167
3.802 0.69 1.176
3.714 0.706 1.168
3.794 0.755 1.176
3.702 0.769 1.167
3.807 0.826 1.177
3.719 0.84 1.169
3.823 0.898 1.178
3.737 0.911 1.17
3.821 0.967 1.178
3.796 0.995 1.176
3.745 1.016 1.171
3.74 1.049 1.171
3.745 1.085 1.171
3.736 1.117 1.17
3.77 1.163 1.173
3.705 1.177 1.167
3.737 1.223 1.17
3.7 1.246 1.167
3.692 1.278 1.166
3.678 1.309 1.165
3.691 1.349 1.166
3.509 1.315 1.149
3.184 1.221 1.119
3.183 1.252 1.119
3.179 1.282 1.119
3.183 1.316 1.119
3.173 1.343 1.118
3.169 1.374 1.118
3.165 1.404 1.118
3.16 1.434 1.117
3.156 1.465 1.117
3.151 1.496 1.116
3.147 1.527 1.116
3.15 1.562 1.116
3.145 1.593 1.116
3.139 1.624 1.115
3.13 1.654 1.114
2.037 1.08 1.013
2.04 1.104 1.014
2.029 1.12 1.013
2.029 1.142 1.013
2.027 1.165 1.012
2.023 1.185 1.012
2.021 1.207 1.012
2.017 1.228 1.011
2.015 1.25 1.011
2.01 1.272 1.011
2.006 1.293 1.01
2.001 1.314 1.01
2.003 1.34 1.01
1.999 1.362 1.01
1.991 1.382 1.009
1.598 1.115 0.973
1.351 0.948 0.95
1.344 0.961 0.949
1.334 0.97 0.948
1.299 0.96 0.945
1.284 0.965 0.944
1.226 0.934 0.938
1.203 0.932 0.936
1.176 0.925 0.934
1.155 0.924 0.932
1.135 0.922 0.93
1.113 0.918 0.928
1.091 0.915 0.926
1.072 0.913 0.924
1.057 0.915 0.923
1.037 0.911 0.921
1.016 0.906 0.919
1.002 0.909 0.918
0.981 0.903 0.916
0.967 0.904 0.914
0.948 0.9 0.913
0.933 0.9 0.911
0.913 0.894 0.909
0.899 0.895 0.908
0.886 0.895 0.907
0.866 0.888 0.905
0.853 0.889 0.904
0.839 0.888 0.903
0.82 0.88 0.901
0.806 0.879 0.9
0.795 0.881 0.899
0.782 0.88 0.897
0.769 0.879 0.896
0.756 0.878 0.895
0.743 0.877 0.894
0.729 0.874 0.892
0.722 0.88 0.892
0.709 0.877 0.891
0.691 0.867 0.889
0.679 0.866 0.888
0.667 0.865 0.887
0.656 0.864 0.886
0.646 0.864 0.885
0.632 0.86 0.884
0.62 0.856 0.882
0.613 0.861 0.882
0.6 0.856 0.881
0.588 0.853 0.879
0.576 0.849 0.878
0.568 0.854 0.878
0.556 0.849 0.876
0.55 0.855 0.876
0.538 0.851 0.875
0.527 0.847 0.874
0.52 0.851 0.873
0.508 0.845 0.872
0.497 0.841 0.871
0.49 0.846 0.87
0.479 0.842 0.869
0.468 0.836 0.868
0.461 0.84 0.868
0.454 0.844 0.867
0.443 0.838 0.866
0.436 0.841 0.865
0.426 0.837 0.864
0.418 0.838 0.864
0.407 0.832 0.863
0.4 0.834 0.862
0.39 0.83 0.861
0.382 0.831 0.86
0.375 0.834 0.86
0.368 0.836 0.859
0.357 0.826 0.858
0.351 0.833 0.858
0.34 0.822 0.856
0.313 0.756 0.854
0.289 0.696 0.852
0.283 0.696 0.851
0.276 0.694 0.851
0.271 0.699 0.85
0.264 0.697 0.849
0.257 0.693 0.849
0.251 0.694 0.848
0.244 0.695 0.848
0.238 0.695 0.847
0.231 0.692 0.846
0.226 0.695 0.846
0.218 0.689 0.845
0.213 0.695 0.845
0.205 0.684 0.844
0.2 0.691 0.844
0.194 0.694 0.843
0.188 0.693 0.842
0.182 0.692 0.842
0.176 0.694 0.841
0.169 0.684 0.841
0.163 0.688 0.84
0.157 0.686 0.84
0.15 0.677 0.839
0.145 0.687 0.839
0.139 0.682 0.838
0.133 0.682 0.837
0.127 0.683 0.837
0.121 0.68 0.836
0.115 0.683 0.836
0.109 0.684 0.835
0.103 0.687 0.835
0.097 0.679 0.834
0.097 -0.378 0.835
0.1 -0.378 0.835
0.104 -0.377 0.835
0.107 -0.378 0.836
0.11 -0.376 0.836
0.113 -0.375 0.836
0.117 -0.374 0.837
0.12 -0.374 0.837
0.123 -0.368 0.837
0.126 -0.376 0.838
0.13 -0.375 0.838
0.133 -0.373 0.838
0.136 -0.374 0.839
0.139 -0.374 0.839
0.143 -0.373 0.839
0.146 -0.374 0.84
0.149 -0.373 0.84
0.152 -0.373 0.84
0.155 -0.367 0.841
0.158 -0.367 0.841
0.161 -0.367 0.841
0.164 -0.366 0.842
0.167 -0.362 0.842
0.171 -0.366 0.842
0.174 -0.362 0.842
0.178 -0.366 0.843
0.178 -0.354 0.843
0.183 -0.36 0.843
0.186 -0.36 0.844
0.19 -0.361 0.844
0.193 -0.361 0.844
0.196 -0.36 0.845
0.2 -0.361 0.845
0.202 -0.355 0.845
0.205 -0.356 0.846
0.209 -0.357 0.846
0.212 -0.357 0.846
0.216 -0.357 0.847
0.219 -0.356 0.847
0.222 -0.355 0.847
0.225 -0.354 0.848
0.228 -0.353 0.848
0.236 -0.363 0.849
0.235 -0.353 0.849
0.238 -0.351 0.849
0.246 -0.36 0.85
0.248 -0.357 0.85
0.251 -0.356 0.85
0.254 -0.354 0.85
0.257 -0.353 0.851
0.264 -0.361 0.852
0.264 -0.351 0.851
0.271 -0.359 0.852
0.27 -0.348 0.852
0.273 -0.347 0.852
0.281 -0.355 0.853
0.283 -0.352 0.853
0.287 -0.352 0.854
0.29 -0.349 0.854
0.297 -0.355 0.855
0.296 -0.346 0.855
0.303 -0.352 0.855
0.302 -0.343 0.855
0.31 -0.349 0.856
0.313 -0.348 0.856
0.32 -0.352 0.857
0.319 -0.344 0.857
0.322 -0.341 0.857
0.325 -0.339 0.858
0.332 -0.344 0.858
0.336 -0.343 0.859
0.339 -0.34 0.859
0.356 -0.358 0.861
0.434 -0.458 0.868
0.608 -0.682 0.886
0.639 -0.71 0.889
0.658 -0.721 0.891
0.669 -0.723 0.892
0.68 -0.724 0.893
0.693 -0.726 0.894
0.699 -0.721 0.895
0.712 -0.723 0.896
0.718 -0.718 0.897
0.731 -0.72 0.898
0.736 -0.713 0.899
0.75 -0.716 0.9
0.762 -0.717 0.901
0.768 -0.711 0.902
0.78 -0.711 0.903
0.786 -0.705 0.904
0.798 -0.704 0.905
0.805 -0.7 0.905
0.819 -0.7 0.907
0.831 -0.7 0.908
0.844 -0.7 0.909
0.85 -0.694 0.91
0.862 -0.693 0.911
0.875 -0.692 0.912
0.889 -0.691 0.914
0.901 -0.69 0.915
0.907 -0.683 0.916
0.919 -0.681 0.917
0.933 -0.68 0.918
0.946 -0.679 0.919
0.958 -0.676 0.921
0.965 -0.669 0.921
0.978 -0.667 0.923
0.991 -0.665 0.924
1.003 -0.661 0.925
1.016 -0.659 0.927
1.024 -0.652 0.927
1.02 -0.637 0.927
1.053 -0.648 0.93
1.074 -0.65 0.932
1.085 -0.645 0.933
1.098 -0.641 0.935
1.118 -0.641 0.937
1.132 -0.637 0.938
1.146 -0.633 0.939
1.16 -0.629 0.941
1.179 -0.628 0.943
1.192 -0.622 0.944
1.214 -0.622 0.946
1.226 -0.616 0.947
1.239 -0.61 0.949
1.259 -0.608 0.951
1.281 -0.606 0.953
1.301 -0.603 0.955
1.314 -0.597 0.956
1.336 -0.594 0.958
1.365 -0.594 0.961
1.379 -0.587 0.963
1.401 -0.583 0.965
1.421 -0.579 0.967
1.443 -0.574 0.969
1.466 -0.57 0.971
1.487 -0.565 0.974
1.518 -0.563 0.977
1.539 -0.556 0.979
1.561 -0.55 0.981
1.946 -0.676 1.019
2.319 -0.791 1.056
2.317 -0.768 1.056
2.315 -0.746 1.056
2.312 -0.723 1.056
2.311 -0.702 1.056
2.3 -0.677 1.055
2.297 -0.655 1.054
2.305 -0.636 1.055
2.293 -0.612 1.054
2.288 -0.59 1.053
2.293 -0.571 1.054
2.294 -0.55 1.054
2.287 -0.528 1.053
2.286 -0.508 1.053
2.284 -0.487 1.053
2.288 -0.468 1.053
2.285 -0.447 1.053
2.278 -0.426 1.052
2.275 -0.406 1.052
2.278 -0.387 1.052
2.272 -0.366 1.052
2.266 -0.345 1.051
2.26 -0.325 1.051
2.261 -0.306 1.051
3.442 -0.443 1.169
3.402 -0.408 1.164
3.436 -0.382 1.168
3.429 -0.352 1.167
3.433 -0.323 1.168
3.427 -0.293 1.167
3.412 -0.262 1.166
3.412 -0.233 1.166
3.409 -0.204 1.165
3.41 -0.174 1.165
3.858 -0.165 1.21
3.851 -0.132 1.209
3.942 -0.101 1.218
3.98 -0.068 1.222
4.086 -0.035 1.233
4.029 -0 1.227
3.977 0.034 1.222
3.846 0.066 1.209
3.927 0.101 1.217
3.828 0.131 1.207
3.94 0.169 1.218
3.844 0.197 1.209
3.954 0.237 1.22
3.853 0.264 1.21
3.95 0.305 1.219
3.867 0.331 1.211
3.952 0.373 1.219
3.858 0.397 1.21
3.952 0.441 1.219
3.873 0.466 1.211
3.945 0.509 1.219
3.875 0.534 1.212
3.966 0.581 1.221
3.883 0.603 1.212
3.951 0.648 1.219
3.872 0.669 1.211
3.973 0.722 1.222
3.87 0.737 1.211
3.977 0.793 1.222
3.881 0.808 1.212
4.018 0.874 1.226
3.888 0.88 1.213
3.992 0.94 1.223
3.911 0.956 1.215
4.008 1.017 1.225
3.839 1.008 1.208
3.86 1.049 1.21
3.779 1.061 1.202
3.784 1.097 1.203
3.748 1.122 1.199
3.84 1.186 1.208
3.743 1.191 1.199
3.802 1.246 1.204
3.713 1.251 1.196
3.703 1.283 1.195
3.714 1.323 1.196
3.706 1.356 1.195
3.544 1.33 1.179
3.182 1.221 1.143
3.18 1.252 1.142
3.176 1.282 1.142
3.173 1.312 1.142
3.17 1.343 1.141
3.166 1.373 1.141
3.162 1.404 1.141
3.158 1.434 1.14
3.153 1.465 1.14
3.149 1.496 1.139
3.143 1.526 1.139
3.148 1.562 1.139
3.134 1.589 1.138
3.137 1.624 1.138
3.132 1.656 1.138
2.033 1.079 1.028
2.031 1.1 1.028
2.027 1.12 1.027
2.026 1.142 1.027
2.023 1.163 1.027
2.022 1.186 1.027
2.018 1.207 1.026
2.015 1.228 1.026
2.011 1.249 1.026
2.01 1.272 1.026
2.004 1.293 1.025
2 1.315 1.025
2.002 1.34 1.025
1.998 1.363 1.024
1.991 1.383 1.024
1.614 1.128 0.986
1.346 0.946 0.959
1.336 0.956 0.958
1.312 0.954 0.956
1.275 0.942 0.952
1.246 0.935 0.949
1.225 0.934 0.947
1.204 0.933 0.945
1.176 0.926 0.942
1.154 0.924 0.94
1.134 0.922 0.938
1.112 0.918 0.936
1.091 0.915 0.934
1.07 0.912 0.932
1.056 0.915 0.93
1.035 0.911 0.928
1.015 0.906 0.926
1 0.908 0.925
0.98 0.903 0.923
0.966 0.904 0.921
0.946 0.899 0.92
0.933 0.901 0.918
0.912 0.894 0.916
0.893 0.888 0.914
0.88 0.889 0.913
0.866 0.889 0.912
0.852 0.888 0.91
0.833 0.882 0.908
0.819 0.88 0.907
0.805 0.879 0.905
0.795 0.881 0.904
0.781 0.88 0.903
0.768 0.878 0.902
0.755 0.877 0.9
0.742 0.876 0.899
0.729 0.874 0.898
0.716 0.872 0.897
0.703 0.869 0.895
0.695 0.874 0.894
0.683 0.873 0.893
0.666 0.864 0.892
0.657 0.867 0.891
0.645 0.864 0.889
0.632 0.86 0.888
0.62 0.857 0.887
0.612 0.861 0.886
0.599 0.856 0.885
0.587 0.853 0.884
0.58 0.858 0.883
0.568 0.854 0.882
0.557 0.851 0.881
0.549 0.855 0.88
0.537 0.85 0.879
0.526 0.846 0.878
0.516 0.844 0.877
0.508 0.847 0.876
0.496 0.841 0.875
0.489 0.846 0.874
0.483 0.851 0.873
0.472 0.846 0.872
0.461 0.841 0.871
0.454 0.844 0.87
0.442 0.838 0.869
0.435 0.841 0.869
0.425 0.836 0.867
0.417 0.838 0.867
0.41 0.841 0.866
0.399 0.834 0.865
0.389 0.829 0.864
0.382 0.831 0.863
0.375 0.834 0.862
0.363 0.824 0.861
0.356 0.826 0.861
0.346 0.82 0.86
0.34 0.824 0.859
0.315 0.764 0.857
0.289 0.697 0.854
0.283 0.697 0.853
0.277 0.699 0.853
0.269 0.694 0.852
0.264 0.697 0.851
0.256 0.691 0.851
0.25 0.694 0.85
0.244 0.695 0.849
0.238 0.695 0.849
0.231 0.695 0.848
0.225 0.693 0.848
0.218 0.692 0.847
0.212 0.692 0.846
0.207 0.696 0.846
0.2 0.691 0.845
0.194 0.692 0.844
0.188 0.693 0.844
0.182 0.692 0.843
0.176 0.695 0.843
0.169 0.692 0.842
0.163 0.688 0.841
0.157 0.685 0.841
0.151 0.686 0.84
0.145 0.689 0.84
0.139 0.69 0.839
0.133 0.692 0.838
0.127 0.683 0.838
0.121 0.689 0.837
0.115 0.682 0.837
0.109 0.684 0.836
0.103 0.688 0.835
0.097 0.677 0.835
0.097 -0.37 0.836
0.1 -0.378 0.836
0.103 -0.37 0.836
0.107 -0.378 0.837
0.11 -0.377 0.837
0.113 -0.376 0.837
0.116 -0.373 0.838
0.12 -0.374 0.838
0.123 -0.375 0.838
0.126 -0.375 0.839
0.13 -0.377 0.839
0.132 -0.373 0.839
0.136 -0.374 0.84
0.139 -0.373 0.84
0.142 -0.374 0.84
0.146 -0.373 0.841
0.149 -0.373 0.841
0.152 -0.371 0.841
0.154 -0.366 0.842
0.158 -0.368 0.842
0.161 -0.367 0.842
0.164 -0.366 0.843
0.167 -0.363 0.843
0.171 -0.366 0.843
0.173 -0.362 0.844
0.176 -0.357 0.844
0.18 -0.362 0.844
0.181 -0.354 0.845
0.186 -0.36 0.845
0.19 -0.362 0.846
0.194 -0.363 0.846
0.196 -0.361 0.846
0.201 -0.364 0.847
0.203 -0.361 0.847
0.207 -0.363 0.847
0.209 -0.358 0.848
0.212 -0.357 0.848
0.215 -0.356 0.848
0.218 -0.355 0.849
0.222 -0.354 0.849
0.225 -0.353 0.849
0.228 -0.354 0.85
0.232 -0.354 0.85
0.235 -0.353 0.85
0.242 -0.361 0.851
0.241 -0.351 0.851
0.244 -0.35 0.851
0.251 -0.356 0.852
0.253 -0.354 0.852
0.257 -0.354 0.853
0.26 -0.352 0.853
0.263 -0.351 0.853
0.271 -0.359 0.854
0.27 -0.349 0.854
0.272 -0.347 0.854
0.28 -0.354 0.855
0.283 -0.352 0.856
0.286 -0.351 0.856
0.289 -0.349 0.856
0.297 -0.355 0.857
0.296 -0.346 0.857
0.304 -0.353 0.858
0.306 -0.35 0.858
0.309 -0.349 0.858
0.312 -0.346 0.859
0.316 -0.346 0.859
0.319 -0.344 0.859
0.326 -0.349 0.86
0.329 -0.347 0.86
0.331 -0.343 0.861
0.335 -0.342 0.861
0.338 -0.339 0.861
0.363 -0.369 0.864
0.441 -0.468 0.872
0.621 -0.7 0.892
0.639 -0.711 0.894
0.657 -0.721 0.896
0.667 -0.722 0.897
0.68 -0.724 0.898
0.693 -0.727 0.9
0.698 -0.721 0.9
0.71 -0.722 0.901
0.717 -0.718 0.902
0.729 -0.719 0.903
0.735 -0.713 0.904
0.749 -0.716 0.906
0.754 -0.709 0.906
0.767 -0.711 0.908
0.779 -0.711 0.909
0.785 -0.704 0.909
0.798 -0.705 0.911
0.805 -0.7 0.912
0.818 -0.701 0.913
0.823 -0.693 0.914
0.836 -0.694 0.915
0.849 -0.693 0.916
0.862 -0.693 0.918
0.874 -0.692 0.919
0.879 -0.684 0.92
0.892 -0.683 0.921
0.906 -0.683 0.922
0.918 -0.681 0.924
0.931 -0.68 0.925
0.945 -0.679 0.927
0.958 -0.677 0.928
0.964 -0.67 0.929
0.977 -0.667 0.93
0.99 -0.665 0.931
1.003 -0.662 0.933
1.015 -0.659 0.934
1.025 -0.654 0.935
1.032 -0.646 0.936
1.049 -0.646 0.938
1.064 -0.644 0.939
1.084 -0.645 0.942
1.096 -0.64 0.943
1.11 -0.637 0.944
1.132 -0.638 0.947
1.145 -0.633 0.948
1.159 -0.629 0.95
1.178 -0.628 0.952
1.191 -0.623 0.953
1.212 -0.622 0.955
1.225 -0.616 0.957
1.238 -0.61 0.958
1.258 -0.608 0.96
1.279 -0.606 0.963
1.301 -0.604 0.965
1.313 -0.597 0.966
1.335 -0.594 0.969
1.357 -0.591 0.971
1.378 -0.587 0.973
1.399 -0.583 0.975
1.42 -0.579 0.978
1.443 -0.575 0.98
1.465 -0.57 0.983
1.486 -0.565 0.985
1.518 -0.563 0.988
1.539 -0.557 0.99
1.561 -0.551 0.993
1.945 -0.677 1.034
2.317 -0.791 1.074
2.315 -0.768 1.074
2.305 -0.743 1.073
2.31 -0.723 1.073
2.301 -0.699 1.072
2.298 -0.677 1.072
2.295 -0.655 1.072
2.292 -0.633 1.071
2.291 -0.612 1.071
2.287 -0.59 1.071
2.285 -0.569 1.07
2.29 -0.55 1.071
2.285 -0.528 1.07
2.283 -0.508 1.07
2.281 -0.487 1.07
2.287 -0.468 1.071
2.281 -0.447 1.07
2.278 -0.426 1.07
2.273 -0.406 1.069
2.276 -0.387 1.07
2.27 -0.366 1.069
2.264 -0.345 1.068
2.258 -0.325 1.068
2.261 -0.306 1.068
3.43 -0.441 1.193
3.348 -0.401 1.185
3.424 -0.381 1.193
3.426 -0.352 1.193
3.421 -0.322 1.193
3.415 -0.292 1.192
3.409 -0.262 1.191
3.412 -0.233 1.191
3.406 -0.204 1.191
3.407 -0.174 1.191
3.881 -0.166 1.242
3.89 -0.133 1.243
4.056 -0.104 1.261
4.063 -0.07 1.261
4.21 -0.036 1.277
4.197 -0 1.276
4.353 0.037 1.293
4.221 0.072 1.278
4.412 0.114 1.299
4.042 0.139 1.259
4.125 0.177 1.268
4.011 0.206 1.256
4.117 0.247 1.267
4.018 0.276 1.257
4.141 0.32 1.27
4.018 0.345 1.257
4.159 0.393 1.272
4.05 0.418 1.26
4.156 0.465 1.271
4.047 0.488 1.26
4.173 0.54 1.273
4.042 0.558 1.259
4.162 0.611 1.272
4.066 0.632 1.262
4.166 0.685 1.273
4.073 0.705 1.263
4.22 0.769 1.278
4.094 0.781 1.265
4.223 0.844 1.279
4.078 0.851 1.263
4.192 0.913 1.275
4.104 0.93 1.266
4.215 0.994 1.278
4.1 1.004 1.265
4.213 1.071 1.278
3.956 1.04 1.25
4.211 1.148 1.277
3.804 1.069 1.234
3.791 1.101 1.232
3.755 1.125 1.228
3.978 1.231 1.252
4.191 1.338 1.275
3.795 1.244 1.233
3.716 1.253 1.224
3.702 1.284 1.223
3.692 1.316 1.222
3.705 1.357 1.223
3.578 1.344 1.209
3.179 1.221 1.167
3.169 1.249 1.165
3.173 1.282 1.166
3.17 1.312 1.166
3.167 1.343 1.165
3.163 1.373 1.165
3.16 1.404 1.164
3.155 1.434 1.164
3.151 1.465 1.163
3.145 1.495 1.163
3.141 1.526 1.162
3.137 1.558 1.162
3.132 1.589 1.161
3.134 1.624 1.162
3.123 1.652 1.16
2.032 1.079 1.043
2.029 1.1 1.043
2.026 1.12 1.043
2.025 1.142 1.043
2.022 1.163 1.042
2.019 1.185 1.042
2.018 1.207 1.042
2.014 1.228 1.041
2.011 1.25 1.041
2.007 1.272 1.041
2.003 1.293 1.04
1.998 1.314 1.04
1.999 1.34 1.04
1.989 1.358 1.039
1.99 1.384 1.039
1.642 1.15 1.001
1.347 0.947 0.97
1.326 0.948 0.968
1.297 0.943 0.964
1.275 0.942 0.962
1.245 0.935 0.959
1.224 0.934 0.957
1.203 0.933 0.954
1.174 0.925 0.951
1.16 0.93 0.95
1.133 0.922 0.947
1.111 0.918 0.944
1.09 0.915 0.942
1.076 0.918 0.941
1.049 0.909 0.938
1.028 0.904 0.936
1.02 0.913 0.935
1 0.909 0.933
0.979 0.903 0.93
0.964 0.903 0.929
0.945 0.899 0.927
0.932 0.901 0.925
0.912 0.894 0.923
0.898 0.895 0.922
0.885 0.896 0.92
0.865 0.888 0.918
0.852 0.889 0.917
0.838 0.889 0.915
0.825 0.888 0.914
0.804 0.879 0.912
0.794 0.881 0.91
0.781 0.88 0.909
0.767 0.878 0.907
0.754 0.877 0.906
0.741 0.876 0.905
0.729 0.875 0.903
0.715 0.872 0.902
0.702 0.869 0.901
0.689 0.866 0.899
0.677 0.865 0.898
0.665 0.864 0.897
0.657 0.867 0.896
0.644 0.864 0.894
0.631 0.86 0.893
0.619 0.857 0.892
0.611 0.861 0.891
0.598 0.856 0.889
0.586 0.853 0.888
0.579 0.857 0.887
0.567 0.853 0.886
0.556 0.851 0.885
0.544 0.846 0.884
0.537 0.85 0.883
0.526 0.846 0.882
0.518 0.849 0.881
0.506 0.845 0.88
0.496 0.842 0.878
0.488 0.845 0.878
0.478 0.841 0.876
0.471 0.846 0.876
0.46 0.841 0.875
0.449 0.834 0.873
0.443 0.84 0.873
0.434 0.84 0.872
0.425 0.837 0.871
0.417 0.838 0.87
0.406 0.832 0.869
0.399 0.834 0.868
0.391 0.837 0.867
0.381 0.831 0.866
0.374 0.834 0.865
0.367 0.836 0.865
0.356 0.826 0.863
0.349 0.828 0.863
0.339 0.822 0.862
0.315 0.765 0.859
0.29 0.702 0.856
0.283 0.698 0.856
0.276 0.695 0.855
0.27 0.698 0.854
0.263 0.697 0.853
0.255 0.691 0.853
0.251 0.701 0.852
0.244 0.696 0.851
0.237 0.695 0.851
0.231 0.693 0.85
0.225 0.694 0.849
0.218 0.692 0.849
0.212 0.692 0.848
0.205 0.686 0.847
0.199 0.691 0.847
0.194 0.694 0.846
0.187 0.693 0.845
0.18 0.682 0.844
0.175 0.693 0.844
0.168 0.684 0.843
0.163 0.688 0.843
0.157 0.696 0.842
0.151 0.689 0.841
0.145 0.689 0.841
0.139 0.691 0.84
0.132 0.682 0.839
0.126 0.683 0.839
0.121 0.689 0.838
0.115 0.683 0.837
0.109 0.685 0.837
0.103 0.677 0.836
0.097 0.677 0.836
0.097 -0.378 0.836
0.1 -0.378 0.836
0.103 -0.377 0.837
0.106 -0.378 0.837
0.11 -0.377 0.837
0.113 -0.376 0.838
0.116 -0.373 0.838
0.119 -0.375 0.838
0.123 -0.375 0.839
0.126 -0.375 0.839
0.129 -0.375 0.839
0.132 -0.372 0.84
0.136 -0.373 0.84
0.139 -0.374 0.841
0.142 -0.374 0.841
0.144 -0.365 0.841
0.149 -0.372 0.842
0.152 -0.373 0.842
0.154 -0.366 0.842
0.158 -0.368 0.843
0.161 -0.367 0.843
0.164 -0.365 0.843
0.167 -0.363 0.844
0.171 -0.366 0.844
0.173 -0.363 0.844
0.175 -0.356 0.845
0.18 -0.364 0.845
0.183 -0.361 0.845
0.186 -0.362 0.846
0.189 -0.36 0.846
0.192 -0.359 0.846
0.196 -0.36 0.847
0.2 -0.361 0.847
0.203 -0.361 0.848
0.207 -0.363 0.848
0.208 -0.357 0.848
0.212 -0.357 0.849
0.215 -0.356 0.849
0.218 -0.355 0.849
0.224 -0.362 0.85
0.225 -0.354 0.85
0.228 -0.353 0.85
0.231 -0.353 0.851
0.238 -0.361 0.852
0.241 -0.361 0.852
0.245 -0.359 0.852
0.244 -0.35 0.852
0.251 -0.357 0.853
0.253 -0.354 0.853
0.257 -0.354 0.854
0.26 -0.353 0.854
0.264 -0.353 0.854
0.267 -0.351 0.855
0.269 -0.348 0.855
0.277 -0.356 0.856
0.275 -0.345 0.856
0.282 -0.351 0.856
0.286 -0.351 0.857
0.289 -0.349 0.857
0.292 -0.347 0.858
0.3 -0.354 0.858
0.298 -0.345 0.858
0.305 -0.35 0.859
0.31 -0.35 0.86
0.312 -0.347 0.86
0.315 -0.345 0.86
0.318 -0.343 0.86
0.322 -0.342 0.861
0.324 -0.339 0.861
0.331 -0.344 0.862
0.334 -0.342 0.862
0.338 -0.34 0.863
0.368 -0.375 0.866
0.452 -0.483 0.875
0.621 -0.7 0.894
0.645 -0.72 0.897
0.657 -0.721 0.898
0.667 -0.722 0.899
0.68 -0.724 0.901
0.692 -0.727 0.902
0.704 -0.729 0.903
0.71 -0.723 0.904
0.717 -0.718 0.905
0.73 -0.72 0.906
0.736 -0.714 0.907
0.749 -0.716 0.908
0.755 -0.71 0.909
0.766 -0.71 0.91
0.779 -0.711 0.912
0.784 -0.704 0.912
0.797 -0.704 0.914
0.803 -0.699 0.914
0.818 -0.701 0.916
0.831 -0.701 0.917
0.836 -0.694 0.918
0.849 -0.694 0.919
0.863 -0.694 0.921
0.874 -0.692 0.922
0.88 -0.685 0.923
0.899 -0.69 0.925
0.905 -0.683 0.926
0.918 -0.681 0.927
0.932 -0.68 0.929
0.937 -0.673 0.929
0.95 -0.671 0.931
0.964 -0.67 0.932
0.976 -0.667 0.933
0.989 -0.664 0.935
1.001 -0.661 0.936
1.015 -0.659 0.938
1.027 -0.656 0.939
1.025 -0.642 0.939
1.038 -0.639 0.94
1.065 -0.645 0.943
1.084 -0.645 0.945
1.097 -0.641 0.947
1.11 -0.637 0.948
1.123 -0.633 0.95
1.137 -0.629 0.951
1.159 -0.63 0.954
1.172 -0.624 0.955
1.191 -0.623 0.957
1.204 -0.618 0.959
1.225 -0.616 0.961
1.246 -0.615 0.963
1.258 -0.608 0.965
1.279 -0.606 0.967
1.299 -0.603 0.969
1.312 -0.597 0.971
1.334 -0.594 0.973
1.356 -0.591 0.976
1.378 -0.588 0.978
1.399 -0.583 0.98
1.42 -0.579 0.983
1.442 -0.575 0.985
1.465 -0.57 0.988
1.485 -0.565 0.99
1.508 -0.559 0.992
1.539 -0.557 0.996
1.553 -0.548 0.997
1.968 -0.685 1.044
2.309 -0.788 1.081
2.315 -0.769 1.082
2.303 -0.743 1.081
2.301 -0.721 1.08
2.3 -0.699 1.08
2.297 -0.677 1.08
2.294 -0.655 1.08
2.291 -0.633 1.079
2.29 -0.612 1.079
2.286 -0.59 1.079
2.285 -0.569 1.079
2.291 -0.55 1.079
2.286 -0.529 1.079
2.283 -0.508 1.079
2.281 -0.487 1.078
2.276 -0.466 1.078
2.271 -0.445 1.077
2.277 -0.426 1.078
2.272 -0.406 1.077
2.266 -0.385 1.077
2.26 -0.364 1.076
2.263 -0.345 1.076
2.258 -0.325 1.076
2.261 -0.306 1.076
3.429 -0.441 1.206
3.427 -0.411 1.205
3.39 -0.378 1.201
3.427 -0.352 1.205
3.421 -0.322 1.205
3.414 -0.292 1.204
3.409 -0.262 1.203
3.41 -0.233 1.204
3.404 -0.204 1.203
3.397 -0.174 1.202
3.877 -0.166 1.255
3.878 -0.133 1.255
4.031 -0.104 1.272
4.202 -0.072 1.291
4.298 -0.037 1.302
4.251 -0 1.297
4.36 0.037 1.309
4.411 0.076 1.315
4.548 0.117 1.33
4.482 0.154 1.322
4.386 0.188 1.312
4.246 0.219 1.296
4.385 0.264 1.312
4.242 0.292 1.296
4.37 0.338 1.31
4.253 0.366 1.297
4.384 0.415 1.312
4.277 0.442 1.3
4.407 0.494 1.314
4.269 0.515 1.299
4.403 0.57 1.314
4.28 0.591 1.3
4.412 0.649 1.315
4.289 0.668 1.301
4.412 0.727 1.315
4.296 0.745 1.302
4.408 0.804 1.314
4.31 0.824 1.303
4.417 0.884 1.315
4.333 0.906 1.306
4.435 0.968 1.317
4.309 0.979 1.303
4.45 1.052 1.319
4.347 1.066 1.307
4.467 1.137 1.321
4.355 1.148 1.308
4.484 1.224 1.323
4.138 1.166 1.284
3.821 1.11 1.249
3.746 1.123 1.241
4.072 1.261 1.277
4.329 1.383 1.305
3.803 1.248 1.247
3.704 1.25 1.236
3.712 1.288 1.237
3.7 1.32 1.236
3.672 1.345 1.233
3.599 1.353 1.225
3.17 1.218 1.177
3.167 1.248 1.177
3.164 1.278 1.176
3.16 1.308 1.176
3.166 1.343 1.176
3.154 1.369 1.175
3.15 1.4 1.175
3.154 1.434 1.175
3.148 1.465 1.175
3.137 1.492 1.173
3.14 1.527 1.174
3.136 1.558 1.173
3.13 1.589 1.172
3.125 1.62 1.172
3.121 1.652 1.171
2.033 1.08 1.051
2.028 1.1 1.05
2.026 1.121 1.05
2.023 1.141 1.05
2.021 1.163 1.049
2.019 1.185 1.049
2.016 1.207 1.049
2.006 1.224 1.048
2.01 1.25 1.048
2 1.267 1.047
2.003 1.293 1.047
1.998 1.315 1.047
1.991 1.335 1.046
1.989 1.358 1.046
1.983 1.379 1.045
1.675 1.175 1.011
1.344 0.945 0.974
1.327 0.95 0.972
1.296 0.943 0.969
1.274 0.942 0.967
1.245 0.936 0.963
1.222 0.934 0.961
1.202 0.933 0.959
1.181 0.932 0.956
1.153 0.924 0.953
1.133 0.922 0.951
1.111 0.919 0.948
1.09 0.916 0.946
1.069 0.913 0.944
1.055 0.916 0.942
1.033 0.91 0.94
1.013 0.906 0.938
1 0.909 0.936
0.985 0.909 0.934
0.964 0.904 0.932
0.945 0.899 0.93
0.931 0.9 0.928
0.911 0.894 0.926
0.898 0.895 0.925
0.884 0.895 0.923
0.863 0.888 0.921
0.851 0.888 0.92
0.837 0.888 0.918
0.824 0.888 0.917
0.804 0.879 0.914
0.794 0.882 0.913
0.78 0.88 0.912
0.766 0.878 0.91
0.753 0.877 0.909
0.741 0.876 0.907
0.728 0.874 0.906
0.715 0.872 0.904
0.701 0.869 0.903
0.688 0.866 0.902
0.681 0.872 0.901
0.669 0.871 0.899
0.656 0.867 0.898
0.643 0.864 0.897
0.631 0.86 0.895
0.618 0.856 0.894
0.611 0.861 0.893
0.598 0.856 0.892
0.587 0.854 0.89
0.574 0.849 0.889
0.566 0.853 0.888
0.555 0.849 0.887
0.544 0.846 0.885
0.536 0.85 0.885
0.523 0.843 0.883
0.517 0.848 0.883
0.506 0.845 0.881
0.495 0.841 0.88
0.488 0.845 0.879
0.477 0.841 0.878
0.471 0.845 0.877
0.46 0.84 0.876
0.453 0.844 0.875
0.442 0.838 0.874
0.434 0.841 0.873
0.424 0.837 0.872
0.416 0.838 0.871
0.406 0.832 0.87
0.398 0.834 0.869
0.391 0.837 0.869
0.381 0.831 0.867
0.374 0.834 0.867
0.366 0.835 0.866
0.355 0.826 0.865
0.348 0.828 0.864
0.339 0.824 0.863
0.317 0.774 0.86
0.29 0.701 0.857
0.281 0.694 0.856
0.275 0.695 0.856
0.269 0.695 0.855
0.263 0.697 0.854
0.256 0.693 0.854
0.25 0.694 0.853
0.244 0.695 0.852
0.238 0.697 0.852
0.231 0.694 0.851
0.225 0.697 0.85
0.219 0.696 0.849
0.212 0.692 0.849
0.206 0.697 0.848
0.199 0.691 0.847
0.194 0.694 0.847
0.187 0.693 0.846
0.181 0.694 0.845
0.175 0.695 0.845
0.169 0.695 0.844
0.162 0.686 0.843
0.156 0.686 0.842
0.151 0.69 0.842
0.145 0.689 0.841
0.139 0.69 0.841
0.133 0.69 0.84
0.126 0.681 0.839
0.12 0.687 0.839
0.114 0.683 0.838
0.108 0.677 0.837
0.103 0.678 0.837
0.097 0.677 0.836
0.096 -0.37 0.837
0.1 -0.377 0.837
0.103 -0.369 0.837
0.106 -0.377 0.838
0.109 -0.376 0.838
0.113 -0.376 0.839
0.116 -0.376 0.839
0.119 -0.375 0.839
0.122 -0.375 0.84
0.125 -0.368 0.84
0.129 -0.375 0.84
0.132 -0.375 0.841
0.135 -0.373 0.841
0.139 -0.373 0.842
0.142 -0.374 0.842
0.145 -0.373 0.842
0.148 -0.371 0.843
0.152 -0.373 0.843
0.154 -0.365 0.843
0.158 -0.368 0.844
0.159 -0.357 0.844
0.164 -0.366 0.845
0.166 -0.363 0.845
0.17 -0.365 0.845
0.173 -0.361 0.846
0.175 -0.358 0.846
0.18 -0.364 0.846
0.182 -0.361 0.847
0.186 -0.361 0.847
0.189 -0.362 0.848
0.192 -0.361 0.848
0.196 -0.361 0.848
0.199 -0.36 0.849
0.203 -0.361 0.849
0.204 -0.355 0.849
0.208 -0.356 0.85
0.211 -0.356 0.85
0.215 -0.356 0.851
0.221 -0.364 0.851
0.221 -0.355 0.851
0.224 -0.353 0.852
0.227 -0.353 0.852
0.231 -0.353 0.853
0.238 -0.362 0.853
0.238 -0.352 0.853
0.241 -0.351 0.854
0.244 -0.35 0.854
0.25 -0.357 0.855
0.253 -0.355 0.855
0.256 -0.353 0.855
0.26 -0.353 0.856
0.267 -0.359 0.857
0.267 -0.351 0.857
0.268 -0.347 0.857
0.272 -0.347 0.857
0.28 -0.355 0.858
0.282 -0.352 0.859
0.285 -0.351 0.859
0.288 -0.349 0.859
0.291 -0.347 0.86
0.295 -0.346 0.86
0.298 -0.345 0.86
0.306 -0.351 0.861
0.309 -0.349 0.862
0.312 -0.347 0.862
0.316 -0.347 0.863
0.318 -0.344 0.863
0.321 -0.342 0.863
0.328 -0.347 0.864
0.331 -0.344 0.864
0.334 -0.342 0.865
0.337 -0.339 0.865
0.368 -0.377 0.869
0.463 -0.499 0.88
0.631 -0.715 0.9
0.644 -0.719 0.901
0.65 -0.714 0.902
0.666 -0.722 0.904
0.679 -0.724 0.906
0.686 -0.72 0.906
0.697 -0.721 0.908
0.703 -0.716 0.908
0.716 -0.718 0.91
0.729 -0.72 0.911
0.741 -0.721 0.913
0.748 -0.716 0.914
0.753 -0.709 0.914
0.766 -0.711 0.916
0.778 -0.711 0.917
0.784 -0.705 0.918
0.796 -0.705 0.919
0.81 -0.707 0.921
0.816 -0.7 0.922
0.822 -0.693 0.922
0.835 -0.694 0.924
0.848 -0.694 0.926
0.861 -0.693 0.927
0.873 -0.692 0.928
0.879 -0.685 0.929
0.898 -0.69 0.931
0.904 -0.683 0.932
0.917 -0.681 0.934
0.931 -0.68 0.935
0.943 -0.678 0.937
0.956 -0.677 0.938
0.961 -0.668 0.939
0.976 -0.667 0.941
0.99 -0.666 0.942
1.001 -0.662 0.944
1.013 -0.659 0.945
1.025 -0.655 0.947
1.033 -0.649 0.947
1.037 -0.639 0.948
1.062 -0.644 0.951
1.083 -0.645 0.953
1.096 -0.642 0.955
1.109 -0.637 0.956
1.122 -0.633 0.958
1.143 -0.633 0.96
1.157 -0.629 0.962
1.171 -0.624 0.964
1.188 -0.622 0.966
1.203 -0.618 0.968
1.223 -0.616 0.97
1.236 -0.61 0.971
1.256 -0.608 0.974
1.278 -0.606 0.976
1.29 -0.599 0.978
1.31 -0.596 0.98
1.333 -0.594 0.983
1.355 -0.591 0.986
1.369 -0.584 0.987
1.398 -0.584 0.991
1.411 -0.575 0.992
1.441 -0.575 0.996
1.463 -0.57 0.998
1.485 -0.565 1.001
1.515 -0.563 1.004
1.538 -0.557 1.007
1.558 -0.55 1.01
1.999 -0.697 1.062
2.306 -0.788 1.098
2.303 -0.765 1.098
2.301 -0.743 1.098
2.3 -0.721 1.097
2.297 -0.699 1.097
2.295 -0.677 1.097
2.292 -0.655 1.096
2.291 -0.634 1.096
2.289 -0.612 1.096
2.283 -0.59 1.095
2.282 -0.569 1.095
2.28 -0.548 1.095
2.278 -0.527 1.095
2.281 -0.508 1.095
2.279 -0.487 1.095
2.274 -0.466 1.094
2.269 -0.445 1.094
2.266 -0.425 1.093
2.27 -0.406 1.094
2.264 -0.385 1.093
2.258 -0.364 1.092
2.262 -0.345 1.093
2.256 -0.325 1.092
2.251 -0.305 1.092
3.426 -0.441 1.231
3.425 -0.412 1.231
3.356 -0.374 1.222
3.415 -0.351 1.229
3.408 -0.321 1.229
3.404 -0.291 1.228
3.397 -0.262 1.227
3.399 -0.233 1.227
3.402 -0.204 1.228
3.386 -0.174 1.226
3.874 -0.166 1.284
3.877 -0.133 1.284
4.033 -0.104 1.302
4.231 -0.073 1.326
4.304 -0.037 1.335
4.281 -0 1.332
4.569 0.039 1.366
4.513 0.078 1.359
4.779 0.123 1.391
4.696 0.162 1.381
4.912 0.212 1.407
4.778 0.247 1.391
4.934 0.298 1.409
4.498 0.31 1.358
5.021 0.39 1.419
4.486 0.387 1.356
5.009 0.476 1.418
4.511 0.467 1.359
4.677 0.525 1.379
4.512 0.546 1.359
4.659 0.605 1.377
4.521 0.626 1.36
4.673 0.689 1.378
4.537 0.708 1.362
4.687 0.774 1.38
4.551 0.791 1.364
4.674 0.854 1.378
4.558 0.873 1.365
4.693 0.942 1.381
4.552 0.954 1.364
4.716 1.031 1.383
4.582 1.043 1.368
4.725 1.119 1.384
4.583 1.126 1.368
4.737 1.209 1.386
4.587 1.212 1.368
4.751 1.3 1.387
4.597 1.3 1.369
4.754 1.389 1.388
4.226 1.271 1.325
4.093 1.269 1.31
4.318 1.381 1.336
3.826 1.257 1.278
3.692 1.247 1.262
3.725 1.294 1.266
3.692 1.318 1.262
3.709 1.36 1.264
3.611 1.359 1.253
3.167 1.218 1.2
3.164 1.248 1.2
3.162 1.279 1.199
3.166 1.312 1.2
3.155 1.339 1.199
3.151 1.369 1.198
3.155 1.404 1.199
3.143 1.431 1.197
3.137 1.46 1.196
3.141 1.495 1.197
3.13 1.523 1.196
3.124 1.554 1.195
3.127 1.588 1.195
3.122 1.62 1.195
3.106 1.645 1.193
2.024 1.076 1.065
2.026 1.1 1.065
2.023 1.12 1.065
2.021 1.141 1.064
2.019 1.163 1.064
2.018 1.186 1.064
2.014 1.207 1.064
2.003 1.223 1.062
2 1.245 1.062
1.998 1.267 1.062
2 1.293 1.062
1.997 1.315 1.062
1.991 1.336 1.061
1.987 1.358 1.06
1.98 1.378 1.06
1.703 1.197 1.027
1.338 0.942 0.983
1.326 0.95 0.982
1.303 0.949 0.979
1.274 0.943 0.976
1.251 0.941 0.973
1.224 0.936 0.97
1.199 0.932 0.967
1.172 0.925 0.964
1.159 0.93 0.962
1.131 0.922 0.959
1.109 0.918 0.956
1.089 0.916 0.954
1.068 0.913 0.952
1.054 0.915 0.95
1.033 0.911 0.947
1.013 0.907 0.945
0.998 0.908 0.943
0.978 0.903 0.941
0.964 0.905 0.939
0.944 0.899 0.937
0.93 0.9 0.935
0.91 0.894 0.933
0.896 0.895 0.931
0.883 0.895 0.93
0.863 0.888 0.927
0.85 0.888 0.926
0.836 0.888 0.924
0.823 0.888 0.923
0.803 0.879 0.92
0.792 0.881 0.919
0.779 0.88 0.917
0.766 0.878 0.916
0.753 0.877 0.914
0.74 0.876 0.913
0.727 0.875 0.911
0.714 0.872 0.91
0.701 0.869 0.908
0.688 0.866 0.907
0.681 0.872 0.906
0.664 0.863 0.904
0.656 0.867 0.903
0.643 0.864 0.901
0.63 0.86 0.9
0.617 0.856 0.898
0.61 0.861 0.897
0.597 0.856 0.896
0.585 0.853 0.894
0.574 0.849 0.893
0.566 0.854 0.892
0.554 0.849 0.891
0.547 0.853 0.89
0.536 0.85 0.889
0.528 0.854 0.888
0.518 0.851 0.886
0.506 0.845 0.885
0.499 0.849 0.884
0.488 0.846 0.883
0.477 0.842 0.882
0.47 0.846 0.881
0.459 0.84 0.88
0.452 0.844 0.879
0.441 0.837 0.877
0.434 0.841 0.877
0.423 0.836 0.875
0.417 0.84 0.874
0.409 0.841 0.874
0.398 0.834 0.872
0.391 0.837 0.871
0.381 0.831 0.87
0.373 0.834 0.869
0.362 0.824 0.868
0.355 0.826 0.867
0.345 0.82 0.866
0.339 0.824 0.865
0.316 0.772 0.863
0.289 0.7 0.859
0.281 0.695 0.858
0.275 0.695 0.858
0.269 0.697 0.857
0.263 0.697 0.856
0.255 0.694 0.855
0.249 0.694 0.855
0.243 0.694 0.854
0.237 0.695 0.853
0.231 0.696 0.852
0.225 0.697 0.852
0.217 0.688 0.851
0.212 0.693 0.85
0.205 0.689 0.849
0.199 0.693 0.849
0.193 0.692 0.848
0.187 0.693 0.847
0.18 0.684 0.846
0.174 0.685 0.846
0.168 0.684 0.845
0.162 0.686 0.844
0.156 0.686 0.844
0.15 0.69 0.843
0.144 0.687 0.842
0.138 0.69 0.842
0.132 0.69 0.841
0.126 0.69 0.84
0.12 0.689 0.839
0.114 0.683 0.839
0.108 0.687 0.838
0.102 0.678 0.837
0.096 0.687 0.837
0.096 -0.37 0.837
0.099 -0.377 0.838
0.103 -0.377 0.838
0.106 -0.377 0.839
0.109 -0.377 0.839
0.112 -0.376 0.839
0.116 -0.373 0.84
0.119 -0.375 0.84
0.122 -0.375 0.841
0.125 -0.376 0.841
0.129 -0.375 0.841
0.132 -0.374 0.842
0.135 -0.373 0.842
0.138 -0.373 0.843
0.142 -0.374 0.843
0.145 -0.373 0.843
0.148 -0.371 0.844
0.152 -0.374 0.844
0.154 -0.366 0.845
0.157 -0.367 0.845
0.16 -0.367 0.845
0.163 -0.365 0.846
0.166 -0.363 0.846
0.17 -0.366 0.847
0.172 -0.362 0.847
0.175 -0.358 0.847
0.179 -0.362 0.848
0.182 -0.361 0.848
0.185 -0.361 0.849
0.189 -0.361 0.849
0.19 -0.354 0.849
0.196 -0.361 0.85
0.196 -0.353 0.85
0.2 -0.353 0.85
0.206 -0.363 0.851
0.207 -0.356 0.851
0.211 -0.357 0.852
0.214 -0.355 0.852
0.217 -0.355 0.853
0.221 -0.354 0.853
0.227 -0.362 0.854
0.227 -0.354 0.854
0.234 -0.361 0.855
0.234 -0.352 0.855
0.237 -0.352 0.855
0.24 -0.351 0.855
0.246 -0.356 0.856
0.25 -0.356 0.857
0.252 -0.354 0.857
0.256 -0.354 0.857
0.259 -0.353 0.858
0.262 -0.351 0.858
0.265 -0.35 0.859
0.268 -0.348 0.859
0.276 -0.356 0.86
0.279 -0.354 0.86
0.282 -0.352 0.861
0.285 -0.351 0.861
0.288 -0.349 0.861
0.295 -0.354 0.862
0.294 -0.346 0.862
0.297 -0.344 0.863
0.305 -0.35 0.864
0.308 -0.349 0.864
0.312 -0.348 0.864
0.314 -0.345 0.865
0.318 -0.344 0.865
0.321 -0.342 0.866
0.323 -0.339 0.866
0.331 -0.344 0.867
0.334 -0.342 0.867
0.336 -0.339 0.868
0.38 -0.394 0.873
0.469 -0.508 0.884
0.625 -0.708 0.904
0.638 -0.712 0.906
0.656 -0.722 0.908
0.666 -0.722 0.909
0.677 -0.724 0.911
0.69 -0.726 0.912
0.696 -0.721 0.913
0.708 -0.722 0.914
0.714 -0.717 0.915
0.728 -0.72 0.917
0.733 -0.713 0.918
0.747 -0.716 0.919
0.752 -0.709 0.92
0.765 -0.71 0.922
0.777 -0.711 0.923
0.783 -0.705 0.924
0.796 -0.706 0.926
0.809 -0.707 0.927
0.815 -0.7 0.928
0.828 -0.7 0.93
0.834 -0.694 0.93
0.847 -0.694 0.932
0.86 -0.693 0.934
0.865 -0.686 0.934
0.885 -0.691 0.937
0.89 -0.683 0.937
0.903 -0.683 0.939
0.916 -0.681 0.941
0.93 -0.68 0.942
0.942 -0.678 0.944
0.948 -0.67 0.945
0.962 -0.67 0.946
0.976 -0.668 0.948
0.989 -0.666 0.95
1 -0.662 0.951
1.005 -0.653 0.952
1.024 -0.655 0.954
1.04 -0.654 0.956
1.036 -0.639 0.956
1.057 -0.641 0.958
1.08 -0.644 0.961
1.095 -0.642 0.963
1.107 -0.637 0.965
1.129 -0.638 0.967
1.142 -0.633 0.969
1.157 -0.63 0.971
1.169 -0.624 0.973
1.188 -0.623 0.975
1.201 -0.617 0.977
1.222 -0.616 0.979
1.234 -0.61 0.981
1.249 -0.605 0.983
1.276 -0.606 0.986
1.289 -0.6 0.988
1.31 -0.597 0.99
1.332 -0.594 0.993
1.353 -0.591 0.996
1.374 -0.587 0.998
1.396 -0.583 1.001
1.416 -0.579 1.004
1.44 -0.575 1.007
1.461 -0.57 1.009
1.483 -0.565 1.012
1.514 -0.563 1.016
1.536 -0.557 1.019
1.553 -0.549 1.021
2.009 -0.702 1.078
2.303 -0.788 1.115
2.301 -0.765 1.115
2.3 -0.743 1.115
2.297 -0.721 1.115
2.295 -0.699 1.114
2.293 -0.677 1.114
2.29 -0.655 1.114
2.289 -0.634 1.114
2.276 -0.609 1.112
2.283 -0.591 1.113
2.281 -0.57 1.113
2.278 -0.548 1.112
2.275 -0.527 1.112
2.28 -0.508 1.112
2.276 -0.487 1.112
2.282 -0.468 1.113
2.267 -0.445 1.111
2.262 -0.424 1.11
2.258 -0.404 1.11
2.261 -0.385 1.11
2.256 -0.364 1.109
2.259 -0.345 1.11
2.253 -0.325 1.109
2.248 -0.305 1.108
3.424 -0.442 1.257
3.422 -0.412 1.256
3.415 -0.381 1.256
3.411 -0.351 1.255
3.405 -0.321 1.254
3.399 -0.291 1.254
3.394 -0.262 1.253
3.396 -0.233 1.253
3.39 -0.203 1.252
