# .PCD v0.7 - Point Cloud Data file format
VERSION 0.7
FIELDS x y z
SIZE 4 4 4
TYPE F F F
COUNT 1 1 1
WIDTH 2497
HEIGHT 1
VIEWPOINT 0 0 0 1 0 0 0
POINTS 2497
DATA ascii
0.3 -0.461 0.827
0.305 -0.461 0.827
0.31 -0.46 0.827
0.314 -0.459 0.827
0.322 -0.465 0.827
0.326 -0.465 0.827
0.33 -0.463 0.827
0.334 -0.46 0.827
0.339 -0.459 0.827
0.348 -0.466 0.828
0.351 -0.462 0.828
0.36 -0.469 0.828
0.364 -0.467 0.828
0.367 -0.463 0.828
0.375 -0.467 0.828
0.379 -0.465 0.828
0.384 -0.464 0.828
0.394 -0.472 0.828
0.399 -0.47 0.828
0.402 -0.465 0.828
0.411 -0.47 0.828
0.415 -0.467 0.828
0.42 -0.466 0.828
0.428 -0.469 0.828
0.438 -0.475 0.828
0.482 -0.527 0.829
0.494 -0.532 0.829
0.501 -0.532 0.829
0.506 -0.53 0.829
0.509 -0.523 0.829
0.516 -0.523 0.829
0.56 -0.569 0.829
0.975 -1.062 0.832
0.982 -1.052 0.832
0.989 -1.041 0.832
0.995 -1.03 0.832
0.989 -1.005 0.832
0.998 -0.997 0.832
0.998 -0.98 0.832
1 -0.965 0.832
1.004 -0.953 0.832
0.997 -0.929 0.832
1.004 -0.92 0.832
1.01 -0.91 0.832
1.006 -0.891 0.832
1.006 -0.875 0.832
1.009 -0.863 0.832
1.016 -0.855 0.832
1.013 -0.836 0.832
1.01 -0.82 0.832
1.008 -0.803 0.832
1.01 -0.791 0.832
1.027 -0.792 0.833
1.05 -0.798 0.833
1.1 -0.824 0.833
2.643 -2.059 0.844
2.631 -2.014 0.844
2.574 -1.933 0.844
2.512 -1.851 0.843
2.505 -1.813 0.843
2.515 -1.787 0.843
2.514 -1.754 0.843
2.697 -1.852 0.845
2.678 -1.805 0.845
2.616 -1.729 0.844
2.514 -1.628 0.843
2.519 -1.601 0.843
2.506 -1.563 0.843
2.698 -1.655 0.845
2.526 -1.516 0.843
2.526 -1.487 0.843
2.52 -1.454 0.843
2.519 -1.425 0.843
2.676 -1.487 0.845
2.669 -1.454 0.844
2.676 -1.428 0.845
2.69 -1.407 0.845
2.67 -1.367 0.845
2.674 -1.34 0.845
2.686 -1.318 0.845
2.698 -1.295 0.845
2.718 -1.277 0.845
2.721 -1.25 0.845
2.714 -1.219 0.845
2.708 -1.189 0.845
2.681 -1.149 0.845
2.699 -1.13 0.845
2.689 -1.099 0.845
2.699 -1.076 0.845
2.713 -1.056 0.845
2.672 -1.013 0.845
2.724 -1.007 0.845
2.716 -0.978 0.845
2.666 -0.934 0.844
2.734 -0.933 0.845
2.746 -0.911 0.845
2.656 -0.855 0.844
2.744 -0.859 0.845
2.742 -0.833 0.845
2.686 -0.791 0.845
2.716 -0.775 0.845
2.715 -0.75 0.845
2.712 -0.724 0.845
2.703 -0.698 0.845
2.707 -0.674 0.845
2.699 -0.648 0.845
2.713 -0.628 0.845
2.715 -0.604 0.845
2.72 -0.581 0.845
2.716 -0.556 0.845
2.722 -0.534 0.845
2.702 -0.506 0.845
2.713 -0.484 0.845
2.715 -0.461 0.845
2.566 -0.413 0.844
2.57 -0.391 0.844
2.565 -0.368 0.844
2.563 -0.346 0.844
2.559 -0.324 0.844
2.573 -0.304 0.844
2.569 -0.281 0.844
2.568 -0.259 0.844
2.573 -0.238 0.844
2.572 -0.216 0.844
2.573 -0.195 0.844
2.576 -0.173 0.844
2.58 -0.152 0.844
2.573 -0.13 0.844
2.585 -0.109 0.844
2.582 -0.087 0.844
2.577 -0.065 0.844
2.584 -0.043 0.844
2.581 -0.022 0.844
2.582 -0 0.844
2.585 0.022 0.844
2.585 0.043 0.844
2.595 0.065 0.844
2.591 0.087 0.844
2.588 0.109 0.844
2.59 0.131 0.844
2.589 0.152 0.844
2.59 0.174 0.844
2.595 0.196 0.844
2.605 0.219 0.844
2.604 0.241 0.844
2.598 0.263 0.844
2.599 0.285 0.844
2.603 0.307 0.844
2.609 0.33 0.844
2.6 0.351 0.844
2.606 0.375 0.844
2.603 0.396 0.844
2.61 0.42 0.844
2.617 0.444 0.844
2.606 0.465 0.844
2.602 0.486 0.844
2.613 0.511 0.844
2.603 0.532 0.844
2.622 0.559 0.844
2.623 0.583 0.844
2.622 0.606 0.844
2.618 0.628 0.844
2.618 0.651 0.844
2.628 0.677 0.844
2.622 0.699 0.844
2.635 0.727 0.844
2.631 0.75 0.844
2.641 0.777 0.844
2.642 0.802 0.844
2.642 0.826 0.844
2.645 0.852 0.844
2.638 0.874 0.844
2.642 0.9 0.844
2.645 0.927 0.844
2.637 0.949 0.844
2.649 0.979 0.844
2.651 1.005 0.844
2.669 1.038 0.844
2.676 1.067 0.845
2.66 1.087 0.844
2.676 1.12 0.845
2.834 1.217 0.846
2.837 1.247 0.846
2.833 1.275 0.846
2.849 1.311 0.846
2.789 1.312 0.845
2.8 1.346 0.845
2.775 1.363 0.845
2.772 1.391 0.845
2.784 1.427 0.845
2.785 1.458 0.845
2.786 1.489 0.845
2.775 1.514 0.845
2.774 1.544 0.845
2.76 1.567 0.845
2.694 1.559 0.845
2.74 1.618 0.845
2.752 1.657 0.845
2.761 1.696 0.845
2.748 1.72 0.845
2.561 1.629 0.844
2.414 1.561 0.843
2.716 1.798 0.845
2.717 1.833 0.845
2.75 1.89 0.845
2.748 1.924 0.845
2.728 1.945 0.845
2.746 1.994 0.845
2.743 2.028 0.845
2.721 2.048 0.845
2.657 2.034 0.844
2.378 1.845 0.842
2.305 1.818 0.842
2.334 1.874 0.842
1.431 1.137 0.835
1.424 1.151 0.835
1.411 1.16 0.835
1.514 1.273 0.836
2.059 1.795 0.84
2.029 1.799 0.84
2 1.803 0.84
1.975 1.811 0.839
1.951 1.82 0.839
1.922 1.822 0.839
1.894 1.826 0.839
1.866 1.829 0.839
1.843 1.837 0.838
1.818 1.843 0.838
1.79 1.845 0.838
1.761 1.845 0.838
1.739 1.853 0.838
1.717 1.86 0.838
1.69 1.861 0.837
1.269 1.393 0.834
1.292 1.447 0.834
1.688 1.962 0.837
1.695 2.005 0.837
1.702 2.05 0.837
1.456 1.768 0.836
0.519 0.557 0.829
0.509 0.553 0.829
0.5 0.551 0.829
0.495 0.554 0.829
0.49 0.558 0.829
0.486 0.561 0.829
0.475 0.556 0.828
0.47 0.56 0.828
0.465 0.563 0.828
0.46 0.566 0.828
0.455 0.569 0.828
0.446 0.564 0.828
0.441 0.567 0.828
0.435 0.57 0.828
0.426 0.565 0.828
0.421 0.567 0.828
0.416 0.57 0.828
0.411 0.573 0.828
0.406 0.576 0.828
0.397 0.57 0.828
0.392 0.573 0.828
0.387 0.575 0.828
0.382 0.578 0.828
0.377 0.58 0.828
0.368 0.576 0.828
0.363 0.578 0.828
0.357 0.578 0.828
0.353 0.582 0.828
0.347 0.583 0.828
0.342 0.585 0.827
0.334 0.579 0.827
0.329 0.582 0.827
0.324 0.583 0.827
0.319 0.585 0.827
0.314 0.587 0.827
0.308 0.587 0.827
0.303 0.589 0.827
0.297 0.591 0.827
0.292 0.593 0.827
0.287 0.594 0.827
0.282 0.596 0.827
0.277 0.597 0.827
0.272 0.599 0.827
0.264 0.592 0.827
0.259 0.593 0.827
0.254 0.596 0.827
0.249 0.598 0.827
0.243 0.597 0.827
0.238 0.598 0.827
0.233 0.601 0.827
0.228 0.603 0.827
0.223 0.604 0.827
0.217 0.603 0.827
0.212 0.606 0.827
0.207 0.607 0.827
0.201 0.608 0.826
0.196 0.606 0.826
0.191 0.609 0.826
0.185 0.608 0.826
0.18 0.609 0.826
0.175 0.611 0.826
0.169 0.61 0.826
0.164 0.61 0.826
0.159 0.61 0.826
0.154 0.62 0.826
0.148 0.611 0.826
0.143 0.62 0.826
0.138 0.621 0.826
0.132 0.611 0.826
0.127 0.621 0.826
0.121 0.62 0.826
0.116 0.621 0.826
0.111 0.622 0.826
0.105 0.621 0.826
0.1 0.621 0.826
0.1 -0.431 0.826
0.104 -0.438 0.826
0.107 -0.437 0.826
0.111 -0.435 0.826
0.115 -0.434 0.826
0.119 -0.442 0.826
0.123 -0.443 0.826
0.127 -0.44 0.826
0.131 -0.448 0.826
0.134 -0.44 0.826
0.139 -0.447 0.827
0.142 -0.439 0.827
0.146 -0.442 0.827
0.15 -0.443 0.827
0.155 -0.447 0.827
0.158 -0.445 0.827
0.163 -0.448 0.827
0.166 -0.444 0.827
0.172 -0.454 0.827
0.174 -0.447 0.827
0.179 -0.448 0.827
0.182 -0.445 0.827
0.186 -0.442 0.827
0.191 -0.449 0.827
0.194 -0.445 0.827
0.198 -0.442 0.827
0.203 -0.449 0.827
0.206 -0.442 0.827
0.212 -0.449 0.827
0.215 -0.447 0.827
0.219 -0.446 0.827
0.225 -0.453 0.827
0.229 -0.451 0.828
0.233 -0.451 0.828
0.237 -0.45 0.828
0.244 -0.458 0.828
0.246 -0.449 0.828
0.251 -0.453 0.828
0.256 -0.453 0.828
0.26 -0.452 0.828
0.264 -0.452 0.828
0.269 -0.453 0.828
0.273 -0.452 0.828
0.277 -0.451 0.828
0.284 -0.457 0.828
0.292 -0.465 0.828
0.297 -0.464 0.828
0.297 -0.453 0.828
0.306 -0.462 0.828
0.31 -0.46 0.828
0.314 -0.459 0.828
0.318 -0.457 0.829
0.326 -0.465 0.829
0.33 -0.463 0.829
0.338 -0.468 0.829
0.339 -0.459 0.829
0.347 -0.465 0.829
0.351 -0.462 0.829
0.355 -0.461 0.829
0.364 -0.467 0.829
0.367 -0.463 0.829
0.375 -0.468 0.829
0.38 -0.466 0.829
0.389 -0.472 0.829
0.394 -0.471 0.829
0.397 -0.467 0.829
0.403 -0.466 0.829
0.407 -0.464 0.83
0.415 -0.467 0.83
0.42 -0.466 0.83
0.428 -0.469 0.83
0.438 -0.474 0.83
0.482 -0.527 0.83
0.493 -0.532 0.83
0.501 -0.532 0.831
0.506 -0.529 0.831
0.509 -0.524 0.831
0.516 -0.523 0.831
0.563 -0.572 0.831
0.965 -1.049 0.836
0.99 -1.061 0.836
0.989 -1.041 0.836
0.992 -1.026 0.836
0.998 -1.016 0.836
0.996 -0.995 0.836
0.998 -0.98 0.836
1.002 -0.968 0.836
1.004 -0.953 0.836
1.006 -0.939 0.836
1.007 -0.924 0.836
1.003 -0.903 0.836
1.002 -0.887 0.836
1.008 -0.877 0.836
1.009 -0.863 0.836
1.015 -0.854 0.836
1.012 -0.836 0.836
1.006 -0.816 0.836
1.013 -0.808 0.836
1.019 -0.799 0.836
1.027 -0.792 0.836
1.043 -0.792 0.837
1.039 -0.775 0.837
2.635 -2.053 0.854
2.623 -2.007 0.854
2.584 -1.941 0.854
2.503 -1.845 0.853
2.512 -1.818 0.853
2.508 -1.782 0.853
2.51 -1.752 0.853
2.694 -1.851 0.855
2.677 -1.805 0.855
2.616 -1.73 0.854
2.514 -1.628 0.853
2.517 -1.6 0.853
2.517 -1.57 0.853
2.698 -1.655 0.855
2.513 -1.508 0.853
2.52 -1.483 0.853
2.523 -1.456 0.853
2.523 -1.428 0.853
2.666 -1.481 0.855
2.67 -1.454 0.855
2.684 -1.433 0.855
2.689 -1.406 0.855
2.676 -1.37 0.855
2.674 -1.34 0.855
2.687 -1.318 0.855
2.698 -1.296 0.855
2.709 -1.273 0.855
2.721 -1.25 0.855
2.722 -1.223 0.855
2.718 -1.193 0.855
2.688 -1.152 0.855
2.706 -1.133 0.855
2.689 -1.099 0.855
2.7 -1.077 0.855
2.704 -1.052 0.855
2.664 -1.01 0.855
2.723 -1.007 0.855
2.723 -0.981 0.855
2.666 -0.934 0.855
2.725 -0.93 0.855
2.746 -0.911 0.855
2.656 -0.855 0.854
2.743 -0.859 0.855
2.741 -0.833 0.855
2.694 -0.793 0.855
2.716 -0.775 0.855
2.724 -0.752 0.855
2.712 -0.724 0.855
2.703 -0.698 0.855
2.707 -0.674 0.855
2.698 -0.648 0.855
2.696 -0.623 0.855
2.707 -0.602 0.855
2.71 -0.579 0.855
2.717 -0.556 0.855
2.716 -0.532 0.855
2.702 -0.506 0.855
2.724 -0.486 0.855
2.715 -0.461 0.855
2.56 -0.412 0.853
2.565 -0.39 0.853
2.568 -0.369 0.853
2.559 -0.346 0.853
2.558 -0.324 0.853
2.576 -0.304 0.854
2.569 -0.281 0.853
2.57 -0.26 0.853
2.573 -0.238 0.853
2.575 -0.217 0.854
2.576 -0.195 0.854
2.571 -0.173 0.853
2.58 -0.152 0.854
2.567 -0.129 0.853
2.579 -0.108 0.854
2.58 -0.087 0.854
2.587 -0.065 0.854
2.587 -0.043 0.854
2.576 -0.022 0.854
2.585 -0 0.854
2.581 0.022 0.854
2.58 0.043 0.854
2.595 0.065 0.854
2.591 0.087 0.854
2.591 0.109 0.854
2.59 0.131 0.854
2.595 0.153 0.854
2.599 0.175 0.854
2.596 0.196 0.854
2.599 0.219 0.854
2.584 0.239 0.854
2.596 0.262 0.854
2.589 0.284 0.854
2.597 0.307 0.854
2.609 0.33 0.854
2.605 0.352 0.854
2.603 0.374 0.854
2.611 0.398 0.854
2.615 0.421 0.854
2.607 0.442 0.854
2.606 0.465 0.854
2.599 0.486 0.854
2.613 0.511 0.854
2.61 0.534 0.854
2.606 0.556 0.854
2.617 0.581 0.854
2.612 0.603 0.854
2.62 0.629 0.854
2.623 0.652 0.854
2.619 0.675 0.854
2.626 0.701 0.854
2.618 0.722 0.854
2.621 0.747 0.854
2.628 0.773 0.854
2.636 0.8 0.854
2.63 0.822 0.854
2.645 0.852 0.854
2.65 0.878 0.854
2.646 0.902 0.854
2.652 0.929 0.854
2.646 0.952 0.854
2.647 0.978 0.854
2.656 1.007 0.854
2.678 1.042 0.855
2.676 1.067 0.855
2.659 1.087 0.854
2.669 1.117 0.855
2.834 1.217 0.856
2.837 1.247 0.856
2.834 1.275 0.856
2.847 1.31 0.857
2.805 1.319 0.856
2.79 1.341 0.856
2.782 1.367 0.856
2.772 1.391 0.856
2.777 1.423 0.856
2.778 1.454 0.856
2.786 1.489 0.856
2.775 1.514 0.856
2.766 1.54 0.856
2.76 1.567 0.856
2.692 1.557 0.855
2.737 1.616 0.855
2.76 1.662 0.856
2.761 1.696 0.856
2.748 1.72 0.855
2.561 1.629 0.853
2.405 1.555 0.852
2.713 1.796 0.855
2.719 1.834 0.855
2.75 1.89 0.855
2.748 1.924 0.855
2.724 1.942 0.855
2.741 1.99 0.855
2.743 2.028 0.855
2.72 2.047 0.855
2.649 2.028 0.854
2.375 1.843 0.851
2.305 1.818 0.851
2.333 1.874 0.851
1.466 1.167 0.841
1.424 1.151 0.841
1.411 1.16 0.841
1.516 1.275 0.842
2.059 1.796 0.848
2.03 1.8 0.847
2 1.803 0.847
1.975 1.811 0.847
1.951 1.82 0.847
1.922 1.822 0.846
1.895 1.827 0.846
1.865 1.829 0.846
1.842 1.836 0.845
1.819 1.844 0.845
1.791 1.845 0.845
1.767 1.852 0.845
1.739 1.853 0.844
1.717 1.86 0.844
1.689 1.861 0.844
1.264 1.387 0.839
1.292 1.446 0.839
1.688 1.962 0.844
1.695 2.006 0.844
1.696 2.043 0.844
1.456 1.768 0.841
0.517 0.554 0.831
0.514 0.56 0.831
0.506 0.559 0.831
0.495 0.554 0.83
0.49 0.558 0.83
0.481 0.555 0.83
0.475 0.556 0.83
0.47 0.56 0.83
0.465 0.563 0.83
0.46 0.566 0.83
0.455 0.569 0.83
0.446 0.564 0.83
0.441 0.567 0.83
0.436 0.57 0.83
0.431 0.573 0.83
0.421 0.567 0.83
0.416 0.57 0.83
0.411 0.573 0.83
0.406 0.576 0.829
0.401 0.578 0.829
0.392 0.573 0.829
0.387 0.575 0.829
0.382 0.578 0.829
0.377 0.58 0.829
0.368 0.576 0.829
0.362 0.576 0.829
0.358 0.58 0.829
0.353 0.582 0.829
0.347 0.583 0.829
0.342 0.585 0.829
0.334 0.579 0.829
0.329 0.582 0.829
0.324 0.583 0.829
0.319 0.585 0.829
0.313 0.587 0.828
0.308 0.587 0.828
0.303 0.589 0.828
0.297 0.591 0.828
0.292 0.593 0.828
0.287 0.594 0.828
0.282 0.596 0.828
0.277 0.597 0.828
0.269 0.59 0.828
0.264 0.592 0.828
0.259 0.593 0.828
0.254 0.596 0.828
0.248 0.596 0.828
0.243 0.597 0.828
0.238 0.598 0.828
0.233 0.601 0.828
0.228 0.603 0.828
0.223 0.604 0.827
0.217 0.605 0.827
0.212 0.606 0.827
0.206 0.605 0.827
0.201 0.606 0.827
0.196 0.606 0.827
0.191 0.609 0.827
0.185 0.608 0.827
0.18 0.611 0.827
0.175 0.609 0.827
0.169 0.61 0.827
0.164 0.611 0.827
0.159 0.619 0.827
0.154 0.619 0.827
0.148 0.611 0.827
0.143 0.62 0.827
0.138 0.619 0.827
0.132 0.621 0.826
0.127 0.62 0.826
0.121 0.621 0.826
0.116 0.621 0.826
0.111 0.622 0.826
0.105 0.621 0.826
0.1 0.621 0.826
0.1 -0.43 0.827
0.103 -0.438 0.827
0.107 -0.437 0.827
0.111 -0.435 0.827
0.115 -0.442 0.827
0.118 -0.433 0.827
0.123 -0.443 0.827
0.126 -0.44 0.827
0.13 -0.439 0.827
0.135 -0.449 0.827
0.138 -0.439 0.828
0.142 -0.44 0.828
0.147 -0.45 0.828
0.15 -0.442 0.828
0.154 -0.448 0.828
0.158 -0.444 0.828
0.162 -0.447 0.828
0.166 -0.444 0.828
0.17 -0.445 0.828
0.173 -0.439 0.828
0.179 -0.448 0.828
0.182 -0.445 0.828
0.186 -0.443 0.828
0.189 -0.44 0.828
0.196 -0.453 0.829
0.198 -0.443 0.829
0.201 -0.44 0.829
0.205 -0.441 0.829
0.212 -0.449 0.829
0.215 -0.447 0.829
0.219 -0.446 0.829
0.225 -0.453 0.829
0.229 -0.451 0.829
0.233 -0.451 0.829
0.237 -0.45 0.829
0.241 -0.448 0.829
0.245 -0.449 0.83
0.251 -0.454 0.83
0.255 -0.453 0.83
0.26 -0.452 0.83
0.267 -0.46 0.83
0.269 -0.453 0.83
0.276 -0.459 0.83
0.277 -0.451 0.83
0.284 -0.457 0.83
0.288 -0.455 0.83
0.293 -0.456 0.83
0.3 -0.462 0.831
0.309 -0.47 0.831
0.31 -0.461 0.831
0.317 -0.467 0.831
0.321 -0.465 0.831
0.326 -0.465 0.831
0.33 -0.463 0.831
0.334 -0.46 0.831
0.339 -0.459 0.831
0.347 -0.466 0.831
0.35 -0.462 0.831
0.355 -0.462 0.832
0.359 -0.459 0.832
0.367 -0.463 0.832
0.376 -0.469 0.832
0.379 -0.465 0.832
0.384 -0.465 0.832
0.389 -0.463 0.832
0.399 -0.47 0.832
0.402 -0.466 0.832
0.411 -0.471 0.833
0.414 -0.467 0.833
0.42 -0.466 0.833
0.428 -0.469 0.833
0.437 -0.474 0.833
0.483 -0.527 0.834
0.493 -0.532 0.834
0.501 -0.533 0.834
0.506 -0.53 0.834
0.509 -0.524 0.834
0.515 -0.522 0.834
0.561 -0.57 0.835
0.964 -1.049 0.843
0.984 -1.054 0.843
0.988 -1.041 0.843
0.99 -1.024 0.843
1 -1.018 0.843
0.991 -0.991 0.843
0.999 -0.982 0.843
1.002 -0.968 0.843
1.002 -0.951 0.843
1.004 -0.937 0.843
1.007 -0.924 0.844
1.004 -0.905 0.843
1.008 -0.893 0.844
0.999 -0.869 0.843
1.015 -0.869 0.844
1.014 -0.853 0.844
1.019 -0.842 0.844
1.007 -0.817 0.844
1.007 -0.803 0.844
1.012 -0.793 0.844
1.026 -0.792 0.844
1.05 -0.798 0.844
1.062 -0.794 0.845
2.643 -2.06 0.874
2.63 -2.013 0.873
2.584 -1.941 0.872
2.51 -1.85 0.871
2.511 -1.817 0.871
2.513 -1.786 0.871
2.517 -1.757 0.871
2.696 -1.852 0.875
2.67 -1.8 0.874
2.616 -1.73 0.873
2.511 -1.627 0.871
2.519 -1.602 0.871
2.514 -1.568 0.871
2.698 -1.655 0.875
2.517 -1.511 0.871
2.523 -1.485 0.871
2.529 -1.46 0.871
2.519 -1.425 0.871
2.676 -1.487 0.874
2.669 -1.454 0.874
2.676 -1.428 0.874
2.681 -1.402 0.874
2.676 -1.37 0.874
2.672 -1.34 0.874
2.695 -1.322 0.875
2.699 -1.296 0.875
2.717 -1.277 0.875
2.719 -1.25 0.875
2.711 -1.218 0.875
2.716 -1.193 0.875
2.687 -1.152 0.874
2.706 -1.134 0.875
2.681 -1.096 0.874
2.691 -1.073 0.874
2.703 -1.052 0.875
2.672 -1.013 0.874
2.723 -1.007 0.875
2.714 -0.978 0.875
2.659 -0.932 0.874
2.735 -0.933 0.875
2.746 -0.911 0.875
2.647 -0.853 0.874
2.743 -0.859 0.875
2.75 -0.836 0.876
2.686 -0.791 0.874
2.717 -0.775 0.875
2.733 -0.755 0.875
2.711 -0.724 0.875
2.711 -0.7 0.875
2.705 -0.674 0.875
2.699 -0.648 0.875
2.702 -0.625 0.875
2.714 -0.604 0.875
2.719 -0.581 0.875
2.708 -0.555 0.875
2.713 -0.532 0.875
2.701 -0.506 0.875
2.714 -0.485 0.875
2.717 -0.462 0.875
2.56 -0.412 0.872
2.555 -0.389 0.872
2.568 -0.369 0.872
2.562 -0.346 0.872
2.563 -0.324 0.872
2.576 -0.304 0.872
2.568 -0.281 0.872
2.577 -0.26 0.872
2.587 -0.24 0.873
2.575 -0.217 0.872
2.575 -0.195 0.872
2.566 -0.173 0.872
2.581 -0.152 0.872
2.567 -0.129 0.872
2.579 -0.108 0.872
2.576 -0.086 0.872
2.576 -0.065 0.872
2.584 -0.043 0.872
2.576 -0.022 0.872
2.582 -0 0.872
2.584 0.022 0.872
2.585 0.043 0.873
2.588 0.065 0.873
2.591 0.087 0.873
2.591 0.109 0.873
2.599 0.131 0.873
2.591 0.152 0.873
2.593 0.174 0.873
2.586 0.196 0.873
2.603 0.219 0.873
2.594 0.24 0.873
2.609 0.264 0.873
2.603 0.285 0.873
2.605 0.308 0.873
2.603 0.33 0.873
2.608 0.353 0.873
2.601 0.374 0.873
2.602 0.396 0.873
2.609 0.42 0.873
2.609 0.443 0.873
2.615 0.466 0.873
2.598 0.486 0.873
2.613 0.511 0.873
2.605 0.533 0.873
2.614 0.558 0.873
2.617 0.581 0.873
2.624 0.606 0.873
2.622 0.629 0.873
2.617 0.651 0.873
2.618 0.675 0.873
2.624 0.7 0.873
2.622 0.724 0.873
2.637 0.752 0.873
2.633 0.775 0.873
2.636 0.8 0.873
2.641 0.826 0.874
2.644 0.852 0.874
2.646 0.877 0.874
2.641 0.9 0.874
2.654 0.93 0.874
2.644 0.952 0.874
2.654 0.981 0.874
2.662 1.01 0.874
2.661 1.035 0.874
2.685 1.071 0.874
2.662 1.088 0.874
2.66 1.114 0.874
2.833 1.217 0.877
2.837 1.248 0.877
2.832 1.275 0.877
2.847 1.31 0.877
2.796 1.316 0.876
2.79 1.342 0.876
2.782 1.367 0.876
2.771 1.391 0.876
2.776 1.423 0.876
2.786 1.459 0.876
2.785 1.489 0.876
2.776 1.515 0.876
2.773 1.544 0.876
2.759 1.567 0.876
2.685 1.554 0.874
2.737 1.617 0.875
2.759 1.662 0.876
2.767 1.699 0.876
2.748 1.721 0.876
2.561 1.629 0.872
2.413 1.561 0.869
2.704 1.79 0.875
2.719 1.834 0.875
2.749 1.89 0.876
2.752 1.927 0.876
2.72 1.94 0.875
2.74 1.99 0.875
2.74 2.027 0.875
2.716 2.045 0.875
2.657 2.034 0.874
2.371 1.84 0.869
2.309 1.822 0.867
2.333 1.874 0.868
1.441 1.146 0.851
1.424 1.151 0.851
1.411 1.16 0.851
1.513 1.273 0.853
2.058 1.795 0.863
2.029 1.799 0.862
2 1.803 0.862
1.975 1.811 0.861
1.952 1.82 0.861
1.921 1.822 0.86
1.894 1.827 0.86
1.865 1.829 0.859
1.842 1.837 0.859
1.812 1.837 0.858
1.79 1.845 0.858
1.76 1.844 0.857
1.739 1.853 0.857
1.716 1.86 0.857
1.688 1.861 0.856
1.268 1.393 0.848
1.304 1.461 0.849
1.688 1.962 0.856
1.7 2.012 0.856
1.701 2.05 0.856
1.456 1.768 0.852
0.513 0.549 0.834
0.514 0.56 0.834
0.506 0.559 0.834
0.495 0.554 0.834
0.49 0.558 0.834
0.485 0.561 0.834
0.475 0.556 0.834
0.47 0.56 0.834
0.465 0.563 0.834
0.46 0.566 0.833
0.455 0.569 0.833
0.445 0.564 0.833
0.44 0.567 0.833
0.435 0.57 0.833
0.43 0.573 0.833
0.425 0.576 0.833
0.416 0.57 0.833
0.411 0.573 0.833
0.401 0.568 0.832
0.396 0.57 0.832
0.391 0.573 0.832
0.386 0.575 0.832
0.381 0.578 0.832
0.376 0.58 0.832
0.368 0.576 0.832
0.363 0.578 0.832
0.361 0.587 0.832
0.353 0.582 0.831
0.348 0.585 0.831
0.342 0.585 0.831
0.333 0.578 0.831
0.329 0.582 0.831
0.323 0.583 0.831
0.318 0.585 0.831
0.313 0.587 0.831
0.308 0.589 0.831
0.302 0.589 0.831
0.297 0.591 0.83
0.292 0.593 0.83
0.287 0.594 0.83
0.282 0.596 0.83
0.276 0.597 0.83
0.271 0.599 0.83
0.264 0.592 0.83
0.258 0.593 0.83
0.253 0.594 0.83
0.249 0.598 0.83
0.245 0.606 0.83
0.238 0.598 0.829
0.232 0.599 0.829
0.228 0.603 0.829
0.222 0.604 0.829
0.217 0.603 0.829
0.211 0.604 0.829
0.206 0.605 0.829
0.201 0.606 0.829
0.196 0.606 0.829
0.191 0.609 0.829
0.185 0.61 0.828
0.18 0.611 0.828
0.174 0.609 0.828
0.169 0.61 0.828
0.164 0.611 0.828
0.158 0.61 0.828
0.153 0.609 0.828
0.148 0.619 0.828
0.142 0.612 0.828
0.137 0.621 0.828
0.132 0.621 0.827
0.127 0.62 0.827
0.121 0.621 0.827
0.116 0.622 0.827
0.11 0.622 0.827
0.105 0.622 0.827
0.1 0.622 0.827
0.099 -0.441 0.828
0.103 -0.438 0.828
0.107 -0.437 0.828
0.111 -0.435 0.828
0.114 -0.433 0.828
0.119 -0.442 0.828
0.122 -0.434 0.828
0.126 -0.44 0.828
0.13 -0.441 0.828
0.134 -0.439 0.828
0.138 -0.447 0.829
0.142 -0.44 0.829
0.146 -0.442 0.829
0.15 -0.442 0.829
0.154 -0.448 0.829
0.158 -0.444 0.829
0.162 -0.447 0.829
0.166 -0.445 0.829
0.17 -0.445 0.829
0.174 -0.447 0.829
0.178 -0.448 0.83
0.18 -0.436 0.83
0.185 -0.443 0.83
0.191 -0.449 0.83
0.194 -0.445 0.83
0.197 -0.442 0.83
0.203 -0.449 0.83
0.207 -0.45 0.83
0.212 -0.45 0.83
0.215 -0.448 0.831
0.219 -0.446 0.831
0.223 -0.445 0.831
0.229 -0.451 0.831
0.232 -0.45 0.831
0.237 -0.45 0.831
0.241 -0.449 0.831
0.245 -0.448 0.831
0.251 -0.454 0.831
0.255 -0.453 0.832
0.259 -0.452 0.832
0.264 -0.452 0.832
0.272 -0.461 0.832
0.273 -0.452 0.832
0.28 -0.46 0.832
0.284 -0.457 0.832
0.288 -0.455 0.832
0.293 -0.456 0.833
0.3 -0.462 0.833
0.305 -0.462 0.833
0.309 -0.46 0.833
0.313 -0.459 0.833
0.317 -0.457 0.833
0.322 -0.457 0.833
0.33 -0.463 0.833
0.334 -0.46 0.834
0.343 -0.468 0.834
0.347 -0.465 0.834
0.35 -0.462 0.834
0.355 -0.462 0.834
0.363 -0.467 0.834
0.367 -0.463 0.834
0.374 -0.467 0.835
0.379 -0.465 0.835
0.383 -0.463 0.835
0.394 -0.472 0.835
0.398 -0.469 0.835
0.402 -0.466 0.835
0.406 -0.464 0.835
0.415 -0.468 0.836
0.419 -0.465 0.836
0.427 -0.469 0.836
0.431 -0.466 0.836
0.477 -0.52 0.837
0.494 -0.533 0.838
0.501 -0.533 0.838
0.506 -0.53 0.838
0.508 -0.523 0.838
0.515 -0.523 0.838
0.555 -0.563 0.839
0.964 -1.049 0.85
0.985 -1.056 0.85
0.988 -1.041 0.85
0.995 -1.03 0.851
0.994 -1.012 0.851
0.997 -0.997 0.851
0.997 -0.98 0.851
1.001 -0.968 0.851
0.999 -0.949 0.851
1.003 -0.937 0.851
1.001 -0.918 0.851
0.998 -0.899 0.851
1.001 -0.887 0.851
1.008 -0.877 0.851
1.008 -0.863 0.851
1.012 -0.852 0.851
1.021 -0.844 0.851
1.012 -0.822 0.851
1.013 -0.809 0.851
1.016 -0.797 0.851
1.024 -0.79 0.851
1.047 -0.796 0.852
1.075 -0.805 0.853
2.641 -2.059 0.893
2.599 -1.989 0.892
2.585 -1.943 0.891
2.505 -1.846 0.889
2.504 -1.813 0.889
2.507 -1.782 0.889
2.52 -1.759 0.89
2.693 -1.851 0.894
2.668 -1.799 0.894
2.615 -1.73 0.892
2.52 -1.633 0.89
2.528 -1.608 0.89
2.516 -1.57 0.89
2.696 -1.655 0.894
2.521 -1.513 0.89
2.517 -1.482 0.89
2.519 -1.454 0.89
2.518 -1.425 0.89
2.676 -1.488 0.894
2.67 -1.455 0.894
2.683 -1.433 0.894
2.689 -1.407 0.894
2.675 -1.37 0.894
2.672 -1.34 0.894
2.695 -1.323 0.894
2.696 -1.295 0.894
2.717 -1.277 0.895
2.728 -1.254 0.895
2.72 -1.223 0.895
2.706 -1.188 0.895
2.687 -1.152 0.894
2.698 -1.13 0.894
2.689 -1.1 0.894
2.698 -1.077 0.894
2.702 -1.052 0.894
2.671 -1.013 0.894
2.713 -1.004 0.895
2.722 -0.981 0.895
2.666 -0.934 0.893
2.725 -0.93 0.895
2.744 -0.911 0.895
2.648 -0.853 0.893
2.742 -0.859 0.895
2.75 -0.836 0.896
2.684 -0.791 0.894
2.715 -0.775 0.895
2.723 -0.752 0.895
2.713 -0.725 0.895
2.703 -0.698 0.894
2.704 -0.674 0.894
2.707 -0.65 0.895
2.702 -0.625 0.894
2.707 -0.602 0.895
2.711 -0.579 0.895
2.714 -0.556 0.895
2.71 -0.531 0.895
2.71 -0.508 0.895
2.712 -0.484 0.895
2.715 -0.461 0.895
2.556 -0.411 0.891
2.569 -0.391 0.891
2.564 -0.368 0.891
2.567 -0.347 0.891
2.559 -0.324 0.891
2.565 -0.303 0.891
2.568 -0.281 0.891
2.562 -0.259 0.891
2.576 -0.239 0.891
2.574 -0.217 0.891
2.578 -0.195 0.891
2.574 -0.173 0.891
2.576 -0.152 0.891
2.569 -0.129 0.891
2.571 -0.108 0.891
2.582 -0.087 0.891
2.583 -0.065 0.891
2.576 -0.043 0.891
2.575 -0.022 0.891
2.584 -0 0.891
2.589 0.022 0.892
2.575 0.043 0.891
2.584 0.065 0.891
2.59 0.087 0.892
2.593 0.109 0.892
2.595 0.131 0.892
2.588 0.152 0.891
2.58 0.174 0.891
2.584 0.196 0.891
2.593 0.218 0.892
2.602 0.241 0.892
2.592 0.262 0.892
2.585 0.283 0.891
2.605 0.308 0.892
2.608 0.33 0.892
2.613 0.353 0.892
2.605 0.375 0.892
2.598 0.396 0.892
2.609 0.42 0.892
2.606 0.442 0.892
2.615 0.466 0.892
2.599 0.486 0.892
2.615 0.512 0.892
2.605 0.533 0.892
2.605 0.556 0.892
2.622 0.583 0.892
2.611 0.603 0.892
2.616 0.628 0.892
2.624 0.653 0.892
2.621 0.676 0.892
2.622 0.7 0.892
2.627 0.725 0.892
2.627 0.749 0.892
2.637 0.776 0.893
2.633 0.799 0.893
2.637 0.825 0.893
2.641 0.851 0.893
2.636 0.874 0.893
2.645 0.902 0.893
2.638 0.924 0.893
2.65 0.954 0.893
2.642 0.976 0.893
2.646 1.003 0.893
2.67 1.039 0.894
2.675 1.067 0.894
2.658 1.087 0.893
2.674 1.12 0.894
2.832 1.217 0.898
2.835 1.247 0.898
2.832 1.275 0.898
2.846 1.31 0.898
2.796 1.316 0.897
2.798 1.346 0.897
2.772 1.362 0.896
2.763 1.387 0.896
2.783 1.428 0.897
2.783 1.458 0.897
2.784 1.489 0.897
2.776 1.515 0.896
2.773 1.544 0.896
2.751 1.562 0.896
2.688 1.556 0.894
2.742 1.62 0.895
2.758 1.662 0.896
2.767 1.7 0.896
2.747 1.72 0.896
2.554 1.625 0.891
2.412 1.561 0.887
2.712 1.796 0.895
2.713 1.831 0.895
2.756 1.895 0.896
2.747 1.924 0.896
2.73 1.947 0.895
2.744 1.994 0.896
2.744 2.03 0.896
2.72 2.048 0.895
2.656 2.034 0.893
2.371 1.84 0.886
2.306 1.82 0.884
2.335 1.876 0.885
1.443 1.148 0.862
1.423 1.151 0.862
1.41 1.16 0.861
1.513 1.273 0.864
2.058 1.795 0.878
2.021 1.793 0.877
1.999 1.803 0.876
1.974 1.811 0.876
1.945 1.814 0.875
1.921 1.822 0.874
1.893 1.826 0.874
1.87 1.834 0.873
1.841 1.836 0.872
1.818 1.844 0.872
1.789 1.845 0.871
1.76 1.845 0.87
1.738 1.853 0.87
1.715 1.86 0.869
1.688 1.861 0.868
1.268 1.393 0.858
1.291 1.446 0.858
1.687 1.961 0.868
1.694 2.006 0.869
1.701 2.05 0.869
1.455 1.768 0.862
0.521 0.56 0.838
0.508 0.552 0.838
0.499 0.551 0.838
0.495 0.554 0.838
0.49 0.558 0.838
0.479 0.553 0.837
0.474 0.556 0.837
0.47 0.56 0.837
0.465 0.563 0.837
0.46 0.566 0.837
0.455 0.569 0.837
0.445 0.564 0.836
0.44 0.567 0.836
0.435 0.57 0.836
0.43 0.573 0.836
0.42 0.567 0.836
0.415 0.57 0.836
0.41 0.573 0.836
0.405 0.576 0.835
0.396 0.57 0.835
0.391 0.573 0.835
0.386 0.575 0.835
0.382 0.58 0.835
0.376 0.58 0.835
0.368 0.576 0.834
0.363 0.578 0.834
0.358 0.58 0.834
0.352 0.58 0.834
0.347 0.583 0.834
0.341 0.585 0.834
0.333 0.579 0.834
0.328 0.582 0.833
0.323 0.583 0.833
0.318 0.585 0.833
0.313 0.587 0.833
0.307 0.587 0.833
0.302 0.589 0.833
0.297 0.591 0.833
0.292 0.593 0.833
0.287 0.594 0.832
0.279 0.587 0.832
0.274 0.589 0.832
0.271 0.599 0.832
0.263 0.592 0.832
0.259 0.595 0.832
0.253 0.594 0.832
0.248 0.596 0.831
0.243 0.599 0.831
0.238 0.6 0.831
0.232 0.599 0.831
0.227 0.601 0.831
0.222 0.604 0.831
0.216 0.603 0.831
0.211 0.604 0.83
0.206 0.605 0.83
0.201 0.608 0.83
0.195 0.606 0.83
0.19 0.607 0.83
0.185 0.608 0.83
0.18 0.611 0.83
0.174 0.609 0.829
0.169 0.61 0.829
0.163 0.611 0.829
0.159 0.62 0.829
0.153 0.619 0.829
0.148 0.62 0.829
0.143 0.62 0.829
0.137 0.621 0.829
0.132 0.621 0.828
0.126 0.62 0.828
0.121 0.621 0.828
0.116 0.62 0.828
0.11 0.621 0.828
0.105 0.622 0.828
0.099 0.622 0.828
0.099 -0.44 0.828
0.103 -0.438 0.828
0.107 -0.437 0.829
0.11 -0.435 0.829
0.115 -0.442 0.829
0.118 -0.433 0.829
0.122 -0.434 0.829
0.126 -0.44 0.829
0.13 -0.44 0.829
0.134 -0.44 0.829
0.138 -0.447 0.83
0.141 -0.44 0.83
0.145 -0.442 0.83
0.149 -0.442 0.83
0.154 -0.448 0.83
0.158 -0.444 0.83
0.162 -0.447 0.83
0.166 -0.445 0.831
0.17 -0.445 0.831
0.172 -0.438 0.831
0.178 -0.447 0.831
0.183 -0.453 0.831
0.185 -0.443 0.831
0.19 -0.449 0.831
0.193 -0.444 0.831
0.197 -0.442 0.832
0.201 -0.44 0.832
0.207 -0.451 0.832
0.209 -0.441 0.832
0.215 -0.447 0.832
0.219 -0.446 0.832
0.225 -0.454 0.832
0.228 -0.451 0.833
0.232 -0.45 0.833
0.237 -0.45 0.833
0.241 -0.449 0.833
0.245 -0.449 0.833
0.251 -0.453 0.833
0.255 -0.453 0.833
0.26 -0.453 0.834
0.264 -0.452 0.834
0.269 -0.453 0.834
0.272 -0.451 0.834
0.28 -0.46 0.834
0.284 -0.458 0.834
0.288 -0.455 0.835
0.292 -0.456 0.835
0.3 -0.462 0.835
0.305 -0.462 0.835
0.309 -0.461 0.835
0.313 -0.459 0.835
0.321 -0.465 0.836
0.325 -0.464 0.836
0.33 -0.463 0.836
0.338 -0.469 0.836
0.342 -0.467 0.836
0.346 -0.465 0.837
0.355 -0.471 0.837
0.354 -0.461 0.837
0.363 -0.467 0.837
0.366 -0.463 0.837
0.375 -0.468 0.837
0.379 -0.466 0.838
0.383 -0.464 0.838
0.394 -0.472 0.838
0.398 -0.469 0.838
0.402 -0.466 0.838
0.411 -0.472 0.839
0.414 -0.467 0.839
0.42 -0.466 0.839
0.427 -0.469 0.839
0.437 -0.474 0.84
0.482 -0.527 0.841
0.493 -0.533 0.841
0.5 -0.533 0.842
0.5 -0.523 0.842
0.508 -0.524 0.842
0.514 -0.522 0.842
0.56 -0.57 0.844
0.962 -1.047 0.857
0.983 -1.054 0.858
0.985 -1.038 0.858
0.994 -1.03 0.858
0.991 -1.009 0.858
0.994 -0.994 0.858
0.999 -0.982 0.858
0.995 -0.961 0.858
1.001 -0.951 0.858
1 -0.934 0.858
1.001 -0.918 0.858
1.004 -0.905 0.858
1.007 -0.893 0.858
1.009 -0.879 0.859
1.008 -0.863 0.858
1.019 -0.859 0.859
1.016 -0.84 0.859
1.011 -0.822 0.859
1.013 -0.809 0.859
1.013 -0.795 0.859
1.03 -0.796 0.859
1.052 -0.8 0.86
1.056 -0.789 0.86
2.633 -2.053 0.913
2.614 -2.001 0.912
2.599 -1.954 0.911
2.516 -1.856 0.909
2.503 -1.813 0.908
2.506 -1.782 0.908
2.512 -1.754 0.908
2.687 -1.847 0.914
2.669 -1.8 0.914
2.613 -1.729 0.912
2.512 -1.628 0.908
2.514 -1.6 0.909
2.506 -1.564 0.908
2.695 -1.655 0.915
2.511 -1.508 0.908
2.516 -1.482 0.909
2.527 -1.46 0.909
2.517 -1.425 0.909
2.677 -1.489 0.914
2.669 -1.455 0.914
2.682 -1.433 0.914
2.688 -1.406 0.914
2.684 -1.375 0.914
2.672 -1.34 0.914
2.684 -1.318 0.914
2.697 -1.296 0.915
2.716 -1.277 0.915
2.727 -1.254 0.916
2.719 -1.222 0.915
2.707 -1.189 0.915
2.686 -1.152 0.914
2.696 -1.13 0.915
2.688 -1.1 0.914
2.69 -1.074 0.914
2.702 -1.052 0.915
2.661 -1.01 0.913
2.713 -1.004 0.915
2.721 -0.981 0.915
2.672 -0.937 0.914
2.732 -0.933 0.916
2.751 -0.914 0.916
2.646 -0.853 0.913
2.742 -0.859 0.916
2.74 -0.833 0.916
2.692 -0.793 0.914
2.723 -0.778 0.916
2.723 -0.753 0.916
2.718 -0.727 0.915
2.701 -0.698 0.915
2.712 -0.676 0.915
2.696 -0.648 0.915
2.709 -0.627 0.915
2.704 -0.602 0.915
2.708 -0.579 0.915
2.713 -0.556 0.915
2.722 -0.534 0.915
2.699 -0.506 0.915
2.722 -0.486 0.915
2.713 -0.461 0.915
2.564 -0.413 0.91
2.568 -0.391 0.91
2.557 -0.368 0.91
2.558 -0.346 0.91
2.557 -0.324 0.91
2.574 -0.304 0.911
2.567 -0.281 0.91
2.561 -0.259 0.91
2.571 -0.238 0.91
2.57 -0.216 0.91
2.574 -0.195 0.911
2.574 -0.173 0.911
2.575 -0.152 0.911
2.571 -0.13 0.91
2.58 -0.108 0.911
2.574 -0.086 0.911
2.579 -0.065 0.911
2.575 -0.043 0.911
2.575 -0.022 0.911
2.583 -0 0.911
2.583 0.022 0.911
2.583 0.043 0.911
2.584 0.065 0.911
2.596 0.087 0.911
2.58 0.108 0.911
2.597 0.131 0.911
2.587 0.152 0.911
2.592 0.174 0.911
2.593 0.196 0.911
2.588 0.218 0.911
2.601 0.241 0.911
2.596 0.263 0.911
2.588 0.284 0.911
2.609 0.308 0.912
2.597 0.329 0.911
2.604 0.352 0.912
2.611 0.376 0.912
2.607 0.397 0.912
2.608 0.42 0.912
2.601 0.441 0.911
2.614 0.466 0.912
2.6 0.486 0.911
2.614 0.512 0.912
2.609 0.534 0.912
2.613 0.558 0.912
2.615 0.581 0.912
2.616 0.605 0.912
2.62 0.629 0.912
2.613 0.65 0.912
2.614 0.674 0.912
2.622 0.7 0.912
2.626 0.725 0.912
2.629 0.75 0.912
2.622 0.772 0.912
2.635 0.8 0.913
2.633 0.824 0.913
2.628 0.847 0.912
2.645 0.877 0.913
2.64 0.9 0.913
2.643 0.927 0.913
2.645 0.952 0.913
2.653 0.981 0.913
2.658 1.009 0.913
2.662 1.036 0.913
2.677 1.068 0.914
2.658 1.087 0.913
2.676 1.121 0.914
2.832 1.217 0.919
2.835 1.247 0.919
2.832 1.275 0.919
2.845 1.31 0.92
2.787 1.312 0.918
2.788 1.341 0.918
2.78 1.367 0.917
2.77 1.391 0.917
2.782 1.427 0.917
2.782 1.458 0.917
2.784 1.489 0.918
2.772 1.513 0.917
2.764 1.54 0.917
2.759 1.568 0.917
2.692 1.559 0.914
2.741 1.62 0.916
2.757 1.662 0.917
2.765 1.699 0.917
2.747 1.721 0.916
2.551 1.624 0.91
2.4 1.553 0.905
2.709 1.794 0.915
2.721 1.837 0.915
2.755 1.895 0.917
2.743 1.922 0.916
2.726 1.945 0.916
2.736 1.988 0.916
2.741 2.028 0.916
2.711 2.042 0.915
2.654 2.033 0.913
2.369 1.84 0.904
2.308 1.822 0.902
2.337 1.879 0.903
1.45 1.155 0.873
1.423 1.151 0.872
1.41 1.16 0.872
1.513 1.273 0.875
2.058 1.796 0.893
2.028 1.8 0.892
1.999 1.803 0.891
1.973 1.811 0.891
1.944 1.814 0.89
1.921 1.823 0.889
1.892 1.826 0.888
1.87 1.834 0.887
1.841 1.837 0.886
1.817 1.844 0.885
1.789 1.845 0.884
1.766 1.852 0.884
1.738 1.853 0.883
1.715 1.86 0.882
1.687 1.861 0.881
1.266 1.392 0.867
1.29 1.446 0.868
1.687 1.962 0.881
1.694 2.006 0.881
1.7 2.05 0.882
1.459 1.773 0.874
0.517 0.554 0.842
0.508 0.553 0.842
0.505 0.559 0.842
0.494 0.554 0.841
0.49 0.558 0.841
0.485 0.561 0.841
0.474 0.556 0.841
0.469 0.56 0.841
0.464 0.563 0.84
0.459 0.566 0.84
0.454 0.569 0.84
0.445 0.564 0.84
0.44 0.567 0.84
0.435 0.57 0.839
0.43 0.573 0.839
0.42 0.567 0.839
0.415 0.57 0.839
0.41 0.573 0.839
0.401 0.568 0.838
0.396 0.57 0.838
0.392 0.575 0.838
0.386 0.575 0.838
0.381 0.578 0.838
0.376 0.58 0.838
0.367 0.576 0.837
0.361 0.576 0.837
0.357 0.58 0.837
0.351 0.58 0.837
0.346 0.583 0.837
0.341 0.585 0.836
0.333 0.579 0.836
0.327 0.58 0.836
0.323 0.583 0.836
0.318 0.585 0.836
0.313 0.587 0.835
0.307 0.587 0.835
0.302 0.589 0.835
0.297 0.591 0.835
0.292 0.593 0.835
0.286 0.594 0.835
0.281 0.596 0.834
0.276 0.597 0.834
0.27 0.598 0.834
0.263 0.592 0.834
0.258 0.593 0.834
0.253 0.596 0.833
0.248 0.596 0.833
0.242 0.597 0.833
0.237 0.598 0.833
0.232 0.599 0.833
0.227 0.601 0.833
0.222 0.604 0.832
0.216 0.603 0.832
0.211 0.604 0.832
0.206 0.605 0.832
0.2 0.606 0.832
0.195 0.606 0.831
0.19 0.607 0.831
0.185 0.61 0.831
0.179 0.609 0.831
0.174 0.609 0.831
0.169 0.61 0.831
0.163 0.61 0.83
0.158 0.61 0.83
0.152 0.61 0.83
0.148 0.619 0.83
0.142 0.618 0.83
0.137 0.622 0.83
0.132 0.62 0.829
0.126 0.62 0.829
0.121 0.62 0.829
0.115 0.62 0.829
0.11 0.621 0.829
0.105 0.622 0.828
0.099 0.622 0.828
0.099 -0.44 0.829
0.103 -0.438 0.83
0.106 -0.435 0.83
0.11 -0.435 0.83
0.114 -0.432 0.83
0.118 -0.442 0.83
0.122 -0.44 0.83
0.126 -0.441 0.831
0.13 -0.441 0.831
0.133 -0.439 0.831
0.137 -0.439 0.831
0.141 -0.442 0.831
0.146 -0.449 0.831
0.15 -0.448 0.832
0.154 -0.448 0.832
0.157 -0.445 0.832
0.162 -0.454 0.832
0.164 -0.437 0.832
0.17 -0.447 0.833
0.173 -0.446 0.833
0.177 -0.444 0.833
0.181 -0.444 0.833
0.184 -0.441 0.833
0.19 -0.447 0.833
0.194 -0.447 0.834
0.197 -0.442 0.834
0.2 -0.44 0.834
0.206 -0.448 0.834
0.211 -0.449 0.834
0.214 -0.447 0.835
0.219 -0.448 0.835
0.225 -0.454 0.835
0.228 -0.451 0.835
0.232 -0.452 0.835
0.237 -0.451 0.836
0.241 -0.45 0.836
0.247 -0.456 0.836
0.25 -0.453 0.836
0.255 -0.453 0.836
0.259 -0.453 0.837
0.263 -0.453 0.837
0.267 -0.451 0.837
0.272 -0.451 0.837
0.276 -0.451 0.837
0.283 -0.457 0.838
0.288 -0.456 0.838
0.292 -0.455 0.838
0.3 -0.462 0.838
0.304 -0.461 0.838
0.308 -0.46 0.839
0.313 -0.459 0.839
0.317 -0.459 0.839
0.321 -0.456 0.839
0.329 -0.463 0.84
0.333 -0.46 0.84
0.341 -0.467 0.84
0.346 -0.465 0.84
0.35 -0.462 0.841
0.355 -0.462 0.841
0.361 -0.465 0.841
0.366 -0.463 0.841
0.374 -0.468 0.842
0.378 -0.465 0.842
0.388 -0.473 0.842
0.388 -0.464 0.842
0.398 -0.47 0.843
0.402 -0.467 0.843
0.406 -0.464 0.843
0.416 -0.47 0.843
0.419 -0.466 0.844
0.422 -0.462 0.844
0.438 -0.475 0.844
0.488 -0.536 0.847
0.492 -0.531 0.847
0.499 -0.532 0.847
0.501 -0.524 0.847
0.505 -0.52 0.847
0.507 -0.513 0.847
0.577 -0.591 0.851
0.981 -1.071 0.868
0.988 -1.06 0.869
0.989 -1.043 0.869
0.995 -1.032 0.869
1.004 -1.024 0.87
0.997 -0.999 0.869
1.004 -0.989 0.87
1.003 -0.971 0.869
1.005 -0.956 0.87
1.003 -0.937 0.869
1.006 -0.924 0.87
1.002 -0.904 0.869
1.009 -0.896 0.87
1.008 -0.879 0.87
1.014 -0.869 0.87
1.012 -0.852 0.87
1.019 -0.844 0.87
1.005 -0.817 0.87
1.011 -0.808 0.87
1.006 -0.789 0.87
1.025 -0.792 0.87
1.046 -0.796 0.871
2.822 -2.247 0.95
2.736 -2.138 0.946
2.718 -2.085 0.945
2.749 -2.073 0.947
2.8 -2.075 0.949
2.649 -1.923 0.942
2.798 -1.999 0.949
2.623 -1.836 0.941
2.827 -1.948 0.95
2.775 -1.876 0.948
2.793 -1.853 0.949
2.775 -1.807 0.948
2.81 -1.796 0.95
2.621 -1.639 0.941
2.851 -1.755 0.951
2.623 -1.579 0.941
2.655 -1.568 0.943
2.606 -1.508 0.941
2.659 -1.509 0.943
2.732 -1.522 0.946
2.833 -1.549 0.951
2.756 -1.474 0.947
2.809 -1.473 0.95
2.783 -1.429 0.948
2.851 -1.434 0.951
2.791 -1.373 0.949
2.843 -1.369 0.951
2.783 -1.31 0.948
2.84 -1.309 0.951
2.811 -1.266 0.95
2.843 -1.252 0.951
2.793 -1.201 0.949
2.812 -1.181 0.95
2.797 -1.146 0.949
2.842 -1.137 0.951
2.796 -1.091 0.949
2.871 -1.093 0.952
2.812 -1.042 0.95
2.819 -1.018 0.95
2.81 -0.988 0.95
2.862 -0.979 0.952
2.859 -0.951 0.952
2.884 -0.933 0.953
2.859 -0.898 0.952
2.9 -0.884 0.954
2.846 -0.841 0.951
2.858 -0.818 0.952
2.826 -0.783 0.95
2.854 -0.765 0.952
2.835 -0.734 0.951
2.85 -0.712 0.951
2.783 -0.67 0.948
2.819 -0.654 0.95
2.807 -0.626 0.949
2.851 -0.611 0.951
2.81 -0.577 0.95
2.857 -0.562 0.952
2.819 -0.529 0.95
2.865 -0.513 0.952
2.843 -0.484 0.951
2.742 -0.443 0.947
2.686 -0.41 0.944
2.715 -0.391 0.945
2.679 -0.363 0.944
2.722 -0.346 0.946
2.677 -0.317 0.944
2.724 -0.299 0.946
2.697 -0.273 0.945
2.732 -0.254 0.946
2.676 -0.226 0.944
2.736 -0.208 0.946
2.69 -0.181 0.944
2.734 -0.161 0.946
2.685 -0.136 0.944
2.741 -0.115 0.947
2.696 -0.091 0.945
2.734 -0.069 0.946
2.689 -0.045 0.944
2.738 -0.023 0.946
2.698 -0 0.945
2.744 0.023 0.947
2.697 0.045 0.945
2.746 0.069 0.947
2.693 0.091 0.944
2.759 0.116 0.947
2.704 0.137 0.945
2.752 0.162 0.947
2.709 0.183 0.945
2.749 0.209 0.947
2.71 0.229 0.945
2.755 0.256 0.947
2.709 0.275 0.945
2.758 0.303 0.947
2.712 0.321 0.945
2.774 0.353 0.948
2.718 0.369 0.946
2.766 0.399 0.948
2.714 0.415 0.945
2.756 0.445 0.947
2.709 0.461 0.945
2.765 0.495 0.948
2.72 0.51 0.946
2.776 0.545 0.948
2.721 0.558 0.946
2.779 0.595 0.948
2.72 0.606 0.946
2.775 0.643 0.948
2.738 0.659 0.946
2.789 0.696 0.949
2.746 0.71 0.947
2.778 0.744 0.948
2.754 0.762 0.947
2.79 0.798 0.949
2.744 0.81 0.947
2.807 0.855 0.949
2.765 0.867 0.948
2.82 0.911 0.95
2.765 0.919 0.948
2.821 0.965 0.95
2.766 0.972 0.948
3.015 1.091 0.959
2.981 1.107 0.957
3.006 1.146 0.958
2.96 1.157 0.956
3.002 1.204 0.958
2.957 1.214 0.956
3.006 1.265 0.958
2.945 1.269 0.956
2.999 1.323 0.958
2.97 1.34 0.957
2.989 1.38 0.958
2.92 1.377 0.954
2.965 1.431 0.956
2.913 1.435 0.954
2.931 1.476 0.955
2.919 1.501 0.954
2.963 1.556 0.956
2.91 1.56 0.954
2.93 1.603 0.955
2.875 1.605 0.952
2.888 1.644 0.953
2.712 1.572 0.945
2.769 1.638 0.948
2.867 1.732 0.952
2.897 1.784 0.953
2.865 1.798 0.952
2.892 1.851 0.953
2.4 1.553 0.931
2.416 1.594 0.932
2.747 1.856 0.947
2.525 1.732 0.937
2.574 1.8 0.939
2.49 1.771 0.935
2.531 1.835 0.937
2.423 1.785 0.932
2.393 1.794 0.931
2.359 1.8 0.93
2.335 1.812 0.929
2.348 1.856 0.929
2.445 1.971 0.933
1.463 1.166 0.89
1.421 1.15 0.888
1.41 1.162 0.888
1.487 1.251 0.891
2.057 1.796 0.916
2.027 1.8 0.915
1.995 1.801 0.913
1.972 1.81 0.912
1.943 1.814 0.911
1.92 1.823 0.91
1.886 1.821 0.909
1.865 1.831 0.908
1.839 1.836 0.907
1.816 1.844 0.906
1.787 1.845 0.904
1.759 1.845 0.903
1.737 1.854 0.902
1.714 1.86 0.901
1.679 1.852 0.899
1.254 1.378 0.881
1.668 1.905 0.899
1.686 1.962 0.9
1.687 1.998 0.9
1.7 2.051 0.9
1.454 1.768 0.889
0.517 0.556 0.848
0.508 0.553 0.848
0.505 0.559 0.847
0.494 0.554 0.847
0.489 0.558 0.847
0.478 0.553 0.846
0.474 0.556 0.846
0.469 0.56 0.846
0.464 0.563 0.846
0.459 0.566 0.845
0.454 0.569 0.845
0.444 0.564 0.845
0.439 0.567 0.845
0.434 0.57 0.844
0.424 0.565 0.844
0.424 0.576 0.844
0.419 0.579 0.844
0.41 0.573 0.843
0.405 0.576 0.843
0.395 0.57 0.843
0.39 0.573 0.842
0.385 0.575 0.842
0.38 0.578 0.842
0.371 0.571 0.841
0.366 0.574 0.841
0.362 0.578 0.841
0.357 0.58 0.841
0.352 0.582 0.841
0.346 0.583 0.84
0.341 0.585 0.84
0.333 0.579 0.84
0.328 0.582 0.84
0.323 0.583 0.839
0.317 0.584 0.839
0.312 0.587 0.839
0.307 0.587 0.839
0.301 0.589 0.838
0.296 0.591 0.838
0.291 0.593 0.838
0.286 0.594 0.838
0.281 0.596 0.837
0.276 0.597 0.837
0.27 0.599 0.837
0.263 0.592 0.837
0.258 0.595 0.836
0.252 0.594 0.836
0.248 0.598 0.836
0.242 0.599 0.836
0.237 0.598 0.836
0.232 0.599 0.835
0.226 0.601 0.835
0.221 0.602 0.835
0.216 0.603 0.835
0.211 0.606 0.834
0.205 0.605 0.834
0.2 0.606 0.834
0.195 0.608 0.834
0.188 0.597 0.833
0.184 0.61 0.833
0.179 0.609 0.833
0.174 0.609 0.833
0.168 0.61 0.832
0.163 0.611 0.832
0.157 0.609 0.832
0.153 0.619 0.832
0.147 0.611 0.832
0.142 0.62 0.831
0.137 0.621 0.831
0.131 0.62 0.831
0.126 0.619 0.831
0.12 0.62 0.83
0.115 0.62 0.83
0.11 0.622 0.83
0.104 0.62 0.83
0.099 0.622 0.829
0.099 -0.44 0.83
0.103 -0.438 0.83
0.106 -0.436 0.83
0.11 -0.434 0.83
0.114 -0.442 0.83
0.118 -0.442 0.831
0.122 -0.439 0.831
0.126 -0.441 0.831
0.129 -0.439 0.831
0.134 -0.448 0.831
0.137 -0.438 0.832
0.141 -0.442 0.832
0.145 -0.44 0.832
0.149 -0.439 0.832
0.154 -0.448 0.832
0.157 -0.444 0.833
0.161 -0.444 0.833
0.165 -0.446 0.833
0.169 -0.447 0.833
0.173 -0.446 0.833
0.177 -0.445 0.834
0.181 -0.443 0.834
0.186 -0.45 0.834
0.189 -0.445 0.834
0.194 -0.447 0.834
0.199 -0.451 0.835
0.202 -0.449 0.835
0.206 -0.449 0.835
0.208 -0.441 0.835
0.215 -0.449 0.835
0.218 -0.447 0.835
0.222 -0.446 0.836
0.228 -0.452 0.836
0.233 -0.453 0.836
0.236 -0.449 0.836
0.24 -0.449 0.837
0.244 -0.448 0.837
0.25 -0.453 0.837
0.255 -0.454 0.837
0.26 -0.455 0.837
0.264 -0.454 0.838
0.268 -0.452 0.838
0.272 -0.451 0.838
0.28 -0.46 0.838
0.283 -0.457 0.839
0.288 -0.456 0.839
0.295 -0.462 0.839
0.299 -0.462 0.839
0.304 -0.462 0.84
0.307 -0.459 0.84
0.312 -0.459 0.84
0.317 -0.459 0.84
0.325 -0.465 0.841
0.329 -0.463 0.841
0.337 -0.468 0.841
0.341 -0.467 0.841
0.345 -0.464 0.842
0.349 -0.462 0.842
0.358 -0.469 0.842
0.362 -0.467 0.842
0.366 -0.463 0.843
0.374 -0.469 0.843
0.378 -0.465 0.843
0.383 -0.465 0.843
0.394 -0.472 0.844
0.398 -0.47 0.844
0.402 -0.467 0.844
0.411 -0.472 0.845
0.415 -0.47 0.845
0.423 -0.472 0.845
0.428 -0.471 0.846
0.443 -0.483 0.846
0.482 -0.528 0.848
0.493 -0.534 0.849
0.494 -0.525 0.849
0.502 -0.526 0.849
0.509 -0.526 0.849
0.511 -0.519 0.849
0.529 -0.532 0.85
2.747 -3.217 0.957
2.69 -3.092 0.954
2.745 -3.102 0.956
2.651 -2.94 0.952
2.574 -2.801 0.948
2.671 -2.86 0.953
0.916 -0.893 0.869
0.942 -0.905 0.87
0.927 -0.873 0.869
1.008 -0.942 0.873
2.758 -2.71 0.957
1.006 -0.908 0.873
2.743 -2.601 0.956
1.022 -0.893 0.874
2.752 -2.521 0.957
1.024 -0.864 0.874
1.002 -0.828 0.873
1.005 -0.817 0.873
1.011 -0.808 0.873
1.006 -0.789 0.873
1.03 -0.796 0.874
1.043 -0.793 0.875
2.76 -2.196 0.957
2.843 -2.225 0.961
2.795 -2.147 0.959
2.842 -2.146 0.961
2.898 -2.15 0.964
2.828 -2.059 0.96
2.897 -2.073 0.964
2.714 -1.903 0.955
2.914 -2.01 0.965
2.869 -1.942 0.962
2.804 -1.862 0.959
2.856 -1.862 0.962
2.922 -1.871 0.965
2.849 -1.788 0.961
2.965 -1.828 0.967
2.705 -1.631 0.955
2.755 -1.63 0.957
2.702 -1.566 0.954
2.76 -1.569 0.957
2.76 -1.538 0.957
2.934 -1.606 0.965
2.887 -1.548 0.963
2.933 -1.541 0.965
2.859 -1.469 0.962
2.941 -1.481 0.966
2.894 -1.426 0.964
2.933 -1.415 0.965
2.885 -1.361 0.963
2.926 -1.35 0.965
2.881 -1.299 0.963
2.905 -1.28 0.964
2.885 -1.242 0.963
2.924 -1.23 0.965
2.893 -1.187 0.964
2.948 -1.182 0.966
2.916 -1.14 0.965
2.969 -1.132 0.967
2.909 -1.08 0.964
2.914 -1.054 0.965
2.894 -1.019 0.964
2.974 -1.019 0.967
2.924 -0.974 0.965
2.967 -0.961 0.967
2.932 -0.922 0.965
2.984 -0.911 0.968
2.941 -0.87 0.966
2.953 -0.846 0.966
2.907 -0.806 0.964
2.986 -0.802 0.968
2.881 -0.746 0.963
2.945 -0.737 0.966
2.837 -0.683 0.961
2.95 -0.685 0.966
2.912 -0.65 0.964
2.96 -0.635 0.967
2.904 -0.597 0.964
2.965 -0.584 0.967
2.888 -0.543 0.963
3 -0.538 0.969
2.931 -0.5 0.965
2.856 -0.462 0.962
2.866 -0.439 0.962
2.836 -0.41 0.961
2.773 -0.376 0.958
2.842 -0.362 0.961
2.773 -0.329 0.958
2.852 -0.314 0.962
2.884 -0.293 0.963
2.861 -0.266 0.962
2.782 -0.235 0.958
2.822 -0.215 0.96
2.786 -0.188 0.958
2.828 -0.167 0.96
2.788 -0.141 0.958
2.848 -0.12 0.961
2.783 -0.094 0.958
2.842 -0.072 0.961
2.796 -0.047 0.959
2.845 -0.024 0.961
2.79 -0 0.959
2.852 0.024 0.962
2.796 0.047 0.959
2.852 0.072 0.962
2.792 0.094 0.959
2.848 0.12 0.961
2.791 0.141 0.959
2.862 0.169 0.962
2.811 0.19 0.96
2.867 0.218 0.962
2.804 0.237 0.959
2.859 0.266 0.962
2.811 0.285 0.96
2.867 0.316 0.962
2.807 0.333 0.959
2.863 0.364 0.962
2.811 0.382 0.96
2.868 0.414 0.962
2.815 0.431 0.96
2.865 0.463 0.962
2.819 0.48 0.96
2.864 0.513 0.962
2.822 0.53 0.96
2.881 0.567 0.963
2.832 0.582 0.961
2.889 0.619 0.963
2.827 0.631 0.96
2.896 0.672 0.964
2.825 0.681 0.96
2.902 0.726 0.964
2.844 0.736 0.961
2.906 0.78 0.964
2.84 0.787 0.961
2.912 0.834 0.964
2.85 0.842 0.961
2.918 0.89 0.965
2.858 0.898 0.962
2.926 0.947 0.965
2.872 0.956 0.962
3.13 1.075 0.975
3.08 1.086 0.972
3.132 1.135 0.975
3.066 1.14 0.972
3.136 1.198 0.975
3.085 1.208 0.973
3.123 1.254 0.975
3.079 1.266 0.972
3.114 1.313 0.974
3.068 1.324 0.972
3.109 1.373 0.974
3.047 1.376 0.971
3.128 1.447 0.975
3.033 1.433 0.97
3.076 1.486 0.972
3.029 1.495 0.97
3.091 1.559 0.973
3.022 1.556 0.97
3.059 1.609 0.971
3.022 1.622 0.97
3.041 1.666 0.971
2.984 1.668 0.968
2.978 1.698 0.968
2.719 1.576 0.955
2.714 1.605 0.955
2.885 1.743 0.963
2.883 1.776 0.963
2.899 1.821 0.964
2.837 1.815 0.961
2.445 1.585 0.942
2.41 1.59 0.94
2.431 1.635 0.941
2.464 1.689 0.943
2.491 1.74 0.944
2.481 1.765 0.944
2.456 1.778 0.943
2.426 1.788 0.941
2.39 1.792 0.939
2.373 1.812 0.939
2.364 1.836 0.938
2.547 2.021 0.947
2.507 2.023 0.945
2.734 2.253 0.956
1.415 1.145 0.893
1.41 1.162 0.893
1.436 1.205 0.894
2.049 1.789 0.923
2.027 1.8 0.922
1.997 1.803 0.921
1.972 1.811 0.919
1.942 1.813 0.918
1.917 1.82 0.917
1.876 1.811 0.915
1.851 1.817 0.914
1.833 1.829 0.913
1.816 1.844 0.912
1.787 1.845 0.911
1.764 1.852 0.909
1.737 1.854 0.908
1.714 1.86 0.907
1.314 1.424 0.888
1.227 1.347 0.884
1.667 1.905 0.905
1.68 1.955 0.905
1.686 1.998 0.906
1.694 2.044 0.906
1.47 1.79 0.895
0.511 0.548 0.849
0.519 0.569 0.85
0.504 0.558 0.849
0.494 0.554 0.849
0.489 0.558 0.848
0.484 0.561 0.848
0.473 0.556 0.848
0.469 0.56 0.847
0.464 0.563 0.847
0.454 0.558 0.847
0.454 0.569 0.847
0.444 0.564 0.846
0.439 0.567 0.846
0.434 0.57 0.846
0.424 0.565 0.845
0.424 0.576 0.845
0.414 0.57 0.845
0.409 0.573 0.845
0.4 0.568 0.844
0.395 0.57 0.844
0.391 0.575 0.844
0.385 0.575 0.843
0.38 0.578 0.843
0.372 0.573 0.843
0.367 0.576 0.843
0.361 0.576 0.842
0.357 0.58 0.842
0.352 0.582 0.842
0.346 0.583 0.842
0.337 0.576 0.841
0.336 0.587 0.841
0.327 0.582 0.841
0.322 0.583 0.84
0.317 0.585 0.84
0.312 0.585 0.84
0.307 0.589 0.84
0.301 0.589 0.839
0.296 0.591 0.839
0.291 0.593 0.839
0.286 0.594 0.839
0.28 0.595 0.838
0.275 0.597 0.838
0.268 0.59 0.838
0.263 0.592 0.838
0.257 0.593 0.837
0.252 0.594 0.837
0.247 0.596 0.837
0.242 0.597 0.837
0.239 0.607 0.836
0.231 0.599 0.836
0.226 0.601 0.836
0.221 0.602 0.836
0.216 0.605 0.835
0.21 0.604 0.835
0.205 0.605 0.835
0.2 0.606 0.835
0.195 0.606 0.834
0.19 0.609 0.834
0.184 0.608 0.834
0.179 0.609 0.834
0.173 0.609 0.833
0.168 0.61 0.833
0.163 0.611 0.833
0.157 0.61 0.833
0.152 0.611 0.832
0.147 0.619 0.832
0.142 0.62 0.832
0.137 0.621 0.832
0.131 0.62 0.831
0.126 0.621 0.831
0.12 0.62 0.831
0.115 0.621 0.831
0.11 0.622 0.83
0.104 0.622 0.83
0.099 0.621 0.83
0.098 -0.44 0.83
0.102 -0.438 0.831
0.106 -0.435 0.831
0.11 -0.443 0.831
0.114 -0.442 0.831
0.118 -0.442 0.832
0.122 -0.44 0.832
0.125 -0.44 0.832
0.129 -0.441 0.832
0.133 -0.439 0.832
0.137 -0.44 0.833
0.141 -0.44 0.833
0.146 -0.449 0.833
0.15 -0.449 0.833
0.153 -0.448 0.834
0.157 -0.443 0.834
0.162 -0.451 0.834
