# .PCD v0.7 - Point Cloud Data file format
VERSION 0.7
FIELDS x y z
SIZE 4 4 4
TYPE F F F
COUNT 1 1 1
WIDTH 2510
HEIGHT 1
VIEWPOINT 0 0 0 1 0 0 0
POINTS 2510
DATA ascii
1.66 -1.174 1.517
1.686 -1.171 1.527
1.681 -1.146 1.526
0.928 -0.594 1.212
0.936 -0.588 1.216
0.915 -0.563 1.207
0.915 -0.552 1.207
0.973 -0.579 1.231
0.941 -0.548 1.218
1.226 -0.715 1.337
1.789 -1.045 1.57
1.791 -1.025 1.571
1.806 -1.013 1.577
1.833 -1.007 1.588
1.839 -0.99 1.591
1.859 -0.98 1.599
1.87 -0.965 1.604
1.892 -0.956 1.613
1.914 -0.946 1.622
2.403 -1.171 1.825
2.423 -1.155 1.834
2.445 -1.139 1.843
2.479 -1.128 1.857
2.5 -1.111 1.865
2.531 -1.098 1.879
2.555 -1.081 1.888
2.58 -1.065 1.899
2.607 -1.049 1.91
2.638 -1.035 1.923
2.656 -1.014 1.93
2.691 -1 1.945
2.717 -0.982 1.956
6.882 -2.464 3.686
7.066 -2.457 3.762
7.002 -2.362 3.736
6.952 -2.274 3.715
6.92 -2.193 3.702
6.883 -2.111 3.686
6.961 -2.065 3.719
7.101 -2.036 3.777
7.263 -2.011 3.844
7.262 -1.938 3.844
7.26 -1.866 3.843
7.132 -1.762 3.79
7.258 -1.722 3.842
7.258 -1.651 3.842
7.254 -1.58 3.84
6.735 -1.4 3.625
6.684 -1.325 3.604
6.678 -1.259 3.601
6.681 -1.196 3.602
6.863 -1.163 3.678
7.192 -1.151 3.815
7.325 -1.102 3.87
7.338 -1.034 3.875
7.335 -0.964 3.874
7.327 -0.894 3.871
7.326 -0.824 3.871
7.333 -0.756 3.873
7.324 -0.686 3.869
6.668 -0.561 3.597
6.664 -0.498 3.595
6.667 -0.436 3.597
6.66 -0.373 3.594
7.215 -0.337 3.824
7.238 -0.271 3.834
7.249 -0.203 3.839
7.252 -0.136 3.839
7.234 -0.068 3.832
7.235 -0 3.833
9.446 0.088 4.751
9.437 0.177 4.747
9.446 0.265 4.751
9.443 0.354 4.75
9.438 0.442 4.748
9.437 0.531 4.747
9.424 0.619 4.742
9.429 0.708 4.744
9.429 0.797 4.744
9.599 0.902 4.815
0 0 0
6.515 0.732 3.534
6.627 0.807 3.58
3.023 0.391 2.083
2.992 0.415 2.07
2.952 0.437 2.054
2.901 0.456 2.032
2.867 0.478 2.018
2.853 0.502 2.012
2.82 0.523 1.999
2.816 0.549 1.997
2.801 0.572 1.991
2.805 0.6 1.992
2.793 0.624 1.987
2.799 0.652 1.99
2.798 0.679 1.99
1.506 0.37 1.453
1.487 0.379 1.445
1.41 0.372 1.413
1.347 0.367 1.387
1.297 0.365 1.366
1.252 0.363 1.347
1.203 0.359 1.327
1.171 0.36 1.313
1.12 0.354 1.292
1.088 0.354 1.279
1.057 0.353 1.266
1.023 0.351 1.252
1.005 0.354 1.244
0.971 0.35 1.231
0.945 0.349 1.22
0.92 0.348 1.209
0.888 0.343 1.196
0.871 0.345 1.189
0.846 0.342 1.178
0.831 0.344 1.172
0.812 0.343 1.164
0.796 0.344 1.158
0.769 0.339 1.147
0.754 0.339 1.14
0.738 0.338 1.134
0.721 0.337 1.127
0.705 0.336 1.12
0.696 0.338 1.116
0.677 0.335 1.108
0.667 0.337 1.104
0.65 0.334 1.097
0.636 0.332 1.091
0.627 0.333 1.087
0.618 0.335 1.084
0.61 0.336 1.08
0.598 0.335 1.076
0.58 0.33 1.068
0.579 0.335 1.067
0.561 0.33 1.06
0.551 0.33 1.056
0.543 0.33 1.053
0.534 0.329 1.049
0.524 0.329 1.045
0.513 0.326 1.04
0.504 0.325 1.036
0.501 0.329 1.035
0.492 0.328 1.031
0.481 0.325 1.027
0.477 0.328 1.025
0.469 0.327 1.022
0.457 0.322 1.017
0.455 0.327 1.016
0.426 0.306 1.004
0.41 0.298 0.998
0.416 0.308 1
0.419 0.317 1.001
0.422 0.325 1.003
0.422 0.331 1.003
0.416 0.331 1
0.418 0.339 1.001
0.408 0.334 0.996
0.387 0.318 0.988
0.384 0.321 0.987
0.381 0.323 0.985
0.376 0.323 0.983
0.369 0.321 0.98
0.368 0.325 0.98
0.364 0.327 0.978
0.361 0.329 0.977
0.359 0.332 0.976
0.351 0.328 0.973
0.35 0.333 0.972
0.346 0.334 0.971
0.343 0.336 0.97
0.341 0.339 0.969
0.338 0.341 0.967
0.329 0.335 0.964
0.326 0.337 0.963
0.324 0.341 0.962
0.321 0.342 0.96
0.318 0.344 0.959
0.315 0.346 0.958
0.308 0.342 0.955
0.306 0.345 0.954
0.303 0.347 0.953
0.298 0.346 0.951
0.295 0.348 0.95
0.292 0.35 0.949
0.29 0.352 0.947
0.291 0.361 0.948
0.279 0.346 0.943
0.281 0.357 0.944
0.278 0.358 0.942
0.274 0.359 0.941
0.269 0.356 0.939
0.267 0.359 0.938
0.265 0.363 0.937
0.262 0.365 0.936
0.255 0.359 0.933
0.253 0.361 0.932
0.251 0.366 0.931
0.248 0.368 0.93
0.242 0.362 0.928
0.241 0.368 0.927
0.236 0.365 0.925
0.233 0.366 0.924
0.23 0.368 0.923
0.228 0.371 0.922
0.225 0.372 0.921
0.22 0.368 0.919
0.221 0.38 0.919
0.215 0.372 0.916
0.212 0.376 0.915
0.209 0.376 0.914
0.206 0.377 0.913
0.204 0.38 0.912
0.201 0.382 0.911
0.197 0.381 0.909
0.194 0.382 0.908
0.192 0.386 0.907
0.187 0.381 0.905
0.184 0.383 0.904
0.18 0.381 0.902
0.179 0.388 0.901
0.175 0.387 0.9
0.172 0.386 0.898
0.168 0.385 0.897
0.165 0.385 0.896
0.163 0.393 0.895
0.159 0.388 0.893
0.156 0.39 0.892
0.154 0.4 0.891
0.151 0.396 0.89
0.147 0.397 0.888
0.144 0.398 0.887
0.141 0.397 0.886
0.138 0.399 0.884
0.135 0.406 0.883
0.132 0.406 0.882
0.128 0.399 0.88
0.125 0.403 0.879
0.122 0.404 0.878
0.119 0.404 0.876
0.115 0.403 0.875
0.113 0.412 0.874
0.109 0.414 0.873
0.106 0.412 0.871
0.102 0.404 0.87
0.1 0.417 0.868
0.096 0.419 0.867
0.093 0.42 0.866
0.089 0.412 0.864
0.086 0.419 0.863
0.083 0.422 0.861
0.082 -0.529 0.862
0.087 -0.53 0.864
0.091 -0.53 0.866
0.095 -0.53 0.867
0.099 -0.53 0.869
0.104 -0.528 0.871
0.108 -0.528 0.873
0.112 -0.529 0.875
0.116 -0.529 0.877
0.121 -0.528 0.878
0.125 -0.527 0.88
0.13 -0.536 0.882
0.134 -0.537 0.884
0.139 -0.537 0.886
0.143 -0.534 0.888
0.147 -0.534 0.89
0.151 -0.535 0.891
0.156 -0.535 0.893
0.16 -0.534 0.895
0.164 -0.533 0.897
0.169 -0.533 0.899
0.171 -0.521 0.9
0.177 -0.528 0.902
0.181 -0.527 0.904
0.187 -0.533 0.906
0.189 -0.525 0.908
0.195 -0.532 0.91
0.2 -0.532 0.912
0.204 -0.531 0.914
0.208 -0.529 0.915
0.212 -0.527 0.917
0.219 -0.534 0.92
0.222 -0.53 0.921
0.227 -0.53 0.923
0.231 -0.527 0.925
0.237 -0.534 0.928
0.242 -0.533 0.93
0.246 -0.531 0.931
0.25 -0.529 0.933
0.254 -0.528 0.935
0.26 -0.529 0.937
0.263 -0.526 0.939
0.269 -0.527 0.941
0.273 -0.526 0.943
0.28 -0.532 0.946
0.285 -0.531 0.948
0.289 -0.528 0.95
0.293 -0.527 0.952
0.298 -0.525 0.953
0.306 -0.532 0.957
0.31 -0.531 0.959
0.315 -0.529 0.961
0.319 -0.527 0.962
0.327 -0.532 0.966
0.331 -0.53 0.968
0.335 -0.527 0.969
0.349 -0.544 0.975
0.344 -0.523 0.973
1.169 -2.129 1.323
0.448 -0.702 1.017
0.477 -0.742 1.029
1.161 -1.989 1.32
1.167 -1.961 1.322
1.167 -1.923 1.322
1.169 -1.889 1.323
1.202 -1.909 1.337
1.082 -1.672 1.286
0.991 -1.492 1.248
1.005 -1.486 1.254
1.026 -1.491 1.262
1.609 -2.369 1.51
1.645 -2.38 1.525
0.5 -0.625 1.039
0.506 -0.622 1.042
0.535 -0.653 1.054
0.526 -0.628 1.05
0.505 -0.588 1.041
0.511 -0.585 1.044
0.519 -0.585 1.047
0.531 -0.591 1.052
0.534 -0.585 1.054
0.543 -0.586 1.058
1.786 -2.129 1.585
1.824 -2.139 1.601
1.853 -2.137 1.613
1.819 -2.059 1.599
1.853 -2.062 1.613
1.822 -1.992 1.6
1.856 -1.995 1.614
1.832 -1.934 1.604
1.876 -1.949 1.623
1.797 -1.83 1.589
1.84 -1.844 1.608
1.949 -1.924 1.654
1.94 -1.882 1.65
2.085 -1.994 1.712
2.095 -1.969 1.716
2.171 -2.008 1.748
2.169 -1.97 1.747
2.292 -2.05 1.8
2.333 -2.051 1.817
2.494 -2.159 1.885
2.596 -2.211 1.928
2.6 -2.175 1.93
1.141 -0.898 1.311
1.36 -1.065 1.404
1.614 -1.254 1.512
1.617 -1.234 1.513
1.629 -1.221 1.518
1.639 -1.206 1.523
1.646 -1.189 1.525
1.655 -1.174 1.529
1.66 -1.156 1.531
1.671 -1.143 1.536
0.927 -0.596 1.22
0.933 -0.589 1.223
0.906 -0.559 1.212
0.909 -0.55 1.213
0.97 -0.579 1.239
0.938 -0.548 1.225
1.21 -0.707 1.34
1.762 -1.032 1.575
1.784 -1.024 1.584
1.801 -1.013 1.591
1.823 -1.005 1.6
1.817 -0.981 1.598
1.853 -0.98 1.613
1.859 -0.962 1.616
1.874 -0.949 1.622
1.89 -0.937 1.629
2.412 -1.18 1.85
2.426 -1.16 1.857
2.451 -1.146 1.867
2.474 -1.13 1.877
2.503 -1.116 1.889
2.532 -1.102 1.901
2.557 -1.086 1.912
2.585 -1.071 1.924
2.605 -1.052 1.932
2.64 -1.039 1.947
2.658 -1.018 1.955
2.693 -1.004 1.97
2.712 -0.984 1.978
6.788 -2.437 3.707
7.056 -2.461 3.821
7.19 -2.435 3.878
7.017 -2.303 3.804
6.999 -2.226 3.797
6.864 -2.112 3.74
6.955 -2.07 3.778
7.115 -2.047 3.846
7.251 -2.014 3.904
7.25 -1.941 3.903
7.267 -1.874 3.91
7.241 -1.795 3.899
7.262 -1.729 3.908
7.244 -1.654 3.901
7.265 -1.587 3.909
6.727 -1.403 3.681
6.671 -1.326 3.657
6.665 -1.261 3.655
6.667 -1.197 3.656
6.832 -1.161 3.726
7.169 -1.151 3.869
7.304 -1.103 3.926
7.32 -1.035 3.933
7.322 -0.966 3.934
7.314 -0.895 3.93
7.312 -0.825 3.93
7.318 -0.757 3.932
7.31 -0.687 3.929
6.647 -0.561 3.647
6.651 -0.499 3.649
6.647 -0.436 3.648
6.648 -0.374 3.648
7.201 -0.338 3.882
7.215 -0.271 3.888
7.226 -0.203 3.893
7.233 -0.136 3.896
7.216 -0.068 3.889
7.221 -0 3.891
9.424 0.089 4.826
9.415 0.177 4.822
9.416 0.266 4.822
9.411 0.354 4.82
9.415 0.443 4.822
9.407 0.531 4.818
9.401 0.619 4.816
9.406 0.708 4.818
9.417 0.798 4.822
9.578 0.902 4.891
0 0 0
6.504 0.733 3.587
6.607 0.808 3.631
3.025 0.393 2.111
2.986 0.415 2.094
2.948 0.438 2.078
2.902 0.458 2.058
2.864 0.479 2.042
2.847 0.503 2.035
2.825 0.525 2.026
2.819 0.551 2.023
2.809 0.576 2.019
2.813 0.603 2.021
2.803 0.628 2.017
2.797 0.654 2.014
2.801 0.682 2.016
1.492 0.368 1.46
1.479 0.378 1.455
1.413 0.374 1.427
1.345 0.368 1.398
1.295 0.365 1.377
1.248 0.363 1.357
1.2 0.36 1.336
1.16 0.358 1.319
1.125 0.357 1.305
1.084 0.354 1.287
1.052 0.353 1.274
1.017 0.35 1.259
0.993 0.35 1.248
0.967 0.35 1.238
0.942 0.349 1.227
0.917 0.348 1.216
0.893 0.347 1.206
0.876 0.348 1.199
0.843 0.342 1.185
0.826 0.343 1.178
0.807 0.343 1.17
0.79 0.342 1.163
0.775 0.343 1.156
0.746 0.336 1.143
0.728 0.335 1.136
0.719 0.338 1.132
0.703 0.336 1.125
0.693 0.338 1.121
0.675 0.335 1.114
0.665 0.337 1.109
0.647 0.333 1.102
0.634 0.332 1.096
0.626 0.334 1.093
0.614 0.334 1.088
0.605 0.334 1.084
0.596 0.335 1.08
0.578 0.33 1.073
0.569 0.331 1.069
0.559 0.33 1.064
0.549 0.33 1.06
0.541 0.33 1.057
0.533 0.33 1.053
0.522 0.328 1.048
0.511 0.326 1.044
0.502 0.325 1.04
0.499 0.329 1.039
0.49 0.328 1.035
0.479 0.325 1.031
0.477 0.329 1.029
0.467 0.326 1.025
0.463 0.329 1.024
0.452 0.325 1.019
0.424 0.306 1.007
0.415 0.303 1.003
0.413 0.307 1.003
0.426 0.324 1.008
0.421 0.325 1.006
0.421 0.331 1.006
0.421 0.337 1.006
0.417 0.339 1.004
0.405 0.333 0.999
0.384 0.317 0.99
0.383 0.321 0.99
0.379 0.322 0.988
0.375 0.323 0.986
0.368 0.321 0.983
0.367 0.326 0.983
0.363 0.327 0.981
0.36 0.329 0.98
0.357 0.331 0.979
0.35 0.329 0.976
0.348 0.332 0.975
0.344 0.333 0.973
0.341 0.336 0.972
0.339 0.338 0.971
0.331 0.334 0.968
0.328 0.335 0.966
0.325 0.337 0.965
0.323 0.34 0.964
0.32 0.343 0.963
0.318 0.346 0.962
0.315 0.348 0.961
0.306 0.341 0.957
0.309 0.352 0.958
0.301 0.345 0.955
0.302 0.353 0.955
0.294 0.348 0.952
0.292 0.351 0.951
0.289 0.352 0.95
0.287 0.355 0.949
0.282 0.354 0.947
0.28 0.357 0.946
0.277 0.358 0.945
0.27 0.352 0.942
0.267 0.355 0.941
0.265 0.358 0.94
0.265 0.366 0.94
0.258 0.359 0.937
0.254 0.357 0.935
0.251 0.36 0.934
0.25 0.366 0.933
0.245 0.361 0.931
0.241 0.362 0.929
0.241 0.369 0.929
0.238 0.37 0.928
0.232 0.366 0.926
0.229 0.368 0.925
0.227 0.37 0.923
0.224 0.372 0.922
0.222 0.376 0.921
0.217 0.371 0.919
0.214 0.373 0.918
0.211 0.375 0.917
0.208 0.376 0.916
0.205 0.377 0.914
0.202 0.379 0.913
0.2 0.381 0.912
0.194 0.373 0.909
0.193 0.382 0.909
0.189 0.379 0.907
0.186 0.382 0.906
0.183 0.38 0.905
0.181 0.388 0.904
0.178 0.388 0.903
0.174 0.386 0.901
0.171 0.386 0.9
0.167 0.385 0.898
0.166 0.393 0.897
0.163 0.393 0.896
0.158 0.389 0.894
0.156 0.393 0.893
0.152 0.391 0.892
0.15 0.396 0.891
0.147 0.398 0.889
0.144 0.398 0.888
0.14 0.399 0.887
0.137 0.399 0.885
0.135 0.406 0.884
0.132 0.407 0.883
0.128 0.408 0.882
0.125 0.403 0.88
0.121 0.404 0.879
0.118 0.404 0.877
0.116 0.412 0.876
0.111 0.403 0.874
0.108 0.405 0.873
0.106 0.413 0.872
0.102 0.414 0.871
0.099 0.411 0.869
0.096 0.419 0.868
0.092 0.414 0.866
0.089 0.421 0.865
0.086 0.419 0.864
0.082 0.422 0.862
0.082 -0.53 0.862
0.086 -0.53 0.864
0.091 -0.53 0.866
0.095 -0.53 0.868
0.099 -0.53 0.87
0.103 -0.528 0.871
0.108 -0.529 0.873
0.112 -0.529 0.875
0.116 -0.529 0.877
0.12 -0.528 0.879
0.125 -0.537 0.881
0.129 -0.527 0.882
0.134 -0.537 0.885
0.138 -0.536 0.886
0.142 -0.535 0.888
0.147 -0.533 0.89
0.15 -0.525 0.891
0.155 -0.534 0.894
0.16 -0.533 0.896
0.164 -0.533 0.897
0.168 -0.533 0.899
0.173 -0.531 0.901
0.176 -0.527 0.903
0.181 -0.527 0.905
0.185 -0.525 0.906
0.189 -0.525 0.908
0.195 -0.532 0.911
0.199 -0.531 0.913
0.203 -0.53 0.914
0.208 -0.53 0.916
0.212 -0.527 0.918
0.216 -0.526 0.92
0.222 -0.533 0.923
0.226 -0.53 0.924
0.23 -0.527 0.926
0.237 -0.536 0.929
0.241 -0.533 0.931
0.245 -0.531 0.932
0.25 -0.529 0.934
0.254 -0.528 0.936
0.259 -0.528 0.938
0.264 -0.528 0.94
0.268 -0.527 0.942
0.272 -0.526 0.944
0.28 -0.532 0.947
0.284 -0.53 0.949
0.289 -0.529 0.951
0.293 -0.527 0.953
0.301 -0.534 0.956
0.305 -0.532 0.958
0.309 -0.53 0.96
0.314 -0.529 0.962
0.322 -0.535 0.965
0.323 -0.525 0.966
0.327 -0.523 0.967
0.335 -0.529 0.971
0.348 -0.544 0.976
0.339 -0.515 0.972
1.167 -2.13 1.327
0.451 -0.71 1.021
0.48 -0.75 1.033
1.164 -1.999 1.326
1.166 -1.962 1.327
1.169 -1.93 1.328
1.167 -1.889 1.327
1.202 -1.912 1.342
1.078 -1.668 1.289
0.994 -1.499 1.253
1.007 -1.491 1.259
1.028 -1.497 1.268
0 0 0
1.645 -2.384 1.532
0.496 -0.621 1.04
0.508 -0.626 1.045
0.542 -0.664 1.059
0.523 -0.625 1.051
0.508 -0.593 1.045
0.514 -0.591 1.047
0.521 -0.589 1.05
0.533 -0.595 1.056
0.528 -0.578 1.053
0.541 -0.585 1.059
1.755 -2.094 1.579
1.758 -2.061 1.581
1.788 -2.061 1.593
1.764 -1.997 1.583
1.793 -1.996 1.595
1.77 -1.935 1.586
1.801 -1.936 1.599
1.745 -1.841 1.575
1.762 -1.828 1.582
1.895 -1.938 1.639
1.924 -1.935 1.652
2.034 -2.016 1.699
2.055 -2.002 1.708
2.142 -2.054 1.745
2.156 -2.031 1.751
2.229 -2.067 1.782
2.261 -2.061 1.796
2.296 -2.057 1.811
2.325 -2.048 1.824
2.465 -2.137 1.883
2.598 -2.216 1.94
2.596 -2.175 1.939
2.598 -2.138 1.94
1.197 -0.931 1.34
1.619 -1.26 1.521
1.607 -1.228 1.516
1.62 -1.216 1.521
1.628 -1.2 1.525
1.642 -1.188 1.531
1.652 -1.174 1.535
1.662 -1.159 1.539
1.659 -1.135 1.538
0.923 -0.594 1.223
0.925 -0.584 1.223
0.911 -0.564 1.218
0.913 -0.554 1.218
0.956 -0.571 1.237
0.938 -0.549 1.229
1.175 -0.686 1.331
1.764 -1.035 1.583
1.771 -1.019 1.586
1.797 -1.013 1.597
1.811 -1 1.603
1.814 -0.981 1.604
1.829 -0.968 1.611
1.848 -0.958 1.619
1.867 -0.947 1.627
1.887 -0.937 1.636
2.417 -1.185 1.863
2.441 -1.169 1.873
2.453 -1.148 1.878
2.485 -1.137 1.892
2.51 -1.121 1.903
2.539 -1.107 1.915
2.558 -1.088 1.923
2.589 -1.074 1.936
2.617 -1.059 1.948
2.649 -1.044 1.962
2.667 -1.024 1.97
6.429 -2.445 3.582
6.602 -2.442 3.656
6.796 -2.444 3.739
6.969 -2.434 3.813
7.172 -2.432 3.9
7.299 -2.4 3.954
7.093 -2.259 3.866
6.859 -2.114 3.766
7.023 -2.094 3.836
7.141 -2.058 3.887
7.342 -2.043 3.973
7.34 -1.969 3.972
7.383 -1.907 3.99
7.33 -1.821 3.968
7.375 -1.759 3.987
7.325 -1.675 3.966
7.376 -1.614 3.988
6.727 -1.405 3.709
6.661 -1.326 3.681
6.655 -1.261 3.679
6.657 -1.197 3.68
6.821 -1.161 3.75
7.161 -1.151 3.895
7.309 -1.105 3.959
7.322 -1.037 3.964
7.321 -0.967 3.964
7.306 -0.895 3.958
7.302 -0.826 3.956
7.307 -0.757 3.958
7.3 -0.687 3.955
6.644 -0.562 3.674
6.64 -0.499 3.672
6.644 -0.437 3.674
6.642 -0.374 3.673
7.19 -0.338 3.908
7.211 -0.271 3.917
7.215 -0.203 3.919
7.231 -0.136 3.925
7.208 -0.068 3.916
7.21 -0 3.917
9.417 0.089 4.862
9.413 0.177 4.86
9.418 0.266 4.862
9.418 0.355 4.862
9.406 0.443 4.857
9.406 0.532 4.857
9.409 0.621 4.859
9.398 0.709 4.854
9.393 0.797 4.852
9.563 0.902 4.925
9.406 0.977 4.857
6.5 0.734 3.612
6.617 0.81 3.662
3.016 0.392 2.119
2.986 0.416 2.107
2.943 0.437 2.088
2.908 0.46 2.073
2.875 0.481 2.059
2.853 0.505 2.05
2.835 0.528 2.042
2.827 0.553 2.038
2.82 0.579 2.035
2.818 0.606 2.035
2.812 0.631 2.032
2.817 0.66 2.034
2.807 0.685 2.03
1.499 0.37 1.469
1.484 0.38 1.463
1.407 0.373 1.43
1.343 0.368 1.403
1.296 0.366 1.383
1.248 0.364 1.362
1.198 0.36 1.34
1.165 0.36 1.326
1.124 0.357 1.309
1.09 0.356 1.294
1.051 0.353 1.278
1.025 0.353 1.266
0.99 0.35 1.251
0.966 0.35 1.241
0.932 0.346 1.226
0.914 0.348 1.219
0.89 0.346 1.209
0.866 0.345 1.198
0.841 0.342 1.188
0.826 0.343 1.181
0.806 0.343 1.173
0.791 0.343 1.166
0.773 0.343 1.158
0.749 0.338 1.148
0.735 0.339 1.142
0.718 0.338 1.135
0.701 0.336 1.127
0.691 0.338 1.123
0.673 0.335 1.116
0.665 0.337 1.112
0.648 0.334 1.105
0.634 0.333 1.099
0.624 0.333 1.094
0.614 0.334 1.09
0.605 0.335 1.086
0.595 0.335 1.082
0.577 0.33 1.075
0.568 0.331 1.071
0.558 0.33 1.066
0.548 0.33 1.062
0.533 0.325 1.055
0.531 0.329 1.055
0.521 0.328 1.05
0.511 0.327 1.046
0.508 0.33 1.045
0.499 0.329 1.041
0.489 0.328 1.037
0.479 0.326 1.033
0.469 0.323 1.028
0.466 0.326 1.027
0.463 0.33 1.026
0.451 0.325 1.021
0.43 0.312 1.012
0.414 0.303 1.005
0.418 0.312 1.006
0.421 0.32 1.007
0.415 0.32 1.005
0.415 0.326 1.005
0.419 0.336 1.007
0.416 0.338 1.005
0.404 0.332 1
0.384 0.317 0.992
0.38 0.318 0.99
0.373 0.316 0.987
0.375 0.324 0.988
0.367 0.322 0.985
0.366 0.325 0.984
0.362 0.326 0.982
0.355 0.324 0.979
0.352 0.326 0.978
0.349 0.329 0.977
0.346 0.33 0.975
0.344 0.333 0.974
0.34 0.335 0.973
0.338 0.337 0.972
0.33 0.333 0.968
0.327 0.335 0.967
0.329 0.344 0.968
0.322 0.34 0.965
0.32 0.343 0.964
0.317 0.345 0.963
0.315 0.349 0.962
0.307 0.343 0.959
0.305 0.346 0.958
0.3 0.345 0.956
0.297 0.347 0.955
0.293 0.347 0.953
0.291 0.35 0.952
0.286 0.348 0.95
0.285 0.353 0.949
0.281 0.354 0.948
0.279 0.357 0.947
0.276 0.358 0.945
0.269 0.352 0.943
0.267 0.356 0.942
0.264 0.358 0.94
0.261 0.359 0.939
0.26 0.365 0.939
0.257 0.366 0.937
0.25 0.359 0.934
0.25 0.366 0.934
0.248 0.369 0.933
0.244 0.37 0.932
0.24 0.368 0.93
0.234 0.363 0.928
0.235 0.373 0.928
0.229 0.368 0.925
0.227 0.371 0.924
0.224 0.373 0.923
0.222 0.376 0.922
0.216 0.37 0.92
0.214 0.373 0.919
0.21 0.373 0.917
0.208 0.376 0.916
0.204 0.376 0.915
0.202 0.379 0.914
0.199 0.38 0.912
0.196 0.381 0.911
0.193 0.382 0.91
0.19 0.385 0.909
0.188 0.387 0.908
0.182 0.378 0.905
0.181 0.387 0.905
0.176 0.382 0.903
0.174 0.386 0.902
0.17 0.384 0.9
0.167 0.385 0.899
0.165 0.393 0.898
0.162 0.392 0.897
0.159 0.392 0.895
0.156 0.393 0.894
0.152 0.391 0.892
0.149 0.395 0.891
0.146 0.397 0.89
0.143 0.397 0.889
0.14 0.401 0.887
0.137 0.4 0.886
0.135 0.406 0.885
0.131 0.406 0.883
0.127 0.401 0.882
0.124 0.404 0.881
0.121 0.405 0.879
0.118 0.404 0.878
0.115 0.413 0.877
0.112 0.412 0.875
0.109 0.414 0.874
0.105 0.406 0.872
0.102 0.415 0.871
0.099 0.42 0.87
0.095 0.417 0.868
0.092 0.419 0.867
0.089 0.422 0.865
0.085 0.419 0.864
0.082 0.422 0.862
0.082 -0.53 0.863
0.086 -0.53 0.865
0.09 -0.53 0.867
0.094 -0.531 0.869
0.099 -0.531 0.87
0.103 -0.529 0.872
0.107 -0.53 0.874
0.111 -0.53 0.876
0.116 -0.53 0.878
0.12 -0.539 0.88
0.125 -0.539 0.882
0.128 -0.528 0.883
0.133 -0.538 0.886
0.138 -0.537 0.887
0.142 -0.536 0.889
0.146 -0.534 0.891
0.151 -0.536 0.893
0.155 -0.535 0.895
0.159 -0.534 0.897
0.164 -0.535 0.899
0.166 -0.524 0.9
0.172 -0.531 0.902
0.176 -0.529 0.904
0.18 -0.527 0.906
0.184 -0.527 0.908
0.19 -0.535 0.911
0.194 -0.533 0.912
0.199 -0.532 0.914
0.203 -0.532 0.916
0.207 -0.531 0.918
0.211 -0.528 0.92
0.215 -0.526 0.921
0.222 -0.533 0.924
0.226 -0.531 0.926
0.229 -0.528 0.928
0.237 -0.537 0.931
0.24 -0.533 0.932
0.245 -0.532 0.934
0.249 -0.53 0.936
0.254 -0.531 0.938
0.258 -0.529 0.94
0.263 -0.528 0.942
0.267 -0.527 0.944
0.272 -0.527 0.946
0.279 -0.533 0.949
0.284 -0.532 0.951
0.288 -0.531 0.953
0.292 -0.528 0.955
0.297 -0.527 0.957
0.305 -0.534 0.961
0.309 -0.532 0.962
0.313 -0.53 0.964
0.317 -0.528 0.966
0.322 -0.525 0.968
0.33 -0.531 0.971
0.334 -0.529 0.973
0.342 -0.535 0.977
0.342 -0.524 0.977
1.169 -2.142 1.339
0.457 -0.723 1.027
0.474 -0.741 1.035
1.166 -2.008 1.337
1.164 -1.966 1.336
1.166 -1.931 1.337
1.166 -1.895 1.337
1.197 -1.91 1.351
1.075 -1.67 1.298
0.995 -1.507 1.263
1.005 -1.494 1.267
1.018 -1.488 1.273
1.288 -1.88 1.391
1.635 -2.376 1.542
1.669 -2.385 1.557
0.505 -0.625 1.048
0.534 -0.656 1.061
0.526 -0.632 1.057
0.501 -0.586 1.047
0.513 -0.592 1.052
0.52 -0.591 1.055
0.533 -0.598 1.061
0.526 -0.578 1.057
0.543 -0.589 1.065
1.668 -1.992 1.557
1.691 -1.985 1.567
1.726 -1.993 1.582
1.711 -1.941 1.576
1.734 -1.934 1.586
1.674 -1.832 1.56
1.713 -1.844 1.577
1.837 -1.95 1.631
1.866 -1.947 1.643
1.971 -2.026 1.689
1.987 -2.008 1.696
2.109 -2.099 1.75
2.128 -2.083 1.758
2.172 -2.09 1.777
2.2 -2.082 1.789
2.229 -2.074 1.802
2.256 -2.063 1.814
2.289 -2.058 1.829
2.319 -2.049 1.842
2.444 -2.126 1.896
2.589 -2.216 1.96
2.595 -2.182 1.962
2.596 -2.144 1.963
1.152 -0.896 1.331
1.685 -1.319 1.565
1.595 -1.222 1.525
1.606 -1.209 1.53
1.626 -1.203 1.539
1.631 -1.184 1.541
1.644 -1.172 1.546
1.656 -1.159 1.552
1.657 -1.138 1.552
0.93 -0.601 1.234
0.937 -0.595 1.237
0.909 -0.564 1.225
0.91 -0.554 1.226
0.949 -0.569 1.243
0.938 -0.551 1.238
1.162 -0.681 1.336
1.756 -1.034 1.595
1.771 -1.022 1.602
1.788 -1.011 1.609
1.8 -0.997 1.615
1.817 -0.986 1.622
1.824 -0.969 1.625
1.84 -0.957 1.632
1.867 -0.95 1.644
1.879 -0.936 1.649
2.434 -1.197 1.892
2.45 -1.178 1.899
2.459 -1.156 1.903
2.492 -1.144 1.917
2.517 -1.128 1.928
2.551 -1.116 1.943
2.571 -1.098 1.952
2.602 -1.084 1.966
2.62 -1.064 1.973
2.656 -1.051 1.989
2.669 -1.028 1.995
6.469 -2.469 3.657
6.724 -2.496 3.769
6.838 -2.467 3.818
6.957 -2.438 3.871
7.166 -2.438 3.962
7.274 -2.4 4.009
7.38 -2.36 4.055
6.965 -2.154 3.874
7.377 -2.208 4.054
7.357 -2.128 4.045
7.322 -2.044 4.03
7.382 -1.987 4.056
7.372 -1.91 4.052
7.366 -1.836 4.049
7.368 -1.763 4.05
7.367 -1.69 4.05
7.379 -1.62 4.055
6.744 -1.414 3.777
6.649 -1.328 3.736
6.644 -1.263 3.733
6.645 -1.199 3.734
6.798 -1.161 3.801
7.134 -1.15 3.948
7.288 -1.105 4.015
7.298 -1.037 4.02
7.299 -0.967 4.02
7.292 -0.897 4.017
7.286 -0.827 4.014
7.29 -0.758 4.016
7.282 -0.688 4.012
6.63 -0.562 3.727
6.628 -0.5 3.727
6.632 -0.437 3.728
6.62 -0.374 3.723
7.174 -0.338 3.965
7.192 -0.271 3.973
7.208 -0.204 3.98
7.202 -0.136 3.978
7.193 -0.068 3.973
7.201 -0 3.977
9.403 0.089 4.94
9.39 0.177 4.935
9.391 0.266 4.935
9.38 0.354 4.93
9.394 0.444 4.936
9.382 0.532 4.931
9.386 0.621 4.933
9.38 0.71 4.93
9.376 0.798 4.928
9.364 0.886 4.923
9.378 0.977 4.929
6.497 0.736 3.669
6.605 0.811 3.716
3.024 0.394 2.15
2.979 0.416 2.13
2.942 0.439 2.114
2.898 0.459 2.095
2.869 0.482 2.082
2.856 0.507 2.076
2.834 0.53 2.067
2.842 0.558 2.07
2.826 0.582 2.063
2.832 0.611 2.066
2.822 0.636 2.062
2.83 0.665 2.065
2.824 0.691 2.063
1.494 0.37 1.481
1.479 0.38 1.474
1.401 0.373 1.44
1.344 0.369 1.415
1.289 0.366 1.391
1.244 0.364 1.371
1.194 0.36 1.349
1.163 0.361 1.336
1.113 0.355 1.314
1.086 0.356 1.302
1.048 0.353 1.286
1.015 0.351 1.271
0.99 0.351 1.26
0.963 0.35 1.249
0.938 0.35 1.238
0.906 0.345 1.224
0.89 0.347 1.216
0.865 0.345 1.206
0.838 0.342 1.194
0.823 0.343 1.187
0.797 0.34 1.176
0.789 0.344 1.172
0.765 0.34 1.162
0.749 0.34 1.155
0.732 0.339 1.148
0.716 0.338 1.141
0.699 0.336 1.133
0.691 0.339 1.13
0.672 0.335 1.121
0.662 0.337 1.117
0.645 0.334 1.11
0.634 0.334 1.104
0.623 0.334 1.1
0.612 0.334 1.095
0.596 0.33 1.088
0.594 0.336 1.087
0.577 0.331 1.08
0.567 0.331 1.075
0.558 0.331 1.071
0.548 0.331 1.067
0.538 0.33 1.063
0.53 0.33 1.059
0.52 0.329 1.055
0.517 0.333 1.053
0.499 0.325 1.046
0.497 0.33 1.045
0.488 0.328 1.041
0.485 0.332 1.039
0.474 0.329 1.035
0.465 0.327 1.031
0.462 0.33 1.029
0.455 0.33 1.026
0.42 0.304 1.011
0.411 0.301 1.007
0.416 0.312 1.009
0.422 0.323 1.012
0.42 0.327 1.011
0.42 0.333 1.011
0.419 0.338 1.011
0.415 0.34 1.009
0.404 0.334 1.004
0.383 0.318 0.995
0.38 0.32 0.993
0.378 0.323 0.992
0.374 0.325 0.991
0.367 0.323 0.988
0.365 0.326 0.987
0.361 0.327 0.985
0.359 0.33 0.984
0.357 0.334 0.983
0.348 0.329 0.98
0.345 0.331 0.978
0.343 0.334 0.977
0.34 0.336 0.976
0.337 0.339 0.975
0.334 0.34 0.973
0.325 0.334 0.97
0.327 0.343 0.97
0.321 0.34 0.968
0.319 0.343 0.967
0.31 0.338 0.963
0.309 0.341 0.962
0.306 0.343 0.961
0.303 0.346 0.96
0.304 0.354 0.96
0.297 0.348 0.957
0.292 0.347 0.955
0.29 0.35 0.954
0.285 0.349 0.952
0.284 0.354 0.952
0.281 0.355 0.95
0.278 0.357 0.949
0.276 0.36 0.948
0.268 0.352 0.945
0.267 0.357 0.944
0.264 0.359 0.943
0.26 0.358 0.941
0.26 0.366 0.941
0.253 0.358 0.938
0.25 0.361 0.937
0.248 0.365 0.936
0.243 0.361 0.934
0.241 0.365 0.933
0.239 0.368 0.932
0.238 0.374 0.931
0.232 0.368 0.929
0.232 0.378 0.929
0.227 0.373 0.926
0.224 0.375 0.925
0.221 0.377 0.924
0.219 0.381 0.923
0.214 0.375 0.921
0.21 0.374 0.919
0.207 0.377 0.918
0.204 0.376 0.916
0.202 0.38 0.915
0.198 0.381 0.914
0.195 0.382 0.913
0.192 0.382 0.911
0.19 0.385 0.91
0.185 0.38 0.908
0.183 0.386 0.907
0.178 0.38 0.905
0.177 0.387 0.905
0.173 0.386 0.903
0.17 0.385 0.901
0.167 0.389 0.9
0.165 0.394 0.899
0.162 0.394 0.898
0.158 0.393 0.896
0.155 0.393 0.895
0.151 0.392 0.893
0.149 0.398 0.893
0.146 0.398 0.891
0.143 0.398 0.89
0.14 0.402 0.888
0.137 0.402 0.887
0.133 0.4 0.886
0.131 0.406 0.884
0.127 0.401 0.883
0.124 0.404 0.881
0.121 0.405 0.88
0.117 0.405 0.879
0.115 0.414 0.878
0.112 0.415 0.876
0.108 0.406 0.874
0.104 0.406 0.873
0.101 0.406 0.872
0.098 0.412 0.87
0.095 0.42 0.869
0.092 0.42 0.867
0.088 0.421 0.866
0.085 0.421 0.864
0.082 0.421 0.863
0.081 -0.54 0.864
0.085 -0.531 0.865
0.09 -0.54 0.867
0.094 -0.531 0.869
0.098 -0.531 0.871
0.102 -0.53 0.873
0.107 -0.53 0.875
0.111 -0.54 0.877
0.115 -0.53 0.879
0.12 -0.538 0.881
0.123 -0.529 0.882
0.128 -0.537 0.885
0.133 -0.537 0.887
0.137 -0.537 0.888
0.141 -0.536 0.89
0.145 -0.534 0.892
0.15 -0.536 0.894
0.154 -0.535 0.896
0.159 -0.535 0.898
0.163 -0.535 0.9
0.167 -0.533 0.902
0.171 -0.532 0.904
0.175 -0.529 0.905
0.179 -0.527 0.907
0.183 -0.527 0.909
0.187 -0.525 0.911
0.194 -0.533 0.914
0.198 -0.533 0.916
0.202 -0.532 0.918
0.204 -0.522 0.919
0.21 -0.527 0.921
0.215 -0.527 0.923
0.221 -0.534 0.926
0.225 -0.531 0.928
0.229 -0.528 0.929
0.235 -0.535 0.932
0.239 -0.534 0.934
0.244 -0.534 0.936
0.248 -0.53 0.938
0.253 -0.531 0.94
0.257 -0.53 0.942
0.264 -0.537 0.945
0.266 -0.527 0.946
0.274 -0.535 0.949
0.278 -0.534 0.951
0.282 -0.532 0.953
0.287 -0.53 0.955
0.291 -0.528 0.957
0.295 -0.526 0.959
0.303 -0.534 0.963
0.307 -0.531 0.964
0.312 -0.53 0.967
0.316 -0.528 0.968
0.324 -0.533 0.972
0.329 -0.532 0.974
0.332 -0.529 0.976
0.341 -0.534 0.979
0.345 -0.533 0.981
1.163 -2.137 1.346
0.457 -0.728 1.031
0.475 -0.747 1.039
1.159 -2.004 1.345
1.162 -1.969 1.346
1.161 -1.93 1.346
1.159 -1.889 1.344
1.19 -1.906 1.358
1.081 -1.687 1.31
0.996 -1.514 1.272
1.002 -1.496 1.275
1.02 -1.496 1.282
1.285 -1.882 1.401
1.624 -2.368 1.552
1.653 -2.369 1.565
0.505 -0.627 1.053
0.529 -0.65 1.063
0.518 -0.624 1.059
0.502 -0.59 1.051
0.509 -0.589 1.055
0.517 -0.59 1.058
0.532 -0.6 1.065
0.53 -0.586 1.064
0.537 -0.585 1.067
1.609 -1.925 1.545
1.631 -1.918 1.555
1.68 -1.944 1.577
1.609 -1.825 1.545
1.634 -1.824 1.557
1.826 -2.014 1.642
1.802 -1.951 1.631
1.987 -2.124 1.714
2.002 -2.103 1.72
2.055 -2.124 1.744
2.079 -2.112 1.755
2.108 -2.106 1.768
2.135 -2.097 1.78
2.164 -2.09 1.793
2.19 -2.08 1.805
2.221 -2.073 1.818
2.254 -2.069 1.833
2.281 -2.057 1.845
2.311 -2.049 1.859
2.417 -2.109 1.906
2.589 -2.224 1.983
2.593 -2.188 1.984
2.59 -2.146 1.983
1.143 -0.892 1.337
1.687 -1.325 1.58
1.594 -1.226 1.539
1.605 -1.212 1.543
1.611 -1.195 1.546
1.624 -1.183 1.552
1.635 -1.17 1.557
1.639 -1.15 1.558
1.651 -1.138 1.564
0.935 -0.607 1.245
0.933 -0.594 1.244
0.911 -0.568 1.234
0.908 -0.555 1.233
0.962 -0.579 1.256
0.935 -0.551 1.244
1.127 -0.661 1.33
1.736 -1.025 1.602
1.758 -1.018 1.612
1.78 -1.01 1.622
1.779 -0.989 1.621
1.796 -0.978 1.629
1.817 -0.968 1.638
1.833 -0.957 1.645
1.851 -0.945 1.653
1.865 -0.932 1.659
2.43 -1.199 1.912
2.451 -1.183 1.921
2.468 -1.164 1.928
2.496 -1.15 1.941
2.52 -1.134 1.952
2.563 -1.125 1.971
2.57 -1.101 1.974
2.608 -1.09 1.991
2.622 -1.068 1.997
6.047 -2.442 3.525
6.281 -2.471 3.63
6.406 -2.452 3.685
6.551 -2.439 3.75
6.754 -2.445 3.841
6.908 -2.429 3.909
7.117 -2.429 4.002
7.211 -2.387 4.044
0 0 0
0 0 0
0 0 0
7.374 -2.14 4.117
7.284 -2.04 4.077
7.375 -1.991 4.118
7.468 -1.942 4.159
7.385 -1.846 4.122
7.46 -1.791 4.156
7.391 -1.701 4.125
7.461 -1.644 4.156
6.698 -1.408 3.816
6.629 -1.329 3.785
6.63 -1.265 3.785
6.624 -1.199 3.783
6.787 -1.163 3.856
7.113 -1.151 4.001
7.28 -1.108 4.075
7.279 -1.038 4.075
7.27 -0.967 4.071
7.285 -0.899 4.077
7.273 -0.828 4.072
7.272 -0.758 4.072
7.27 -0.689 4.071
6.608 -0.562 3.775
6.612 -0.5 3.777
6.609 -0.437 3.776
6.606 -0.374 3.775
7.151 -0.338 4.018
7.186 -0.272 4.033
7.187 -0.204 4.034
7.187 -0.136 4.034
7.18 -0.068 4.031
7.182 -0 4.032
9.372 0.089 5.009
9.363 0.177 5.004
9.366 0.266 5.006
9.361 0.355 5.004
9.364 0.444 5.005
9.362 0.533 5.004
9.361 0.622 5.004
9.359 0.71 5.003
9.346 0.798 4.997
9.359 0.889 5.003
9.349 0.977 4.998
6.484 0.737 3.72
6.591 0.812 3.768
6.587 0.875 3.766
2.964 0.416 2.15
2.934 0.439 2.137
2.901 0.461 2.122
2.87 0.484 2.108
2.859 0.509 2.103
2.845 0.534 2.097
2.846 0.561 2.097
2.838 0.587 2.093
2.848 0.616 2.098
2.833 0.641 2.091
2.838 0.669 2.093
2.827 0.694 2.089
1.493 0.371 1.493
1.472 0.38 1.484
1.397 0.373 1.451
1.332 0.367 1.422
1.278 0.363 1.398
1.24 0.364 1.381
1.19 0.36 1.358
1.151 0.358 1.341
1.118 0.358 1.326
1.076 0.354 1.307
1.043 0.353 1.293
1.009 0.35 1.278
0.985 0.35 1.267
0.962 0.351 1.256
0.926 0.346 1.241
0.91 0.348 1.233
0.887 0.347 1.223
0.861 0.345 1.211
0.836 0.343 1.2
0.821 0.344 1.194
0.802 0.343 1.185
0.786 0.344 1.178
0.761 0.339 1.167
0.747 0.34 1.16
0.73 0.339 1.153
0.714 0.338 1.146
0.705 0.34 1.142
0.687 0.338 1.134
0.67 0.336 1.126
0.659 0.337 1.122
0.643 0.334 1.114
0.631 0.334 1.109
0.621 0.334 1.104
0.611 0.335 1.1
0.593 0.33 1.092
0.584 0.331 1.088
0.576 0.332 1.084
0.565 0.331 1.08
0.556 0.331 1.075
0.546 0.331 1.071
0.537 0.33 1.067
0.528 0.33 1.063
0.518 0.329 1.058
0.508 0.328 1.054
0.498 0.326 1.05
0.495 0.329 1.048
0.486 0.328 1.044
0.476 0.326 1.04
0.472 0.329 1.038
0.463 0.327 1.034
0.46 0.33 1.033
0.451 0.328 1.029
0.416 0.302 1.013
0.409 0.301 1.01
0.418 0.315 1.014
0.411 0.314 1.011
0.419 0.327 1.014
0.418 0.333 1.014
0.418 0.338 1.014
0.42 0.346 1.015
0.396 0.328 1.004
0.384 0.32 0.999
0.378 0.32 0.996
0.377 0.324 0.996
0.371 0.323 0.993
0.369 0.327 0.992
0.363 0.326 0.989
0.36 0.327 0.988
0.358 0.33 0.987
0.349 0.326 0.983
0.346 0.328 0.982
0.349 0.337 0.983
0.341 0.333 0.979
0.338 0.336 0.978
0.33 0.331 0.975
0.328 0.334 0.974
0.33 0.342 0.974
0.326 0.343 0.973
0.324 0.346 0.972
0.317 0.343 0.969
0.309 0.338 0.965
0.313 0.349 0.967
0.305 0.344 0.963
0.302 0.346 0.962
0.298 0.346 0.96
0.296 0.348 0.959
0.293 0.35 0.958
0.289 0.35 0.956
0.285 0.351 0.955
0.283 0.354 0.954
0.28 0.356 0.952
0.276 0.355 0.95
0.275 0.36 0.95
0.271 0.36 0.948
0.264 0.354 0.945
0.263 0.359 0.945
0.258 0.358 0.943
0.259 0.366 0.943
0.251 0.358 0.94
0.249 0.362 0.939
0.247 0.365 0.938
0.242 0.361 0.935
0.24 0.366 0.935
0.239 0.37 0.934
0.236 0.372 0.933
0.23 0.367 0.93
0.228 0.37 0.929
0.229 0.382 0.93
0.223 0.375 0.927
0.22 0.376 0.926
0.218 0.381 0.925
0.212 0.374 0.922
0.209 0.374 0.921
0.205 0.374 0.919
0.203 0.376 0.918
0.2 0.379 0.917
0.198 0.381 0.916
0.195 0.383 0.914
0.192 0.383 0.913
0.188 0.384 0.911
0.184 0.379 0.909
0.182 0.385 0.909
0.179 0.388 0.907
0.176 0.388 0.906
0.172 0.385 0.904
0.171 0.394 0.904
0.167 0.394 0.902
0.164 0.394 0.901
0.161 0.393 0.899
0.157 0.392 0.898
0.155 0.395 0.896
0.152 0.401 0.895
0.148 0.397 0.894
0.145 0.398 0.892
0.142 0.399 0.891
0.139 0.402 0.89
0.136 0.401 0.888
0.133 0.401 0.887
0.13 0.406 0.885
0.126 0.399 0.884
0.123 0.405 0.882
0.12 0.405 0.881
0.117 0.406 0.88
0.113 0.403 0.878
0.11 0.406 0.877
0.108 0.415 0.875
0.104 0.415 0.874
0.101 0.406 0.872
0.098 0.412 0.871
0.094 0.411 0.869
0.091 0.412 0.868
0.088 0.42 0.867
0.085 0.423 0.865
0.081 0.42 0.864
0.081 -0.53 0.864
0.085 -0.531 0.866
0.089 -0.53 0.868
0.093 -0.531 0.87
0.098 -0.531 0.872
0.102 -0.529 0.874
0.106 -0.53 0.876
0.11 -0.53 0.878
0.114 -0.53 0.88
0.119 -0.529 0.881
0.124 -0.538 0.884
0.128 -0.538 0.886
0.132 -0.538 0.888
0.136 -0.537 0.889
0.141 -0.536 0.891
0.145 -0.535 0.893
0.149 -0.536 0.895
0.154 -0.536 0.897
0.158 -0.535 0.899
0.162 -0.535 0.901
0.166 -0.533 0.903
0.17 -0.531 0.905
0.174 -0.53 0.907
0.178 -0.528 0.909
0.182 -0.526 0.91
0.187 -0.525 0.912
0.191 -0.524 0.914
0.197 -0.533 0.917
0.201 -0.532 0.919
0.206 -0.531 0.921
0.21 -0.528 0.923
0.213 -0.526 0.925
0.22 -0.534 0.928
0.224 -0.531 0.929
0.228 -0.528 0.931
0.234 -0.535 0.934
0.238 -0.534 0.936
0.243 -0.532 0.938
0.247 -0.53 0.94
0.254 -0.537 0.943
0.256 -0.529 0.944
0.263 -0.537 0.947
0.265 -0.528 0.948
0.272 -0.535 0.951
0.274 -0.525 0.952
0.281 -0.532 0.955
0.286 -0.53 0.957
0.29 -0.528 0.959
0.294 -0.525 0.961
0.302 -0.534 0.965
0.306 -0.532 0.967
0.311 -0.53 0.969
0.315 -0.528 0.971
0.319 -0.525 0.973
0.327 -0.531 0.976
0.331 -0.529 0.978
0.339 -0.533 0.982
0.337 -0.519 0.981
0 0 0
0.458 -0.733 1.036
0.471 -0.742 1.042
1.157 -2.008 1.354
1.158 -1.969 1.354
1.158 -1.931 1.354
1.16 -1.898 1.355
1.186 -1.907 1.367
1.083 -1.695 1.32
1.001 -1.528 1.283
0.997 -1.493 1.281
1.012 -1.488 1.288
1.243 -1.824 1.393
1.577 -2.304 1.545
1.608 -2.309 1.559
0.505 -0.629 1.057
0.534 -0.66 1.07
0.512 -0.617 1.06
0.505 -0.597 1.057
0.508 -0.591 1.059
0.51 -0.583 1.06
0.528 -0.596 1.068
0.528 -0.586 1.068
0.532 -0.581 1.07
1.557 -1.866 1.536
1.567 -1.845 1.54
1.581 -1.831 1.547
1.768 -2.023 1.632
1.791 -2.015 1.642
1.965 -2.182 1.722
1.97 -2.149 1.724
1.995 -2.14 1.735
2.02 -2.131 1.746
2.05 -2.127 1.76
2.077 -2.118 1.772
2.1 -2.106 1.783
2.128 -2.098 1.796
2.157 -2.09 1.809
2.18 -2.077 1.819
2.215 -2.075 1.835
2.244 -2.066 1.848
2.27 -2.054 1.86
2.304 -2.05 1.876
2.403 -2.103 1.921
2.58 -2.223 2.001
2.589 -2.192 2.005
2.58 -2.146 2.001
1.141 -0.894 1.347
1.705 -1.344 1.603
1.598 -1.234 1.555
1.592 -1.206 1.552
1.595 -1.187 1.553
1.608 -1.175 1.559
1.622 -1.164 1.565
1.631 -1.149 1.569
1.647 -1.139 1.577
0.94 -0.613 1.255
0.921 -0.588 1.247
0.91 -0.569 1.241
0.902 -0.553 1.238
0.95 -0.574 1.26
0.932 -0.551 1.251
1.123 -0.661 1.338
1.729 -1.024 1.614
1.754 -1.019 1.625
1.761 -1.002 1.628
1.779 -0.992 1.637
1.792 -0.978 1.642
1.804 -0.965 1.648
1.82 -0.953 1.655
1.843 -0.944 1.666
1.853 -0.929 1.67
4.954 -2.496 3.081
5.274 -2.6 3.227
2.478 -1.173 1.955
5.362 -2.523 3.267
0 0 0
5.519 -2.475 3.338
5.672 -2.482 3.408
5.784 -2.468 3.459
5.924 -2.464 3.522
6.02 -2.44 3.566
6.205 -2.449 3.65
6.423 -2.468 3.75
6.536 -2.442 3.801
6.758 -2.455 3.902
6.873 -2.425 3.954
7.066 -2.42 4.042
7.187 -2.387 4.097
0 0 0
0 0 0
0 0 0
0 0 0
7.282 -2.046 4.14
7.42 -2.01 4.203
7.506 -1.958 4.242
7.481 -1.877 4.231
7.513 -1.81 4.246
7.474 -1.726 4.228
7.504 -1.659 4.241
6.728 -1.42 3.888
6.616 -1.331 3.837
6.608 -1.265 3.834
6.617 -1.202 3.838
6.759 -1.162 3.902
7.081 -1.149 4.049
7.253 -1.107 4.127
7.26 -1.038 4.13
7.254 -0.968 4.128
7.258 -0.898 4.129
7.259 -0.829 4.13
7.257 -0.759 4.129
7.258 -0.69 4.129
6.593 -0.563 3.827
6.598 -0.501 3.829
6.593 -0.438 3.827
6.594 -0.375 3.827
7.142 -0.339 4.077
7.163 -0.272 4.086
7.164 -0.204 4.086
7.18 -0.136 4.094
7.158 -0.068 4.084
7.163 -0 4.086
9.359 0.089 5.085
9.337 0.178 5.075
9.347 0.267 5.08
9.342 0.355 5.077
9.342 0.444 5.077
9.347 0.534 5.08
9.342 0.622 5.078
9.334 0.711 5.074
9.329 0.8 5.072
9.337 0.89 5.075
9.334 0.979 5.074
6.469 0.738 3.77
6.571 0.812 3.817
6.568 0.875 3.816
2.966 0.417 2.177
2.925 0.439 2.158
2.912 0.465 2.152
2.868 0.485 2.132
2.856 0.51 2.127
2.843 0.535 2.121
2.848 0.563 2.123
2.838 0.589 2.119
2.844 0.618 2.121
2.832 0.642 2.116
1.755 0.408 1.626
1.515 0.364 1.517
1.487 0.371 1.504
1.462 0.378 1.493
1.395 0.373 1.462
1.319 0.365 1.428
1.281 0.366 1.41
1.236 0.364 1.39
1.186 0.36 1.367
1.155 0.361 1.353
1.115 0.358 1.335
1.073 0.354 1.315
1.049 0.356 1.305
1.014 0.353 1.289
0.983 0.351 1.275
0.957 0.351 1.263
0.924 0.346 1.248
0.908 0.349 1.24
0.883 0.347 1.229
0.86 0.346 1.219
0.841 0.346 1.21
0.816 0.343 1.199
0.799 0.343 1.191
0.783 0.344 1.184
0.768 0.344 1.177
0.743 0.339 1.166
0.728 0.339 1.159
0.711 0.338 1.151
0.694 0.336 1.143
0.687 0.339 1.14
0.667 0.335 1.131
0.65 0.333 1.123
0.641 0.334 1.119
0.628 0.333 1.113
0.619 0.334 1.109
0.608 0.335 1.104
0.592 0.331 1.097
0.589 0.336 1.096
0.573 0.331 1.088
0.563 0.331 1.084
0.554 0.331 1.079
0.544 0.331 1.075
0.534 0.33 1.07
0.526 0.33 1.067
0.516 0.329 1.062
0.506 0.328 1.058
0.497 0.326 1.054
0.494 0.33 1.052
0.485 0.328 1.048
0.475 0.326 1.043
0.471 0.329 1.042
0.462 0.327 1.037
0.458 0.33 1.036
0.449 0.328 1.032
0.423 0.31 1.02
0.41 0.303 1.014
0.415 0.314 1.016
0.415 0.319 1.016
0.411 0.321 1.015
0.416 0.332 1.017
0.416 0.338 1.017
0.412 0.34 1.015
0.401 0.334 1.01
0.382 0.32 1.001
0.377 0.32 0.999
0.374 0.322 0.998
0.37 0.323 0.996
0.368 0.327 0.995
0.361 0.324 0.992
0.358 0.327 0.99
0.356 0.33 0.989
0.353 0.332 0.988
0.35 0.334 0.987
0.342 0.331 0.983
0.34 0.333 0.982
0.337 0.336 0.981
0.334 0.338 0.98
0.327 0.334 0.976
0.323 0.334 0.974
0.321 0.338 0.974
0.318 0.34 0.972
0.316 0.343 0.971
0.313 0.345 0.97
0.306 0.341 0.967
0.304 0.344 0.966
0.3 0.344 0.964
0.301 0.353 0.965
0.294 0.347 0.961
0.29 0.348 0.959
0.287 0.349 0.958
0.284 0.35 0.956
0.286 0.36 0.957
0.279 0.356 0.954
0.277 0.358 0.953
0.273 0.359 0.952
0.27 0.359 0.95
0.264 0.355 0.947
0.262 0.359 0.946
0.257 0.358 0.945
0.254 0.358 0.943
0.255 0.367 0.943
0.252 0.37 0.942
0.246 0.364 0.939
0.244 0.369 0.939
0.242 0.372 0.938
0.237 0.368 0.935
0.235 0.372 0.934
0.233 0.375 0.933
0.227 0.37 0.931
0.224 0.371 0.929
0.222 0.375 0.929
0.22 0.378 0.927
0.214 0.372 0.925
0.21 0.372 0.923
0.207 0.372 0.922
0.205 0.375 0.921
0.202 0.377 0.919
0.2 0.379 0.918
0.196 0.38 0.917
0.191 0.373 0.914
0.191 0.383 0.914
0.188 0.384 0.913
0.185 0.385 0.911
0.181 0.385 0.91
0.179 0.389 0.909
0.175 0.385 0.907
0.171 0.385 0.905
0.17 0.394 0.905
0.167 0.394 0.903
0.163 0.394 0.902
0.16 0.393 0.9
0.156 0.391 0.899
0.154 0.394 0.897
0.151 0.4 0.896
0.148 0.397 0.895
0.145 0.399 0.893
0.141 0.397 0.892
0.139 0.402 0.891
0.135 0.401 0.889
0.132 0.4 0.887
0.128 0.399 0.886
0.126 0.407 0.885
0.123 0.405 0.883
0.12 0.416 0.882
0.116 0.405 0.88
0.113 0.404 0.879
0.11 0.414 0.878
0.107 0.415 0.876
0.103 0.406 0.874
0.1 0.406 0.873
0.097 0.413 0.872
0.094 0.42 0.87
0.09 0.412 0.869
0.087 0.412 0.867
0.084 0.412 0.866
0.081 0.421 0.864
0.08 -0.531 0.864
0.085 -0.531 0.866
0.089 -0.53 0.868
0.093 -0.531 0.87
0.097 -0.531 0.872
0.101 -0.53 0.874
0.106 -0.531 0.876
0.11 -0.53 0.878
0.114 -0.531 0.88
0.118 -0.529 0.882
0.123 -0.539 0.884
0.127 -0.528 0.886
0.132 -0.538 0.888
0.136 -0.537 0.89
0.14 -0.536 0.892
0.145 -0.536 0.894
0.149 -0.536 0.896
0.153 -0.534 0.898
0.157 -0.534 0.9
0.162 -0.535 0.902
0.166 -0.533 0.904
0.17 -0.531 0.906
0.174 -0.53 0.907
0.178 -0.526 0.909
0.182 -0.526 0.911
0.188 -0.534 0.914
0.192 -0.533 0.916
0.196 -0.532 0.918
0.201 -0.532 0.92
0.205 -0.531 0.922
0.209 -0.528 0.924
0.213 -0.526 0.925
0.219 -0.534 0.928
0.223 -0.531 0.93
0.228 -0.53 0.932
0.231 -0.526 0.934
0.235 -0.525 0.936
0.242 -0.532 0.939
0.246 -0.53 0.941
0.251 -0.529 0.943
0.256 -0.53 0.945
0.26 -0.529 0.947
0.265 -0.528 0.949
0.272 -0.535 0.952
0.276 -0.534 0.955
0.281 -0.532 0.957
0.285 -0.53 0.958
0.289 -0.528 0.96
0.297 -0.535 0.964
0.301 -0.533 0.966
0.305 -0.531 0.968
0.31 -0.53 0.97
0.315 -0.528 0.972
0.322 -0.533 0.976
0.326 -0.531 0.977
0.331 -0.53 0.98
0.339 -0.534 0.983
0.338 -0.522 0.983
0.395 -0.624 1.009
0.456 -0.731 1.037
1.154 -2.046 1.358
1.156 -2.009 1.359
1.16 -1.977 1.36
1.155 -1.93 1.358
1.158 -1.898 1.36
1.181 -1.902 1.37
1.077 -1.689 1.322
0.996 -1.522 1.285
0.997 -1.496 1.286
1.012 -1.492 1.293
1.239 -1.821 1.397
1.526 -2.231 1.529
1.561 -2.243 1.545
0.502 -0.627 1.058
0.526 -0.65 1.069
0.507 -0.612 1.061
0.496 -0.585 1.055
0.504 -0.586 1.059
0.511 -0.585 1.062
0.525 -0.593 1.069
0.522 -0.579 1.067
0.534 -0.585 1.073
0 0 0
1.769 -2.101 1.64
1.599 -1.856 1.562
2.085 -2.407 1.785
1.993 -2.257 1.743
1.974 -2.196 1.735
1.966 -2.149 1.731
1.995 -2.144 1.744
2.017 -2.131 1.754
2.044 -2.123 1.766
2.073 -2.118 1.78
2.097 -2.106 1.791
2.125 -2.098 1.804
2.151 -2.088 1.816
2.179 -2.08 1.829
2.218 -2.081 1.847
2.242 -2.068 1.858
2.295 -2.081 1.882
2.297 -2.047 1.883
2.376 -2.083 1.919
2.584 -2.231 2.015
2.588 -2.195 2.017
2.583 -2.152 2.014
1.138 -0.893 1.35
1.582 -1.245 1.554
1.6 -1.237 1.563
1.589 -1.206 1.558
1.59 -1.185 1.558
1.602 -1.172 1.564
1.613 -1.159 1.568
1.635 -1.154 1.579
1.631 -1.129 1.577
0.99 -0.65 1.282
0.91 -0.582 1.246
0.908 -0.569 1.245
0.903 -0.555 1.243
0.953 -0.577 1.265
0.934 -0.553 1.257
1.111 -0.655 1.338
1.725 -1.024 1.62
1.745 -1.016 1.629
1.752 -0.999 1.632
1.776 -0.992 1.643
1.779 -0.973 1.645
1.796 -0.962 1.653
1.815 -0.952 1.661
1.836 -0.942 1.671
4.864 -2.511 3.062
5.111 -2.581 3.176
5.046 -2.49 3.146
5.168 -2.493 3.202
5.267 -2.482 3.248
5.371 -2.471 3.295
5.567 -2.501 3.385
5.694 -2.496 3.444
5.846 -2.5 3.514
5.937 -2.474 3.556
6.02 -2.444 3.594
6.221 -2.459 3.686
6.443 -2.48 3.788
6.546 -2.45 3.836
6.806 -2.477 3.955
6.895 -2.437 3.996
7.082 -2.429 4.081
7.185 -2.39 4.129
0 0 0
0 0 0
0 0 0
0 0 0
7.267 -2.045 4.167
7.437 -2.019 4.245
7.547 -1.973 4.295
7.526 -1.892 4.285
7.586 -1.831 4.313
7.538 -1.745 4.291
7.563 -1.675 4.302
6.723 -1.421 3.917
6.611 -1.332 3.865
6.604 -1.266 3.862
6.607 -1.202 3.863
6.753 -1.163 3.93
7.075 -1.15 4.078
7.254 -1.109 4.161
7.255 -1.04 4.161
7.246 -0.968 4.157
7.245 -0.898 4.157
7.249 -0.829 4.158
7.248 -0.76 4.158
7.245 -0.69 4.157
6.588 -0.564 3.855
6.586 -0.501 3.854
6.589 -0.438 3.855
6.583 -0.375 3.852
7.13 -0.339 4.103
7.156 -0.272 4.116
7.166 -0.204 4.12
7.165 -0.136 4.12
7.161 -0.068 4.118
7.152 -0 4.114
9.34 0.089 5.119
9.342 0.178 5.12
9.34 0.267 5.119
9.338 0.356 5.118
9.343 0.445 5.12
9.328 0.533 5.114
9.334 0.623 5.116
9.326 0.712 5.113
9.318 0.8 5.109
9.332 0.891 5.115
9.332 0.98 5.115
6.46 0.738 3.796
6.566 0.813 3.845
6.563 0.876 3.843
6.565 0.94 3.844
2.938 0.442 2.178
2.918 0.467 2.169
2.885 0.489 2.153
2.87 0.514 2.146
2.855 0.538 2.14
2.866 0.568 2.144
2.857 0.594 2.14
2.867 0.624 2.145
2.846 0.647 2.135
1.613 0.374 1.568
1.634 0.395 1.578
1.479 0.37 1.507
1.462 0.379 1.499
1.4 0.376 1.471
1.336 0.37 1.441
1.278 0.366 1.415
1.233 0.364 1.394
1.184 0.36 1.372
1.153 0.361 1.357
1.119 0.36 1.342
1.07 0.354 1.319
1.04 0.353 1.305
1.013 0.353 1.293
0.981 0.351 1.278
0.954 0.35 1.266
0.932 0.351 1.256
0.898 0.345 1.24
0.882 0.347 1.233
0.856 0.345 1.221
0.84 0.346 1.214
0.815 0.343 1.202
0.798 0.343 1.194
0.781 0.343 1.186
0.765 0.343 1.179
0.735 0.336 1.165
0.727 0.339 1.161
0.71 0.338 1.154
0.693 0.336 1.146
0.685 0.339 1.142
0.666 0.335 1.133
0.656 0.337 1.129
0.639 0.334 1.121
0.627 0.334 1.116
0.617 0.334 1.111
0.607 0.335 1.106
0.6 0.336 1.103
0.589 0.336 1.098
0.572 0.331 1.09
0.562 0.331 1.086
0.553 0.332 1.082
0.543 0.331 1.077
0.534 0.33 1.073
0.524 0.329 1.068
0.522 0.334 1.067
0.505 0.328 1.06
0.495 0.326 1.055
0.486 0.324 1.051
0.483 0.328 1.049
0.48 0.332 1.048
0.464 0.324 1.041
0.461 0.328 1.04
0.457 0.329 1.037
0.448 0.327 1.033
0.416 0.304 1.018
0.415 0.309 1.018
0.416 0.315 1.018
0.415 0.32 1.018
0.41 0.321 1.016
0.416 0.333 1.019
0.415 0.338 1.018
0.411 0.34 1.017
0.399 0.332 1.011
0.382 0.32 1.003
0.376 0.32 1
0.372 0.321 0.999
0.368 0.322 0.997
0.368 0.328 0.997
0.361 0.325 0.993
0.357 0.327 0.992
0.355 0.33 0.991
0.352 0.332 0.989
0.349 0.334 0.988
0.342 0.331 0.984
0.339 0.333 0.983
0.336 0.335 0.982
0.33 0.333 0.979
0.331 0.34 0.98
0.328 0.342 0.978
0.319 0.336 0.974
0.317 0.339 0.973
0.315 0.343 0.972
0.312 0.344 0.971
0.31 0.347 0.97
0.302 0.342 0.966
0.3 0.346 0.966
0.301 0.353 0.966
0.292 0.346 0.962
0.29 0.349 0.961
0.291 0.356 0.961
0.283 0.349 0.957
0.281 0.353 0.957
0.278 0.356 0.955
0.276 0.358 0.954
0.273 0.36 0.953
0.269 0.359 0.951
0.263 0.355 0.948
0.261 0.359 0.947
0.262 0.367 0.948
0.258 0.367 0.946
0.25 0.358 0.942
0.248 0.361 0.941
0.246 0.365 0.94
0.244 0.369 0.94
0.239 0.366 0.937
0.236 0.368 0.936
0.234 0.371 0.935
0.229 0.366 0.933
0.229 0.377 0.933
0.224 0.372 0.93
0.221 0.373 0.929
0.215 0.367 0.926
0.216 0.379 0.927
0.213 0.381 0.926
0.207 0.373 0.923
0.204 0.374 0.921
0.201 0.376 0.92
0.199 0.379 0.919
0.196 0.38 0.918
0.193 0.382 0.916
0.19 0.382 0.915
0.188 0.386 0.914
0.184 0.385 0.912
0.179 0.378 0.91
0.178 0.387 0.909
0.175 0.387 0.908
0.171 0.387 0.906
0.17 0.394 0.905
0.167 0.395 0.904
0.163 0.395 0.903
0.16 0.393 0.901
0.156 0.389 0.899
0.153 0.393 0.898
0.151 0.4 0.897
0.147 0.397 0.895
0.144 0.399 0.894
0.142 0.406 0.893
0.138 0.401 0.891
0.135 0.401 0.889
0.132 0.4 0.888
0.129 0.406 0.887
0.125 0.399 0.885
0.122 0.404 0.884
0.119 0.406 0.882
0.116 0.405 0.881
0.113 0.414 0.88
0.11 0.414 0.878
0.107 0.414 0.877
0.104 0.416 0.875
0.1 0.415 0.874
0.097 0.414 0.872
0.093 0.411 0.87
0.09 0.414 0.869
0.087 0.422 0.868
0.084 0.414 0.866
0.08 0.421 0.864
0.08 -0.53 0.865
0.084 -0.531 0.867
0.088 -0.531 0.869
0.093 -0.531 0.871
0.097 -0.53 0.873
0.101 -0.529 0.875
0.105 -0.53 0.877
0.109 -0.53 0.879
0.113 -0.53 0.881
0.118 -0.539 0.883
0.123 -0.538 0.885
0.127 -0.538 0.887
0.131 -0.537 0.889
0.134 -0.527 0.891
0.14 -0.536 0.893
0.144 -0.535 0.895
0.148 -0.536 0.897
0.153 -0.536 0.899
0.155 -0.525 0.9
0.161 -0.534 0.903
0.165 -0.534 0.905
0.169 -0.531 0.907
0.173 -0.53 0.909
0.177 -0.527 0.911
0.181 -0.526 0.912
0.185 -0.525 0.914
0.191 -0.533 0.917
0.196 -0.532 0.919
0.198 -0.523 0.92
0.204 -0.531 0.923
0.21 -0.537 0.926
0.215 -0.536 0.928
0.218 -0.534 0.93
0.222 -0.531 0.932
0.226 -0.529 0.934
0.233 -0.536 0.937
0.237 -0.534 0.939
0.241 -0.533 0.941
0.246 -0.531 0.943
0.25 -0.53 0.945
0.254 -0.529 0.947
0.259 -0.529 0.949
0.264 -0.528 0.951
0.268 -0.527 0.953
0.275 -0.533 0.956
0.28 -0.532 0.959
0.284 -0.53 0.961
0.288 -0.528 0.962
0.292 -0.526 0.964
0.3 -0.534 0.968
0.304 -0.531 0.97
0.309 -0.53 0.972
0.313 -0.528 0.974
0.317 -0.525 0.976
0.325 -0.531 0.98
0.329 -0.529 0.982
0.333 -0.525 0.984
0.341 -0.53 0.987
0.4 -0.638 1.015
0.455 -0.733 1.041
1.151 -2.049 1.367
1.153 -2.011 1.367
1.152 -1.97 1.367
1.156 -1.939 1.369
1.154 -1.898 1.368
1.148 -1.852 1.366
1.091 -1.719 1.339
0.992 -1.522 1.292
0.992 -1.493 1.292
1.004 -1.484 1.298
1.216 -1.792 1.397
1.487 -2.179 1.524
1.521 -2.191 1.54
0.5 -0.626 1.062
0.515 -0.637 1.069
0.509 -0.617 1.066
0.499 -0.592 1.061
0.501 -0.584 1.062
0.51 -0.586 1.066
0.525 -0.596 1.074
0.527 -0.588 1.074
0.534 -0.587 1.078
0 0 0
2.111 -2.535 1.816
1.949 -2.293 1.741
2.1 -2.434 1.811
1.995 -2.268 1.762
1.968 -2.196 1.749
1.964 -2.154 1.747
1.987 -2.143 1.758
2.009 -2.13 1.768
2.038 -2.125 1.782
2.067 -2.119 1.796
2.09 -2.106 1.807
