# .PCD v0.7 - Point Cloud Data file format
VERSION 0.7
FIELDS x y z
SIZE 4 4 4
TYPE F F F
COUNT 1 1 1
WIDTH 2515
HEIGHT 1
VIEWPOINT 0 0 0 1 0 0 0
POINTS 2515
DATA ascii
0.133 0.664 0.879
0.127 0.664 0.877
0.122 0.667 0.874
0.117 0.665 0.872
0.111 0.665 0.87
0.106 0.666 0.868
0.1 0.666 0.866
0.095 0.666 0.864
0.089 0.666 0.862
0.084 0.666 0.86
0.084 -0.408 0.86
0.087 -0.411 0.861
0.091 -0.415 0.863
0.094 -0.414 0.864
0.097 -0.41 0.865
0.101 -0.416 0.867
0.104 -0.408 0.868
0.107 -0.415 0.869
0.111 -0.416 0.871
0.114 -0.416 0.872
0.117 -0.412 0.873
0.121 -0.417 0.875
0.125 -0.417 0.876
0.129 -0.423 0.878
0.131 -0.417 0.879
0.135 -0.414 0.88
0.138 -0.412 0.881
0.141 -0.414 0.883
0.146 -0.42 0.884
0.149 -0.42 0.886
0.153 -0.419 0.887
0.156 -0.421 0.889
0.16 -0.421 0.89
0.163 -0.418 0.891
0.166 -0.418 0.893
0.17 -0.417 0.894
0.173 -0.417 0.895
0.177 -0.415 0.897
0.182 -0.422 0.899
0.186 -0.425 0.9
0.19 -0.427 0.902
0.194 -0.429 0.904
0.196 -0.419 0.904
0.201 -0.427 0.906
0.206 -0.429 0.908
0.21 -0.429 0.91
0.214 -0.431 0.911
0.216 -0.426 0.912
0.221 -0.427 0.914
0.224 -0.426 0.915
0.231 -0.434 0.918
0.236 -0.436 0.92
0.237 -0.429 0.92
0.244 -0.438 0.923
0.247 -0.433 0.924
0.253 -0.44 0.927
0.258 -0.441 0.929
0.263 -0.442 0.93
0.265 -0.437 0.931
0.272 -0.443 0.934
0.275 -0.441 0.935
0.28 -0.442 0.937
0.283 -0.44 0.939
0.288 -0.439 0.94
0.295 -0.446 0.943
0.298 -0.443 0.944
0.305 -0.448 0.947
0.306 -0.439 0.947
0.314 -0.446 0.951
0.317 -0.443 0.952
0.326 -0.45 0.955
0.328 -0.445 0.956
0.336 -0.452 0.959
0.341 -0.452 0.962
0.344 -0.447 0.962
0.348 -0.445 0.964
0.355 -0.45 0.967
0.363 -0.454 0.97
0.368 -0.453 0.972
0.375 -0.455 0.975
0.376 -0.448 0.975
0.384 -0.453 0.978
0.388 -0.451 0.98
0.399 -0.457 0.984
0.406 -0.459 0.987
0.411 -0.459 0.989
0.417 -0.458 0.991
0.434 -0.473 0.998
0.513 -0.57 1.029
0.537 -0.591 1.039
0.547 -0.593 1.042
0.551 -0.589 1.044
0.561 -0.59 1.048
0.572 -0.593 1.052
0.582 -0.595 1.056
0.593 -0.597 1.061
0.603 -0.598 1.065
0.612 -0.598 1.068
0.617 -0.593 1.07
0.628 -0.596 1.075
0.645 -0.603 1.081
0.655 -0.603 1.085
0.669 -0.607 1.091
0.672 -0.6 1.092
0.683 -0.601 1.096
0.694 -0.601 1.101
0.705 -0.601 1.105
0.722 -0.607 1.112
0.733 -0.606 1.116
0.744 -0.606 1.12
0.754 -0.605 1.124
0.773 -0.611 1.132
0.784 -0.61 1.136
0.794 -0.608 1.14
0.813 -0.612 1.147
0.825 -0.611 1.152
0.844 -0.616 1.16
0.855 -0.613 1.164
0.867 -0.611 1.169
0.892 -0.62 1.179
0.904 -0.617 1.183
0.929 -0.624 1.193
0.941 -0.621 1.198
0.952 -0.618 1.202
0.975 -0.622 1.211
0.995 -0.624 1.219
1.007 -0.62 1.224
1.033 -0.625 1.234
1.053 -0.626 1.242
1.08 -0.631 1.253
1.097 -0.629 1.26
1.124 -0.633 1.27
1.145 -0.632 1.278
1.171 -0.635 1.289
1.199 -0.637 1.299
1.224 -0.638 1.31
1.252 -0.64 1.32
1.286 -0.644 1.334
1.314 -0.645 1.345
1.343 -0.645 1.356
1.38 -0.65 1.371
1.413 -0.651 1.384
1.44 -0.649 1.395
1.436 -0.632 1.393
2.977 -1.32 2.001
2.974 -1.287 2
2.942 -1.241 1.987
2.954 -1.215 1.992
3.058 -1.227 2.033
3.426 -1.343 2.178
3.422 -1.306 2.176
3.426 -1.272 2.178
3.433 -1.239 2.18
3.444 -1.209 2.185
3.122 -1.061 2.058
3.05 -1.005 2.029
3.134 -1.003 2.063
3.395 -1.054 2.165
3.399 -1.022 2.167
3.398 -0.988 2.167
3.397 -0.954 2.166
3.405 -0.923 2.169
3.409 -0.891 2.171
3.411 -0.859 2.172
3.415 -0.827 2.173
3.42 -0.795 2.175
3.908 -0.874 2.368
3.939 -0.843 2.38
7.187 -1.484 3.661
7.199 -1.417 3.665
7.207 -1.35 3.669
7.223 -1.284 3.675
7.222 -1.215 3.675
7.235 -1.149 3.679
7.233 -1.08 3.679
7.244 -1.013 3.683
7.256 -0.947 3.688
7.263 -0.879 3.691
7.282 -0.813 3.698
7.294 -0.746 3.703
7.302 -0.679 3.706
7.325 -0.613 3.715
7.327 -0.544 3.716
7.325 -0.476 3.715
7.292 -0.406 3.702
6.751 -0.313 3.489
6.756 -0.25 3.491
6.766 -0.188 3.495
6.77 -0.125 3.496
7.459 -0.069 3.768
7.458 -0 3.768
7.479 0.069 3.776
7.488 0.139 3.779
7.494 0.209 3.782
7.515 0.279 3.79
7.514 0.349 3.789
7.335 0.408 3.719
7.013 0.456 3.592
6.859 0.509 3.531
6.862 0.573 3.533
6.868 0.638 3.535
6.952 0.711 3.568
7.507 0.839 3.787
7.561 0.916 3.808
7.531 0.983 3.796
7.608 1.065 3.827
7.546 1.127 3.802
7.629 1.212 3.835
7.567 1.274 3.81
7.641 1.359 3.84
7.586 1.422 3.818
7.66 1.509 3.847
7.617 1.574 3.83
7.565 1.636 3.81
7.516 1.698 3.791
0 0 0
7.195 1.765 3.664
0 0 0
0 0 0
0 0 0
6.339 1.802 3.326
6.308 1.855 3.314
0 0 0
5.99 1.88 3.189
5.855 1.897 3.135
0 0 0
2.6 0.879 1.852
2.537 0.882 1.827
2.491 0.891 1.809
2.457 0.903 1.796
2.416 0.913 1.78
2.385 0.925 1.767
2.357 0.938 1.756
2.321 0.947 1.742
2.295 0.96 1.732
2.273 0.975 1.723
2.253 0.99 1.715
2.267 1.02 1.721
4.484 2.106 2.595
4.406 2.117 2.564
4.3 2.114 2.522
4.224 2.123 2.492
4.168 2.141 2.47
4.093 2.149 2.441
4.048 2.171 2.423
3.974 2.177 2.394
3.894 2.177 2.362
3.855 2.201 2.347
3.793 2.21 2.323
3.736 2.221 2.3
3.595 2.179 2.244
3.617 2.237 2.253
3.535 2.229 2.221
3.507 2.255 2.209
3.456 2.265 2.189
3.402 2.272 2.168
3.346 2.277 2.146
3.294 2.284 2.126
3.244 2.291 2.106
3.198 2.301 2.088
1.036 0.717 1.236
1.022 0.719 1.23
1.01 0.724 1.225
0.998 0.727 1.221
0.979 0.725 1.213
0.966 0.727 1.208
0.953 0.73 1.203
0.94 0.732 1.198
0.926 0.733 1.192
0.914 0.736 1.187
0.902 0.738 1.183
0.891 0.741 1.178
0.878 0.742 1.173
0.868 0.745 1.169
0.855 0.746 1.164
0.843 0.748 1.159
0.83 0.748 1.154
0.818 0.749 1.149
0.813 0.756 1.147
0.8 0.756 1.142
0.787 0.756 1.137
0.781 0.762 1.135
0.769 0.763 1.13
0.756 0.761 1.125
0.75 0.768 1.123
0.737 0.767 1.118
0.726 0.766 1.113
0.714 0.765 1.108
0.702 0.764 1.103
0.696 0.77 1.101
0.684 0.768 1.096
0.679 0.775 1.094
0.666 0.772 1.089
0.66 0.778 1.087
0.654 0.784 1.085
0.641 0.781 1.08
0.63 0.779 1.075
0.624 0.785 1.073
0.613 0.783 1.069
0.601 0.779 1.064
0.596 0.786 1.062
0.584 0.782 1.057
0.578 0.787 1.055
0.572 0.792 1.052
0.56 0.788 1.048
0.549 0.785 1.043
0.473 0.669 1.013
0.441 0.626 1.001
0.431 0.621 0.997
0.426 0.624 0.995
0.421 0.627 0.993
0.411 0.622 0.989
0.406 0.625 0.987
0.402 0.63 0.985
0.392 0.622 0.981
0.387 0.625 0.979
0.382 0.63 0.978
0.377 0.633 0.976
0.371 0.634 0.973
0.363 0.63 0.97
0.358 0.633 0.968
0.349 0.626 0.965
0.348 0.638 0.964
0.339 0.632 0.961
0.334 0.634 0.959
0.329 0.636 0.957
0.321 0.63 0.953
0.316 0.633 0.951
0.314 0.644 0.951
0.305 0.637 0.947
0.3 0.638 0.945
0.295 0.64 0.943
0.29 0.642 0.941
0.284 0.644 0.939
0.279 0.646 0.937
0.274 0.647 0.935
0.268 0.648 0.933
0.263 0.65 0.931
0.258 0.652 0.928
0.25 0.645 0.926
0.245 0.645 0.923
0.24 0.648 0.921
0.234 0.649 0.919
0.229 0.651 0.917
0.224 0.652 0.915
0.219 0.653 0.913
0.213 0.655 0.911
0.208 0.656 0.909
0.203 0.657 0.907
0.197 0.658 0.905
0.192 0.659 0.903
0.187 0.66 0.9
0.181 0.661 0.898
0.176 0.662 0.896
0.169 0.655 0.894
0.165 0.664 0.892
0.16 0.664 0.89
0.154 0.665 0.888
0.148 0.655 0.885
0.143 0.663 0.883
0.138 0.663 0.881
0.132 0.664 0.879
0.127 0.664 0.877
0.122 0.665 0.875
0.116 0.665 0.873
0.111 0.665 0.871
0.105 0.666 0.868
0.1 0.666 0.866
0.095 0.666 0.864
0.089 0.666 0.862
0.084 0.666 0.86
0.083 -0.408 0.861
0.087 -0.411 0.862
0.09 -0.416 0.863
0.093 -0.414 0.865
0.097 -0.419 0.866
0.1 -0.415 0.867
0.104 -0.417 0.869
0.107 -0.412 0.87
0.11 -0.409 0.871
0.114 -0.418 0.873
0.117 -0.413 0.874
0.121 -0.417 0.876
0.124 -0.416 0.877
0.127 -0.415 0.878
0.131 -0.418 0.88
0.134 -0.416 0.881
0.139 -0.423 0.883
0.141 -0.415 0.884
0.145 -0.419 0.885
0.149 -0.421 0.887
0.152 -0.419 0.888
0.154 -0.412 0.889
0.159 -0.42 0.891
0.162 -0.418 0.892
0.168 -0.429 0.895
0.169 -0.417 0.895
0.175 -0.427 0.897
0.178 -0.424 0.899
0.179 -0.413 0.899
0.186 -0.426 0.902
0.187 -0.415 0.902
0.194 -0.429 0.905
0.197 -0.427 0.906
0.2 -0.426 0.908
0.205 -0.43 0.91
0.209 -0.429 0.911
0.213 -0.431 0.913
0.215 -0.424 0.914
0.219 -0.425 0.915
0.226 -0.435 0.918
0.231 -0.436 0.92
0.232 -0.429 0.92
0.237 -0.43 0.922
0.241 -0.431 0.924
0.245 -0.431 0.926
0.252 -0.44 0.929
0.254 -0.434 0.929
0.261 -0.439 0.932
0.264 -0.437 0.933
0.268 -0.437 0.935
0.274 -0.441 0.937
0.28 -0.445 0.94
0.283 -0.44 0.941
0.29 -0.447 0.944
0.295 -0.447 0.946
0.298 -0.444 0.947
0.301 -0.441 0.948
0.309 -0.448 0.951
0.309 -0.439 0.951
0.316 -0.443 0.954
0.32 -0.443 0.956
0.327 -0.445 0.959
0.336 -0.453 0.962
0.339 -0.45 0.964
0.342 -0.447 0.965
0.352 -0.454 0.969
0.355 -0.451 0.97
0.361 -0.453 0.973
0.367 -0.453 0.975
0.373 -0.455 0.977
0.379 -0.455 0.979
0.382 -0.452 0.981
0.388 -0.451 0.983
0.397 -0.457 0.987
0.401 -0.454 0.988
0.41 -0.459 0.992
0.415 -0.458 0.994
0.428 -0.467 0.999
0.505 -0.562 1.031
0.535 -0.591 1.043
0.545 -0.593 1.046
0.55 -0.589 1.048
0.559 -0.589 1.052
0.57 -0.592 1.056
0.579 -0.594 1.06
0.59 -0.596 1.065
0.595 -0.591 1.066
0.604 -0.592 1.07
0.615 -0.593 1.075
0.625 -0.594 1.079
0.636 -0.596 1.083
0.653 -0.603 1.09
0.657 -0.597 1.092
0.676 -0.606 1.099
0.68 -0.6 1.101
0.698 -0.607 1.108
0.71 -0.608 1.113
0.72 -0.607 1.117
0.73 -0.606 1.121
0.747 -0.611 1.128
0.758 -0.611 1.132
0.77 -0.61 1.137
0.781 -0.609 1.142
0.798 -0.613 1.149
0.811 -0.613 1.153
0.822 -0.611 1.158
0.841 -0.615 1.165
0.852 -0.613 1.17
0.871 -0.617 1.178
0.882 -0.614 1.182
0.9 -0.617 1.19
0.919 -0.619 1.197
0.937 -0.621 1.204
0.95 -0.618 1.209
0.972 -0.622 1.218
0.991 -0.623 1.226
1.011 -0.625 1.234
1.032 -0.626 1.242
1.049 -0.626 1.25
1.07 -0.626 1.258
1.094 -0.629 1.268
1.115 -0.629 1.276
1.142 -0.633 1.287
1.166 -0.634 1.297
1.194 -0.637 1.308
1.221 -0.638 1.319
1.248 -0.64 1.33
1.283 -0.645 1.344
1.311 -0.646 1.355
1.338 -0.645 1.366
1.376 -0.65 1.381
1.409 -0.651 1.394
1.437 -0.65 1.406
1.446 -0.639 1.409
2.961 -1.317 2.019
2.949 -1.28 2.015
2.94 -1.244 2.011
2.947 -1.216 2.014
3.088 -1.243 2.07
3.415 -1.343 2.203
3.413 -1.307 2.202
3.422 -1.274 2.205
3.429 -1.242 2.208
3.441 -1.211 2.213
3.04 -1.036 2.051
3.091 -1.022 2.072
3.165 -1.016 2.102
3.372 -1.05 2.185
3.376 -1.018 2.187
3.383 -0.986 2.189
3.39 -0.955 2.193
3.384 -0.92 2.19
3.402 -0.892 2.197
3.392 -0.856 2.193
3.396 -0.824 2.195
3.396 -0.792 2.195
3.918 -0.879 2.405
7.136 -1.547 3.701
7.172 -1.485 3.716
7.187 -1.419 3.721
7.197 -1.352 3.726
7.203 -1.284 3.728
7.205 -1.216 3.729
7.217 -1.149 3.734
7.22 -1.081 3.735
7.236 -1.015 3.741
7.243 -0.948 3.744
7.26 -0.882 3.751
7.271 -0.814 3.755
7.278 -0.747 3.758
7.283 -0.679 3.76
7.301 -0.612 3.767
7.306 -0.544 3.769
7.31 -0.476 3.771
7.277 -0.406 3.758
6.74 -0.313 3.542
6.743 -0.251 3.543
6.747 -0.188 3.544
6.756 -0.126 3.548
7.438 -0.069 3.823
7.45 -0 3.828
7.451 0.069 3.828
7.471 0.139 3.836
7.485 0.209 3.842
7.493 0.279 3.845
7.5 0.349 3.848
7.32 0.409 3.775
6.988 0.455 3.642
6.838 0.509 3.581
6.852 0.574 3.586
6.854 0.639 3.587
6.933 0.711 3.619
7.561 0.847 3.872
7.638 0.928 3.903
7.588 0.993 3.883
7.659 1.075 3.912
7.608 1.14 3.891
7.67 1.222 3.916
7.614 1.286 3.894
7.629 1.361 3.9
7.639 1.436 3.904
7.648 1.511 3.907
7.663 1.588 3.913
7.549 1.637 3.867
0 0 0
0 0 0
7.036 1.731 3.661
6.866 1.756 3.592
6.687 1.775 3.52
6.524 1.796 3.455
6.32 1.802 3.373
6.282 1.853 3.357
0 0 0
0 0 0
5.846 1.899 3.181
0 0 0
2.581 0.875 1.866
2.524 0.881 1.844
2.484 0.891 1.827
2.447 0.902 1.812
2.399 0.909 1.793
2.375 0.924 1.784
2.337 0.932 1.768
2.307 0.944 1.756
2.283 0.958 1.747
2.252 0.969 1.734
2.25 0.992 1.733
4.553 2.095 2.661
4.472 2.106 2.628
4.392 2.117 2.596
4.32 2.13 2.567
4.252 2.144 2.539
4.152 2.139 2.499
4.084 2.15 2.472
4.016 2.16 2.444
3.952 2.171 2.419
3.89 2.182 2.394
3.84 2.199 2.373
3.785 2.212 2.352
3.729 2.223 2.329
3.653 2.222 2.298
3.612 2.241 2.282
3.549 2.245 2.256
3.495 2.254 2.234
3.446 2.265 2.215
3.392 2.272 2.193
3.343 2.282 2.173
3.284 2.284 2.15
3.237 2.293 2.131
3.186 2.298 2.11
1.029 0.714 1.241
1.02 0.72 1.238
1.008 0.724 1.233
0.995 0.727 1.228
0.982 0.73 1.222
0.962 0.727 1.214
0.95 0.73 1.21
0.938 0.733 1.205
0.924 0.734 1.199
0.912 0.737 1.194
0.899 0.738 1.189
0.888 0.74 1.184
0.874 0.741 1.179
0.865 0.745 1.175
0.852 0.746 1.17
0.84 0.748 1.165
0.834 0.755 1.163
0.822 0.755 1.158
0.81 0.756 1.153
0.797 0.756 1.148
0.784 0.755 1.143
0.772 0.755 1.138
0.766 0.762 1.135
0.754 0.762 1.131
0.741 0.761 1.126
0.735 0.767 1.123
0.723 0.766 1.118
0.712 0.765 1.114
0.705 0.771 1.111
0.693 0.77 1.106
0.687 0.775 1.104
0.676 0.775 1.099
0.664 0.772 1.094
0.657 0.778 1.092
0.645 0.775 1.087
0.64 0.781 1.085
0.628 0.779 1.08
0.616 0.777 1.075
0.606 0.776 1.071
0.599 0.779 1.068
0.594 0.786 1.066
0.582 0.782 1.061
0.576 0.787 1.059
0.57 0.792 1.056
0.558 0.788 1.052
0.547 0.785 1.047
0.473 0.672 1.017
0.434 0.617 1.002
0.429 0.621 1
0.424 0.624 0.998
0.415 0.619 0.994
0.41 0.622 0.992
0.405 0.625 0.99
0.401 0.63 0.988
0.39 0.622 0.984
0.386 0.627 0.983
0.382 0.631 0.981
0.376 0.633 0.978
0.367 0.626 0.975
0.362 0.629 0.973
0.357 0.632 0.971
0.352 0.635 0.969
0.346 0.637 0.966
0.338 0.632 0.963
0.333 0.634 0.961
0.328 0.637 0.959
0.323 0.639 0.957
0.318 0.641 0.955
0.309 0.635 0.952
0.304 0.636 0.949
0.299 0.638 0.947
0.294 0.64 0.945
0.288 0.641 0.943
0.283 0.644 0.941
0.278 0.645 0.939
0.273 0.647 0.937
0.267 0.648 0.935
0.262 0.65 0.932
0.254 0.642 0.929
0.249 0.645 0.927
0.244 0.646 0.925
0.239 0.648 0.923
0.234 0.649 0.921
0.228 0.651 0.919
0.223 0.652 0.917
0.218 0.653 0.915
0.212 0.654 0.913
0.207 0.656 0.91
0.202 0.657 0.908
0.197 0.659 0.906
0.191 0.659 0.904
0.186 0.661 0.902
0.181 0.662 0.9
0.175 0.663 0.898
0.169 0.655 0.895
0.164 0.663 0.893
0.159 0.664 0.891
0.154 0.665 0.889
0.148 0.665 0.887
0.143 0.663 0.884
0.137 0.663 0.882
0.132 0.664 0.88
0.126 0.663 0.878
0.121 0.665 0.876
0.116 0.665 0.874
0.11 0.665 0.871
0.105 0.666 0.869
0.1 0.666 0.867
0.094 0.666 0.865
0.089 0.666 0.863
0.083 0.676 0.861
0.083 -0.41 0.861
0.086 -0.404 0.863
0.09 -0.415 0.864
0.093 -0.414 0.865
0.096 -0.408 0.867
0.1 -0.415 0.868
0.103 -0.409 0.869
0.106 -0.412 0.871
0.109 -0.41 0.872
0.113 -0.41 0.873
0.116 -0.414 0.875
0.12 -0.419 0.877
0.123 -0.414 0.878
0.127 -0.416 0.879
0.13 -0.418 0.881
0.134 -0.418 0.882
0.138 -0.425 0.884
0.141 -0.423 0.885
0.144 -0.42 0.886
0.148 -0.419 0.888
0.151 -0.419 0.889
0.155 -0.42 0.891
0.158 -0.419 0.892
0.162 -0.417 0.893
0.164 -0.413 0.895
0.168 -0.416 0.896
0.172 -0.417 0.898
0.177 -0.425 0.9
0.179 -0.416 0.901
0.185 -0.428 0.903
0.186 -0.416 0.904
0.191 -0.422 0.906
0.197 -0.43 0.908
0.2 -0.428 0.909
0.202 -0.422 0.91
0.208 -0.429 0.913
0.212 -0.431 0.914
0.217 -0.432 0.916
0.221 -0.433 0.918
0.225 -0.434 0.92
0.229 -0.435 0.921
0.234 -0.436 0.923
0.238 -0.438 0.925
0.243 -0.438 0.927
0.247 -0.439 0.929
0.249 -0.433 0.929
0.254 -0.435 0.932
0.26 -0.44 0.934
0.263 -0.437 0.935
0.267 -0.438 0.937
0.274 -0.443 0.94
0.276 -0.438 0.941
0.282 -0.44 0.943
0.286 -0.44 0.945
0.293 -0.446 0.948
0.297 -0.444 0.949
0.301 -0.443 0.951
0.308 -0.448 0.954
0.312 -0.447 0.955
0.314 -0.442 0.956
0.319 -0.443 0.958
0.327 -0.447 0.961
0.334 -0.452 0.964
0.338 -0.45 0.966
0.341 -0.447 0.967
0.35 -0.454 0.971
0.353 -0.45 0.972
0.361 -0.454 0.975
0.365 -0.453 0.977
0.372 -0.454 0.98
0.377 -0.454 0.982
0.386 -0.46 0.986
0.391 -0.459 0.988
0.395 -0.456 0.99
0.4 -0.454 0.991
0.404 -0.453 0.993
0.415 -0.46 0.998
0.427 -0.467 1.003
0.504 -0.562 1.034
0.534 -0.591 1.047
0.543 -0.593 1.051
0.548 -0.589 1.052
0.558 -0.591 1.057
0.569 -0.594 1.061
0.572 -0.588 1.063
0.582 -0.589 1.067
0.598 -0.598 1.073
0.603 -0.593 1.075
0.613 -0.593 1.079
0.63 -0.602 1.086
0.634 -0.595 1.088
0.645 -0.597 1.092
0.655 -0.597 1.097
0.669 -0.601 1.102
0.684 -0.606 1.109
0.689 -0.601 1.111
0.7 -0.601 1.115
0.717 -0.607 1.122
0.729 -0.607 1.127
0.739 -0.606 1.131
0.757 -0.611 1.138
0.767 -0.61 1.143
0.778 -0.609 1.147
0.79 -0.608 1.152
0.807 -0.612 1.159
0.82 -0.611 1.164
0.838 -0.615 1.172
0.85 -0.614 1.177
0.861 -0.611 1.181
0.887 -0.62 1.192
0.899 -0.618 1.197
0.917 -0.62 1.204
0.935 -0.622 1.212
0.946 -0.618 1.216
0.97 -0.623 1.226
0.989 -0.624 1.234
1.009 -0.626 1.242
1.028 -0.626 1.25
1.047 -0.626 1.258
1.073 -0.631 1.269
1.091 -0.629 1.276
1.111 -0.629 1.284
1.138 -0.632 1.295
1.163 -0.634 1.306
1.19 -0.637 1.317
1.216 -0.638 1.327
1.243 -0.639 1.339
1.279 -0.645 1.353
1.306 -0.645 1.365
1.334 -0.645 1.376
1.371 -0.65 1.391
1.404 -0.651 1.405
1.433 -0.65 1.417
1.439 -0.638 1.419
2.957 -1.319 2.044
2.979 -1.297 2.053
2.939 -1.248 2.037
2.968 -1.229 2.048
3.232 -1.307 2.157
3.404 -1.343 2.228
3.397 -1.304 2.225
6.473 -2.447 3.491
3.414 -1.24 2.232
6.487 -2.317 3.497
3.044 -1.04 2.08
3.046 -1.01 2.081
3.358 -1.083 2.209
3.361 -1.05 2.21
3.366 -1.018 2.212
3.369 -0.986 2.214
3.371 -0.953 2.214
3.371 -0.92 2.215
3.374 -0.887 2.216
3.374 -0.854 2.216
3.383 -0.824 2.22
3.381 -0.791 2.218
6.561 -1.489 3.527
7.103 -1.545 3.75
7.155 -1.487 3.772
7.167 -1.42 3.777
7.18 -1.353 3.782
7.189 -1.286 3.786
7.185 -1.216 3.784
7.198 -1.15 3.79
7.206 -1.082 3.793
7.213 -1.015 3.796
7.223 -0.948 3.8
7.217 -0.879 3.797
7.244 -0.814 3.808
7.259 -0.747 3.815
7.265 -0.679 3.817
7.292 -0.614 3.828
7.291 -0.545 3.828
7.295 -0.477 3.829
7.269 -0.407 3.818
6.725 -0.314 3.595
6.725 -0.251 3.595
6.735 -0.188 3.599
6.736 -0.126 3.599
7.423 -0.069 3.882
7.434 -0 3.886
7.44 0.069 3.889
7.453 0.139 3.894
7.453 0.209 3.894
7.467 0.279 3.9
7.471 0.349 3.902
7.3 0.409 3.831
6.979 0.456 3.699
6.818 0.509 3.633
6.839 0.575 3.641
6.834 0.639 3.639
6.911 0.711 3.671
7.602 0.855 3.956
7.604 0.927 3.957
7.624 1.001 3.965
7.637 1.075 3.97
7.633 1.147 3.969
7.673 1.227 3.985
7.594 1.286 3.952
7.616 1.363 3.961
7.662 1.445 3.98
0 0 0
7.679 1.597 3.987
7.522 1.637 3.923
0 0 0
0 0 0
7.195 1.776 3.788
7.161 1.837 3.774
6.677 1.778 3.575
0 0 0
6.303 1.802 3.421
6.264 1.854 3.405
0 0 0
0 0 0
0 0 0
0 0 0
2.566 0.872 1.883
2.5 0.874 1.856
2.462 0.886 1.84
2.427 0.898 1.826
2.387 0.907 1.809
2.357 0.919 1.797
2.33 0.933 1.786
2.299 0.944 1.773
2.261 0.952 1.757
2.249 0.97 1.753
2.254 0.996 1.755
4.539 2.095 2.695
4.461 2.108 2.663
4.391 2.123 2.634
4.305 2.129 2.599
4.249 2.149 2.576
4.171 2.156 2.544
4.1 2.166 2.514
4.003 2.16 2.475
3.932 2.167 2.445
3.86 2.172 2.416
3.81 2.188 2.395
3.771 2.211 2.379
3.71 2.219 2.354
3.65 2.227 2.329
3.595 2.237 2.307
3.546 2.25 2.286
3.489 2.257 2.263
3.429 2.261 2.238
3.375 2.268 2.216
3.326 2.277 2.196
3.282 2.289 2.178
3.227 2.293 2.155
3.173 2.297 2.133
1.029 0.716 1.251
1.016 0.72 1.245
1.004 0.724 1.24
0.992 0.727 1.235
0.979 0.73 1.23
0.96 0.727 1.222
0.947 0.73 1.217
0.934 0.732 1.211
0.921 0.734 1.206
0.909 0.736 1.201
0.896 0.738 1.196
0.884 0.74 1.191
0.872 0.741 1.186
0.861 0.744 1.181
0.849 0.746 1.177
0.837 0.747 1.172
0.831 0.754 1.169
0.819 0.756 1.164
0.807 0.756 1.159
0.794 0.756 1.154
0.781 0.755 1.149
0.77 0.756 1.144
0.763 0.762 1.141
0.75 0.76 1.136
0.745 0.767 1.133
0.733 0.768 1.129
0.721 0.766 1.124
0.709 0.765 1.119
0.703 0.771 1.116
0.691 0.77 1.111
0.68 0.769 1.107
0.674 0.775 1.104
0.661 0.772 1.099
0.655 0.778 1.097
0.644 0.776 1.092
0.637 0.781 1.089
0.626 0.779 1.084
0.615 0.778 1.08
0.609 0.783 1.078
0.598 0.782 1.073
0.592 0.786 1.071
0.58 0.782 1.066
0.574 0.788 1.063
0.563 0.784 1.059
0.556 0.788 1.056
0.541 0.778 1.05
0.471 0.672 1.021
0.433 0.617 1.005
0.428 0.621 1.003
0.423 0.624 1.001
0.414 0.619 0.997
0.409 0.622 0.995
0.404 0.625 0.993
0.394 0.62 0.989
0.389 0.622 0.987
0.385 0.627 0.985
0.38 0.63 0.983
0.375 0.634 0.981
0.366 0.626 0.977
0.36 0.629 0.975
0.355 0.632 0.973
0.351 0.635 0.971
0.342 0.629 0.968
0.337 0.632 0.966
0.332 0.634 0.964
0.327 0.637 0.962
0.322 0.639 0.959
0.316 0.641 0.957
0.308 0.634 0.954
0.303 0.636 0.952
0.298 0.638 0.95
0.293 0.64 0.947
0.287 0.641 0.945
0.282 0.643 0.943
0.277 0.645 0.941
0.272 0.648 0.939
0.266 0.646 0.936
0.261 0.65 0.934
0.253 0.642 0.931
0.248 0.644 0.929
0.243 0.645 0.927
0.238 0.648 0.925
0.233 0.649 0.923
0.227 0.651 0.921
0.222 0.652 0.918
0.217 0.653 0.916
0.212 0.654 0.914
0.206 0.657 0.912
0.201 0.657 0.91
0.196 0.658 0.908
0.19 0.659 0.905
0.185 0.661 0.903
0.18 0.661 0.901
0.175 0.663 0.899
0.168 0.655 0.896
0.164 0.664 0.894
0.157 0.655 0.892
0.153 0.665 0.89
0.148 0.664 0.888
0.142 0.665 0.886
0.137 0.665 0.883
0.131 0.666 0.881
0.126 0.664 0.879
0.121 0.667 0.877
0.115 0.665 0.874
0.11 0.665 0.872
0.104 0.666 0.87
0.099 0.666 0.868
0.094 0.666 0.866
0.088 0.668 0.863
0.083 0.666 0.861
0.083 -0.412 0.862
0.086 -0.414 0.863
0.089 -0.414 0.865
0.092 -0.413 0.866
0.096 -0.417 0.867
0.099 -0.414 0.869
0.102 -0.409 0.87
0.106 -0.411 0.872
0.109 -0.41 0.873
0.112 -0.41 0.874
0.116 -0.416 0.876
0.12 -0.419 0.877
0.123 -0.414 0.879
0.126 -0.415 0.88
0.13 -0.417 0.882
0.133 -0.419 0.883
0.137 -0.417 0.884
0.14 -0.415 0.886
0.144 -0.421 0.888
0.148 -0.425 0.889
0.15 -0.418 0.89
0.154 -0.421 0.892
0.158 -0.42 0.893
0.161 -0.417 0.895
0.164 -0.415 0.896
0.17 -0.426 0.898
0.173 -0.426 0.9
0.177 -0.427 0.901
0.179 -0.419 0.902
0.183 -0.42 0.904
0.188 -0.426 0.906
0.191 -0.424 0.907
0.196 -0.43 0.91
0.2 -0.43 0.911
0.204 -0.429 0.913
0.207 -0.428 0.914
0.211 -0.43 0.916
0.214 -0.426 0.917
0.218 -0.425 0.919
0.224 -0.434 0.921
0.226 -0.427 0.922
0.232 -0.434 0.925
0.237 -0.436 0.927
0.242 -0.438 0.929
0.243 -0.432 0.929
0.251 -0.441 0.932
0.256 -0.443 0.935
0.259 -0.439 0.936
0.262 -0.437 0.937
0.266 -0.437 0.939
0.272 -0.44 0.941
0.275 -0.438 0.943
0.279 -0.438 0.944
0.285 -0.441 0.947
0.291 -0.445 0.95
0.296 -0.444 0.951
0.3 -0.443 0.953
0.307 -0.448 0.956
0.31 -0.446 0.958
0.314 -0.443 0.959
0.318 -0.442 0.961
0.324 -0.445 0.963
0.332 -0.451 0.967
0.336 -0.449 0.968
0.34 -0.447 0.97
0.349 -0.453 0.974
0.352 -0.45 0.975
0.359 -0.453 0.978
0.363 -0.452 0.98
0.37 -0.454 0.983
0.374 -0.452 0.984
0.38 -0.453 0.987
0.389 -0.458 0.991
0.394 -0.457 0.993
0.402 -0.459 0.996
0.408 -0.46 0.999
0.414 -0.46 1.001
0.421 -0.461 1.004
0.5 -0.559 1.037
0.532 -0.591 1.05
0.541 -0.593 1.054
0.546 -0.589 1.056
0.556 -0.591 1.061
0.566 -0.593 1.065
0.577 -0.595 1.069
0.587 -0.597 1.074
0.591 -0.592 1.075
0.601 -0.593 1.08
0.611 -0.593 1.084
0.627 -0.601 1.091
0.632 -0.596 1.093
0.643 -0.597 1.097
0.661 -0.606 1.105
0.672 -0.606 1.109
0.677 -0.601 1.111
0.693 -0.607 1.118
0.698 -0.601 1.12
0.714 -0.606 1.127
0.726 -0.607 1.132
0.737 -0.606 1.137
0.746 -0.604 1.141
0.765 -0.611 1.149
0.776 -0.609 1.153
0.787 -0.608 1.158
0.805 -0.613 1.165
0.817 -0.611 1.17
0.836 -0.616 1.178
0.853 -0.619 1.186
0.866 -0.617 1.191
0.884 -0.62 1.199
0.896 -0.618 1.203
0.912 -0.619 1.21
0.932 -0.622 1.219
0.943 -0.618 1.223
0.959 -0.618 1.23
0.979 -0.62 1.238
1.004 -0.625 1.249
1.024 -0.626 1.257
1.044 -0.627 1.266
1.064 -0.627 1.274
1.087 -0.629 1.284
1.108 -0.629 1.293
1.133 -0.632 1.303
1.16 -0.635 1.314
1.187 -0.637 1.326
1.213 -0.638 1.337
1.24 -0.64 1.348
1.275 -0.645 1.363
1.303 -0.646 1.375
1.331 -0.646 1.386
1.368 -0.65 1.402
1.4 -0.651 1.415
1.43 -0.651 1.428
1.433 -0.637 1.429
3.046 -1.364 2.107
3.371 -1.478 2.243
3.005 -1.281 2.09
3.381 -1.409 2.247
3.382 -1.374 2.248
3.387 -1.34 2.25
6.436 -2.508 3.531
6.454 -2.447 3.538
6.458 -2.381 3.54
6.468 -2.317 3.544
3.028 -1.038 2.099
3.056 -1.017 2.111
3.346 -1.082 2.233
3.342 -1.047 2.231
3.347 -1.015 2.233
3.405 -0.999 2.258
3.355 -0.951 2.237
3.409 -0.933 2.259
3.362 -0.887 2.24
3.407 -0.866 2.258
3.368 -0.823 2.242
3.362 -0.789 2.24
6.543 -1.489 3.576
7.087 -1.546 3.804
7.139 -1.488 3.826
7.151 -1.421 3.831
7.16 -1.354 3.835
7.161 -1.285 3.836
7.17 -1.218 3.839
7.18 -1.151 3.844
7.182 -1.082 3.844
7.192 -1.015 3.849
7.197 -0.948 3.851
7.209 -0.881 3.856
7.218 -0.813 3.859
7.245 -0.748 3.871
7.243 -0.679 3.87
7.274 -0.614 3.883
7.272 -0.545 3.882
7.281 -0.478 3.886
7.25 -0.407 3.873
6.703 -0.314 3.643
6.708 -0.251 3.645
6.715 -0.188 3.648
6.728 -0.126 3.654
7.407 -0.069 3.939
7.421 -0 3.945
7.409 0.069 3.94
7.44 0.139 3.953
7.454 0.209 3.959
7.454 0.279 3.958
7.466 0.35 3.964
7.286 0.409 3.888
6.97 0.457 3.755
6.806 0.51 3.686
6.818 0.575 3.691
6.822 0.64 3.693
6.889 0.711 3.721
7.651 0.863 4.042
7.717 0.943 4.069
7.697 1.014 4.061
7.743 1.094 4.08
7.722 1.165 4.071
7.696 1.234 4.06
7.573 1.287 4.009
7.597 1.364 4.019
7.634 1.444 4.034
0 0 0
0 0 0
7.509 1.639 3.982
7.351 1.676 3.915
7.157 1.701 3.834
7.122 1.763 3.819
6.833 1.758 3.698
6.64 1.773 3.617
0 0 0
6.291 1.804 3.47
6.251 1.855 3.453
0 0 0
0 0 0
5.816 1.901 3.27
5.696 1.92 3.22
2.543 0.867 1.895
2.495 0.875 1.875
2.459 0.887 1.86
2.423 0.899 1.845
2.377 0.906 1.826
2.345 0.918 1.812
2.317 0.93 1.8
2.288 0.942 1.788
2.263 0.956 1.778
2.247 0.972 1.771
2.253 0.999 1.774
4.536 2.1 2.733
4.451 2.11 2.697
4.376 2.122 2.666
4.296 2.131 2.632
4.23 2.146 2.604
4.152 2.153 2.571
4.068 2.155 2.536
4.016 2.174 2.514
3.948 2.183 2.486
3.855 2.176 2.447
3.809 2.194 2.427
3.734 2.196 2.396
3.672 2.203 2.37
3.639 2.227 2.356
3.585 2.238 2.333
3.536 2.251 2.313
3.474 2.255 2.287
3.419 2.262 2.264
3.372 2.273 2.244
3.325 2.284 2.224
3.271 2.289 2.202
3.217 2.293 2.179
3.169 2.301 2.158
1.023 0.714 1.257
1.014 0.721 1.253
1.001 0.724 1.248
0.989 0.727 1.243
0.969 0.725 1.234
0.956 0.727 1.229
0.944 0.73 1.224
0.931 0.732 1.218
0.918 0.734 1.213
0.899 0.73 1.205
0.894 0.739 1.203
0.881 0.74 1.197
0.869 0.742 1.192
0.859 0.745 1.188
0.846 0.746 1.183
0.84 0.753 1.18
0.829 0.755 1.175
0.816 0.755 1.17
0.804 0.756 1.165
0.791 0.756 1.16
0.785 0.762 1.157
0.771 0.76 1.151
0.761 0.762 1.147
0.748 0.761 1.141
0.743 0.768 1.139
0.73 0.767 1.134
0.719 0.766 1.129
0.706 0.765 1.124
0.701 0.771 1.121
0.688 0.77 1.116
0.677 0.768 1.111
0.671 0.775 1.109
0.659 0.772 1.104
0.647 0.77 1.099
0.647 0.783 1.099
0.635 0.781 1.094
0.624 0.779 1.089
0.619 0.786 1.087
0.607 0.783 1.082
0.596 0.782 1.078
0.585 0.778 1.073
0.578 0.782 1.07
0.572 0.787 1.067
0.565 0.791 1.065
0.554 0.788 1.06
0.539 0.777 1.053
0.464 0.662 1.022
0.431 0.617 1.008
0.426 0.621 1.006
0.421 0.624 1.004
0.412 0.619 1
0.408 0.624 0.999
0.403 0.627 0.996
0.393 0.62 0.992
0.389 0.624 0.99
0.383 0.627 0.988
0.374 0.621 0.984
0.373 0.633 0.984
0.364 0.626 0.98
0.36 0.63 0.978
0.354 0.632 0.976
0.349 0.634 0.974
0.344 0.638 0.972
0.336 0.632 0.968
0.331 0.634 0.966
0.326 0.637 0.964
0.321 0.64 0.962
0.312 0.632 0.958
0.31 0.643 0.957
0.305 0.645 0.955
0.297 0.638 0.952
0.291 0.64 0.95
0.286 0.641 0.947
0.281 0.643 0.945
0.276 0.645 0.943
0.27 0.645 0.941
0.265 0.648 0.939
0.26 0.65 0.936
0.252 0.642 0.933
0.247 0.645 0.931
0.242 0.646 0.929
0.237 0.648 0.927
0.232 0.649 0.924
0.226 0.65 0.922
0.221 0.652 0.92
0.216 0.652 0.918
0.211 0.655 0.916
0.205 0.656 0.913
0.2 0.657 0.911
0.195 0.658 0.909
0.19 0.659 0.907
0.183 0.652 0.904
0.179 0.661 0.902
0.174 0.663 0.9
0.167 0.655 0.897
0.162 0.655 0.895
0.157 0.656 0.893
0.152 0.665 0.891
0.147 0.664 0.889
0.142 0.665 0.887
0.136 0.663 0.884
0.131 0.666 0.882
0.125 0.664 0.88
0.12 0.665 0.878
0.115 0.665 0.875
0.109 0.665 0.873
0.104 0.676 0.871
0.099 0.666 0.869
0.093 0.666 0.866
0.088 0.666 0.864
0.083 0.668 0.862
0.082 -0.404 0.862
0.086 -0.405 0.863
0.089 -0.406 0.865
0.092 -0.412 0.866
0.096 -0.416 0.868
0.099 -0.415 0.869
0.102 -0.418 0.871
0.105 -0.412 0.872
0.109 -0.42 0.874
0.113 -0.418 0.875
0.116 -0.416 0.876
0.119 -0.418 0.878
0.122 -0.415 0.879
0.126 -0.415 0.881
0.129 -0.417 0.882
0.133 -0.419 0.884
0.136 -0.418 0.885
0.139 -0.415 0.886
0.144 -0.421 0.888
0.146 -0.415 0.889
0.15 -0.417 0.891
0.153 -0.413 0.892
0.157 -0.42 0.894
0.162 -0.424 0.896
0.163 -0.414 0.896
0.169 -0.423 0.899
0.173 -0.425 0.9
0.175 -0.418 0.901
0.179 -0.421 0.903
0.183 -0.422 0.905
0.187 -0.426 0.907
0.19 -0.422 0.908
0.196 -0.431 0.91
0.2 -0.431 0.912
0.203 -0.429 0.913
0.208 -0.435 0.916
0.211 -0.431 0.917
0.214 -0.427 0.918
0.217 -0.426 0.919
0.224 -0.435 0.922
0.227 -0.433 0.924
0.231 -0.432 0.925
0.236 -0.436 0.927
0.241 -0.438 0.93
0.244 -0.434 0.931
0.25 -0.441 0.933
0.254 -0.44 0.935
0.258 -0.438 0.937
0.262 -0.439 0.938
0.265 -0.435 0.94
0.272 -0.441 0.943
0.278 -0.447 0.945
0.28 -0.44 0.946
0.288 -0.447 0.949
0.287 -0.437 0.949
0.295 -0.444 0.952
0.3 -0.445 0.955
0.306 -0.448 0.957
0.309 -0.444 0.958
0.317 -0.45 0.962
0.321 -0.449 0.963
0.325 -0.447 0.965
0.332 -0.452 0.968
0.336 -0.45 0.97
0.343 -0.454 0.973
0.348 -0.453 0.975
0.351 -0.45 0.976
0.358 -0.453 0.979
0.363 -0.452 0.981
0.37 -0.454 0.984
0.374 -0.453 0.986
0.384 -0.46 0.99
0.389 -0.459 0.992
0.393 -0.457 0.994
0.396 -0.452 0.995
0.407 -0.459 1
0.413 -0.459 1.002
0.418 -0.459 1.005
0.498 -0.558 1.039
0.531 -0.591 1.053
0.535 -0.587 1.055
0.545 -0.589 1.059
0.554 -0.589 1.062
0.564 -0.592 1.067
0.575 -0.595 1.071
0.585 -0.596 1.076
0.59 -0.592 1.078
0.6 -0.593 1.082
0.61 -0.593 1.086
0.62 -0.595 1.091
0.63 -0.595 1.095
0.641 -0.596 1.099
0.66 -0.606 1.108
0.665 -0.601 1.11
0.681 -0.606 1.116
0.692 -0.607 1.121
0.703 -0.607 1.126
0.714 -0.607 1.13
0.724 -0.606 1.135
0.735 -0.606 1.139
0.745 -0.604 1.143
0.763 -0.609 1.151
0.775 -0.609 1.156
0.785 -0.608 1.161
0.803 -0.612 1.168
0.815 -0.611 1.173
0.834 -0.616 1.181
0.852 -0.619 1.189
0.863 -0.617 1.194
0.883 -0.62 1.202
0.894 -0.617 1.207
0.912 -0.62 1.214
0.932 -0.622 1.223
0.947 -0.622 1.229
0.965 -0.623 1.237
0.984 -0.624 1.245
0.996 -0.62 1.25
1.023 -0.626 1.261
1.041 -0.626 1.269
1.061 -0.626 1.278
1.086 -0.629 1.288
1.106 -0.629 1.297
1.131 -0.632 1.307
1.158 -0.635 1.319
1.185 -0.637 1.33
1.21 -0.638 1.341
1.237 -0.639 1.352
1.265 -0.641 1.364
1.3 -0.645 1.379
1.328 -0.645 1.391
1.364 -0.65 1.406
1.396 -0.65 1.42
1.428 -0.651 1.433
1.433 -0.638 1.436
3.36 -1.512 2.254
3.36 -1.475 2.254
3.375 -1.445 2.26
3.479 -1.454 2.304
3.563 -1.452 2.34
6.432 -2.579 3.558
6.435 -2.512 3.559
6.448 -2.449 3.565
6.455 -2.384 3.568
6.465 -2.32 3.572
6.526 -2.275 3.598
3.028 -1.009 2.113
3.329 -1.078 2.24
7.112 -2.262 3.847
3.346 -1.017 2.248
3.707 -1.092 2.401
3.526 -1.002 2.324
3.694 -1.015 2.396
3.574 -0.946 2.345
3.772 -0.962 2.428
3.557 -0.871 2.337
6.532 -1.553 3.6
6.536 -1.49 3.602
7.075 -1.546 3.831
7.13 -1.488 3.854
7.144 -1.422 3.86
7.153 -1.354 3.864
7.163 -1.287 3.868
7.165 -1.219 3.869
7.177 -1.152 3.874
7.176 -1.083 3.874
7.189 -1.016 3.879
7.2 -0.949 3.884
7.205 -0.882 3.886
7.214 -0.814 3.89
7.237 -0.748 3.9
7.235 -0.68 3.899
7.265 -0.614 3.911
7.267 -0.546 3.912
7.266 -0.477 3.912
7.249 -0.408 3.905
6.701 -0.314 3.672
6.703 -0.251 3.673
6.713 -0.189 3.677
6.713 -0.126 3.677
7.4 -0.069 3.969
7.409 -0 3.973
7.426 0.07 3.98
7.432 0.139 3.983
7.444 0.209 3.988
7.449 0.279 3.99
7.459 0.35 3.994
7.286 0.41 3.921
6.95 0.456 3.778
6.803 0.511 3.715
6.816 0.576 3.721
6.816 0.64 3.721
6.898 0.713 3.756
7.72 0.872 4.105
7.766 0.951 4.124
7.744 1.022 4.115
7.793 1.103 4.136
7.776 1.175 4.129
7.742 1.244 4.114
7.571 1.289 4.041
7.609 1.368 4.058
7.645 1.449 4.073
0 0 0
0 0 0
7.505 1.641 4.013
7.327 1.673 3.938
7.143 1.701 3.86
6.991 1.733 3.795
6.805 1.753 3.716
6.633 1.774 3.643
6.492 1.801 3.584
6.286 1.806 3.496
6.227 1.851 3.471
0 0 0
0 0 0
0 0 0
5.689 1.921 3.243
2.527 0.863 1.9
2.474 0.869 1.878
2.445 0.884 1.865
2.416 0.898 1.853
2.377 0.907 1.836
2.341 0.918 1.821
2.317 0.932 1.811
2.271 0.937 1.791
2.257 0.954 1.785
2.249 0.975 1.782
2.246 0.998 1.781
4.526 2.099 2.749
4.459 2.117 2.72
4.368 2.122 2.682
4.296 2.135 2.651
4.223 2.146 2.62
4.152 2.156 2.59
4.083 2.167 2.561
4.003 2.17 2.526
3.937 2.18 2.499
3.843 2.172 2.459
3.824 2.207 2.45
3.739 2.202 2.415
3.688 2.216 2.393
3.607 2.211 2.359
3.552 2.22 2.335
3.522 2.246 2.323
3.469 2.255 2.3
3.42 2.266 2.279
3.362 2.27 2.255
3.316 2.281 2.235
3.264 2.288 2.213
3.212 2.293 2.191
3.158 2.297 2.168
1.026 0.718 1.263
1.011 0.719 1.256
0.999 0.724 1.251
0.986 0.727 1.246
0.974 0.73 1.241
0.954 0.727 1.232
0.943 0.73 1.227
0.929 0.732 1.222
0.916 0.733 1.216
0.904 0.736 1.211
0.891 0.737 1.205
0.88 0.74 1.201
0.868 0.742 1.196
0.858 0.745 1.191
0.845 0.746 1.186
0.833 0.747 1.181
0.827 0.754 1.178
0.815 0.756 1.173
0.803 0.756 1.168
0.79 0.756 1.163
0.777 0.755 1.157
0.771 0.762 1.155
0.76 0.763 1.15
0.747 0.761 1.144
0.741 0.768 1.142
0.729 0.767 1.137
0.718 0.767 1.132
0.706 0.765 1.127
0.699 0.771 1.124
0.688 0.77 1.119
0.681 0.775 1.116
0.67 0.775 1.112
0.658 0.772 1.107
0.652 0.778 1.104
0.64 0.775 1.099
0.634 0.781 1.096
0.622 0.779 1.091
0.617 0.785 1.089
0.606 0.783 1.084
0.595 0.782 1.08
0.589 0.786 1.077
0.577 0.782 1.072
0.571 0.787 1.069
0.564 0.791 1.067
0.554 0.788 1.062
0.538 0.778 1.056
0.463 0.662 1.024
0.43 0.617 1.01
0.426 0.621 1.008
0.421 0.624 1.006
0.415 0.627 1.004
0.406 0.622 1
0.402 0.627 0.998
0.396 0.628 0.995
0.388 0.624 0.992
0.383 0.627 0.99
0.378 0.631 0.988
0.373 0.634 0.986
0.364 0.626 0.981
0.359 0.63 0.98
0.353 0.632 0.977
0.349 0.635 0.975
0.344 0.638 0.973
0.336 0.633 0.97
0.33 0.634 0.967
0.325 0.637 0.965
0.32 0.639 0.963
0.315 0.642 0.961
0.307 0.635 0.957
0.301 0.636 0.955
0.296 0.638 0.953
0.291 0.64 0.951
0.285 0.641 0.948
0.281 0.644 0.946
0.275 0.645 0.944
0.27 0.647 0.942
0.265 0.648 0.94
0.259 0.648 0.937
0.254 0.652 0.935
0.247 0.645 0.932
0.242 0.646 0.93
0.236 0.648 0.928
0.231 0.649 0.925
0.226 0.651 0.923
0.221 0.652 0.921
0.216 0.653 0.919
0.21 0.654 0.916
0.205 0.656 0.914
0.2 0.657 0.912
0.194 0.658 0.91
0.188 0.651 0.907
0.184 0.66 0.905
0.179 0.662 0.903
0.173 0.663 0.901
0.168 0.663 0.899
0.163 0.664 0.896
0.156 0.656 0.894
0.152 0.665 0.892
0.147 0.665 0.889
0.141 0.665 0.887
0.136 0.665 0.885
0.13 0.664 0.883
0.125 0.664 0.88
0.12 0.665 0.878
0.114 0.665 0.876
0.109 0.665 0.873
0.104 0.666 0.871
0.099 0.676 0.869
0.093 0.665 0.867
0.088 0.666 0.864
0.082 0.666 0.862
0.082 -0.414 0.863
0.085 -0.414 0.864
0.088 -0.415 0.866
0.092 -0.412 0.867
0.095 -0.414 0.868
0.098 -0.415 0.87
0.102 -0.409 0.871
0.105 -0.413 0.873
0.109 -0.419 0.874
0.112 -0.417 0.876
0.115 -0.416 0.877
0.119 -0.419 0.879
0.122 -0.416 0.88
0.125 -0.415 0.882
0.129 -0.419 0.883
0.132 -0.419 0.885
0.136 -0.419 0.886
0.139 -0.414 0.887
0.143 -0.42 0.889
0.147 -0.423 0.891
0.149 -0.417 0.892
0.154 -0.423 0.894
0.157 -0.42 0.895
0.16 -0.417 0.896
0.164 -0.424 0.898
0.168 -0.424 0.9
0.172 -0.425 0.902
0.174 -0.419 0.903
0.179 -0.423 0.905
0.182 -0.423 0.906
0.187 -0.426 0.908
0.189 -0.42 0.909
0.193 -0.423 0.911
0.196 -0.422 0.912
0.202 -0.428 0.915
0.205 -0.426 0.916
0.21 -0.431 0.918
0.213 -0.427 0.919
0.216 -0.424 0.921
0.223 -0.436 0.924
0.227 -0.434 0.926
0.231 -0.434 0.927
0.235 -0.435 0.929
0.237 -0.428 0.93
0.243 -0.435 0.933
0.249 -0.44 0.935
0.252 -0.438 0.937
0.256 -0.437 0.938
0.261 -0.439 0.94
0.267 -0.443 0.943
0.271 -0.442 0.945
0.273 -0.438 0.946
0.277 -0.435 0.947
0.286 -0.447 0.951
0.29 -0.446 0.953
0.294 -0.444 0.954
0.299 -0.445 0.957
0.305 -0.447 0.959
0.308 -0.445 0.961
0.315 -0.449 0.964
0.32 -0.449 0.966
0.324 -0.447 0.967
0.331 -0.452 0.971
0.335 -0.45 0.972
0.343 -0.455 0.976
0.347 -0.453 0.977
0.35 -0.45 0.979
0.358 -0.454 0.982
0.362 -0.453 0.984
0.369 -0.456 0.987
0.372 -0.452 0.989
0.378 -0.453 0.991
0.388 -0.459 0.995
0.39 -0.454 0.996
0.4 -0.46 1
0.4 -0.451 1
0.411 -0.459 1.005
0.421 -0.465 1.01
0.496 -0.557 1.042
0.529 -0.591 1.056
0.539 -0.594 1.061
0.543 -0.589 1.063
0.553 -0.59 1.067
0.563 -0.592 1.071
0.574 -0.595 1.076
0.577 -0.588 1.077
0.588 -0.592 1.082
0.597 -0.592 1.086
0.608 -0.594 1.091
0.618 -0.595 1.095
0.628 -0.595 1.099
0.639 -0.597 1.104
0.649 -0.597 1.109
0.668 -0.606 1.117
0.678 -0.606 1.121
0.689 -0.607 1.126
0.693 -0.6 1.128
0.711 -0.606 1.135
0.721 -0.606 1.14
0.733 -0.606 1.145
0.75 -0.611 1.152
0.761 -0.61 1.157
0.771 -0.609 1.161
0.783 -0.608 1.166
0.801 -0.613 1.174
0.813 -0.611 1.179
0.831 -0.615 1.187
0.843 -0.614 1.192
0.861 -0.617 1.2
0.88 -0.62 1.208
0.891 -0.617 1.213
0.908 -0.619 1.22
0.928 -0.622 1.229
0.94 -0.619 1.234
0.955 -0.618 1.241
0.974 -0.62 1.249
1 -0.625 1.26
1.019 -0.626 1.269
1.037 -0.626 1.277
1.057 -0.626 1.285
1.082 -0.629 1.296
1.102 -0.629 1.305
1.128 -0.632 1.316
1.154 -0.635 1.327
1.172 -0.632 1.335
1.207 -0.638 1.35
1.227 -0.636 1.359
1.268 -0.645 1.377
1.297 -0.646 1.389
1.323 -0.645 1.401
1.361 -0.65 1.417
1.391 -0.65 1.43
1.43 -0.654 1.447
1.425 -0.636 1.444
3.343 -1.509 2.275
3.36 -1.48 2.283
3.368 -1.447 2.286
3.439 -1.441 2.317
6.402 -2.644 3.601
6.412 -2.579 3.605
6.424 -2.516 3.61
6.427 -2.449 3.612
6.444 -2.387 3.619
6.446 -2.321 3.62
6.5 -2.273 3.643
6.884 -2.337 3.81
7.086 -2.334 3.897
7.117 -2.271 3.91
7.104 -2.194 3.905
3.678 -1.087 2.421
3.68 -1.051 2.422
3.677 -1.013 2.42
3.703 -0.984 2.431
3.744 -0.958 2.449
3.805 -0.937 2.475
6.521 -1.556 3.652
6.524 -1.492 3.653
7.05 -1.545 3.882
7.125 -1.492 3.914
7.131 -1.424 3.916
7.142 -1.357 3.921
7.147 -1.289 3.923
7.146 -1.219 3.923
7.16 -1.153 3.929
7.16 -1.084 3.929
7.175 -1.018 3.936
7.178 -0.95 3.937
7.192 -0.883 3.943
7.201 -0.815 3.947
7.212 -0.748 3.951
7.22 -0.681 3.955
7.252 -0.615 3.969
7.239 -0.545 3.963
7.251 -0.478 3.969
7.234 -0.408 3.961
6.688 -0.314 3.724
6.689 -0.251 3.725
6.701 -0.189 3.73
6.701 -0.126 3.73
7.391 -0.07 4.029
7.394 -0 4.03
7.4 0.07 4.033
7.41 0.139 4.037
7.417 0.209 4.04
7.421 0.279 4.042
7.44 0.35 4.05
7.26 0.41 3.972
6.937 0.457 3.832
6.78 0.51 3.765
6.798 0.576 3.772
6.793 0.64 3.77
6.888 0.714 3.811
7.77 0.881 4.193
7.815 0.96 4.213
7.801 1.033 4.207
7.846 1.114 4.226
7.805 1.183 4.208
9.751 1.575 5.051
7.553 1.29 4.099
7.578 1.367 4.11
7.605 1.446 4.122
0 0 0
0 0 0
7.495 1.644 4.074
7.327 1.678 4.001
0 0 0
7.154 1.779 3.926
6.777 1.752 3.763
6.626 1.778 3.698
0 0 0
6.268 1.807 3.543
6.221 1.855 3.522
6.059 1.868 3.452
5.919 1.884 3.392
5.796 1.904 3.338
5.675 1.922 3.286
2.526 0.866 1.922
2.475 0.873 1.899
2.431 0.882 1.88
2.403 0.896 1.868
2.355 0.902 1.847
2.332 0.917 1.837
2.293 0.925 1.821
2.26 0.935 1.806
2.246 0.953 1.8
2.26 0.983 1.806
4.613 2.096 2.825
4.498 2.093 2.776
4.434 2.112 2.748
4.363 2.126 2.717
4.275 2.131 2.679
4.217 2.15 2.654
4.134 2.154 2.618
4.07 2.167 2.591
4.001 2.176 2.561
3.937 2.187 2.533
3.829 2.171 2.486
3.813 2.208 2.479
3.761 2.222 2.456
3.692 2.226 2.426
3.606 2.218 2.389
3.55 2.227 2.365
3.491 2.232 2.339
3.425 2.233 2.311
3.405 2.263 2.302
3.353 2.271 2.28
3.311 2.285 2.262
3.25 2.286 2.235
3.205 2.296 2.216
3.156 2.302 2.194
1.019 0.715 1.269
1.007 0.719 1.264
0.996 0.724 1.259
0.977 0.722 1.25
0.971 0.73 1.248
0.951 0.727 1.239
0.94 0.731 1.235
0.926 0.732 1.229
0.913 0.734 1.223
0.901 0.736 1.218
0.889 0.738 1.212
0.877 0.74 1.207
0.864 0.741 1.202
0.854 0.744 1.197
0.849 0.753 1.195
0.836 0.753 1.189
0.825 0.755 1.185
0.812 0.755 1.179
0.8 0.756 1.174
0.787 0.756 1.168
0.775 0.755 1.163
0.769 0.762 1.16
0.757 0.762 1.155
0.744 0.761 1.15
0.738 0.767 1.147
0.72 0.759 1.139
0.715 0.767 1.137
0.709 0.773 1.135
0.698 0.772 1.129
0.686 0.77 1.124
0.674 0.769 1.119
0.668 0.775 1.117
0.656 0.772 1.111
0.649 0.777 1.108
0.639 0.777 1.104
0.633 0.782 1.101
0.621 0.779 1.096
0.61 0.777 1.091
0.603 0.782 1.089
0.598 0.788 1.086
0.586 0.785 1.081
0.575 0.781 1.076
0.568 0.786 1.073
0.557 0.782 1.068
0.551 0.788 1.066
0.537 0.778 1.06
0.461 0.661 1.027
0.429 0.617 1.013
0.424 0.621 1.011
0.419 0.624 1.009
0.414 0.627 1.007
0.405 0.622 1.003
0.401 0.627 1.001
0.39 0.62 0.996
0.386 0.624 0.995
0.381 0.627 0.992
0.376 0.628 0.99
0.371 0.633 0.988
0.362 0.626 0.984
0.357 0.629 0.982
0.352 0.632 0.98
0.347 0.635 0.978
0.339 0.629 0.974
0.337 0.64 0.973
0.329 0.634 0.97
0.324 0.637 0.968
0.319 0.639 0.965
0.314 0.641 0.963
0.305 0.634 0.959
0.3 0.636 0.957
0.295 0.638 0.955
0.29 0.64 0.953
0.285 0.642 0.951
0.28 0.644 0.948
0.274 0.643 0.946
0.268 0.645 0.943
0.263 0.646 0.941
0.259 0.65 0.939
0.253 0.652 0.937
0.248 0.653 0.935
0.241 0.646 0.932
0.238 0.657 0.93
0.23 0.649 0.927
0.225 0.651 0.925
0.22 0.651 0.922
0.215 0.653 0.92
0.209 0.654 0.918
0.204 0.656 0.916
0.199 0.657 0.913
0.194 0.659 0.911
0.189 0.66 0.909
0.183 0.661 0.907
0.178 0.661 0.904
0.171 0.654 0.902
0.167 0.663 0.9
0.162 0.664 0.897
0.157 0.664 0.895
0.15 0.656 0.892
0.146 0.665 0.89
0.141 0.665 0.888
0.135 0.665 0.886
0.13 0.666 0.884
0.124 0.664 0.881
0.119 0.665 0.879
0.114 0.665 0.877
0.108 0.665 0.874
0.103 0.665 0.872
0.098 0.666 0.87
0.092 0.666 0.867
0.087 0.666 0.865
0.082 0.666 0.863
0.081 -0.413 0.864
0.084 -0.413 0.865
0.087 -0.413 0.867
0.091 -0.419 0.868
0.094 -0.414 0.87
0.097 -0.415 0.871
0.1 -0.409 0.873
0.104 -0.414 0.874
0.107 -0.416 0.876
0.111 -0.414 0.877
0.114 -0.416 0.879
0.118 -0.417 0.88
0.121 -0.416 0.882
0.124 -0.415 0.883
0.128 -0.42 0.885
0.131 -0.417 0.886
0.134 -0.416 0.888
0.138 -0.419 0.89
0.141 -0.419 0.891
0.146 -0.424 0.893
0.148 -0.419 0.894
0.151 -0.416 0.896
0.155 -0.419 0.897
0.158 -0.417 0.899
0.163 -0.422 0.901
0.167 -0.424 0.902
0.169 -0.417 0.903
0.173 -0.42 0.905
0.176 -0.416 0.907
0.181 -0.423 0.909
0.185 -0.426 0.911
0.19 -0.431 0.913
0.192 -0.425 0.914
0.195 -0.423 0.915
0.198 -0.422 0.917
0.204 -0.428 0.919
0.208 -0.429 0.921
0.213 -0.434 0.924
0.217 -0.433 0.925
0.221 -0.434 0.927
0.225 -0.433 0.929
0.228 -0.432 0.93
0.234 -0.438 0.933
0.237 -0.435 0.934
0.243 -0.439 0.937
0.247 -0.441 0.939
0.251 -0.44 0.941
0.256 -0.441 0.943
0.258 -0.437 0.944
0.263 -0.438 0.946
0.269 -0.441 0.948
0.273 -0.442 0.951
0.277 -0.441 0.952
0.284 -0.447 0.955
0.285 -0.438 0.956
0.293 -0.446 0.959
0.296 -0.444 0.961
0.298 -0.439 0.962
0.305 -0.444 0.965
0.31 -0.444 0.967
0.317 -0.449 0.97
0.324 -0.452 0.973
0.327 -0.449 0.975
0.333 -0.451 0.977
0.335 -0.446 0.978
0.343 -0.452 0.982
0.348 -0.451 0.984
0.355 -0.454 0.987
0.359 -0.453 0.989
0.363 -0.451 0.991
0.371 -0.455 0.995
0.375 -0.452 0.996
0.385 -0.46 1.001
0.388 -0.456 1.002
0.396 -0.459 1.006
0.401 -0.457 1.008
0.407 -0.458 1.011
0.412 -0.457 1.013
0.481 -0.542 1.044
0.526 -0.592 1.064
0.534 -0.593 1.068
0.544 -0.595 1.073
0.549 -0.591 1.075
0.559 -0.593 1.08
0.569 -0.595 1.084
0.574 -0.59 1.086
0.583 -0.591 1.09
0.594 -0.593 1.095
0.603 -0.593 1.099
0.613 -0.594 1.104
0.624 -0.595 1.109
0.641 -0.603 1.116
0.653 -0.606 1.122
0.658 -0.6 1.124
0.668 -0.6 1.128
0.678 -0.601 1.133
0.696 -0.608 1.141
0.706 -0.607 1.146
0.716 -0.606 1.15
0.728 -0.606 1.155
0.738 -0.605 1.16
0.756 -0.61 1.168
0.767 -0.609 1.173
0.778 -0.608 1.178
0.796 -0.613 1.186
0.806 -0.611 1.191
0.819 -0.61 1.197
0.836 -0.613 1.204
0.855 -0.617 1.213
0.866 -0.614 1.218
0.884 -0.617 1.226
0.895 -0.614 1.231
0.921 -0.621 1.242
0.932 -0.618 1.247
0.948 -0.618 1.255
0.974 -0.624 1.266
0.987 -0.621 1.272
1.005 -0.621 1.28
1.03 -0.626 1.292
1.05 -0.626 1.301
1.075 -0.629 1.312
1.095 -0.629 1.321
1.12 -0.632 1.332
1.139 -0.63 1.341
1.172 -0.637 1.356
1.192 -0.634 1.365
1.225 -0.639 1.379
1.259 -0.644 1.395
1.279 -0.641 1.404
1.314 -0.645 1.42
1.352 -0.65 1.437
1.383 -0.651 1.451
1.416 -0.652 1.466
1.427 -0.642 1.471
3.329 -1.512 2.328
6.349 -2.848 3.689
6.361 -2.783 3.694
6.367 -2.716 3.697
6.373 -2.649 3.7
6.386 -2.586 3.705
6.391 -2.519 3.707
6.401 -2.455 3.712
6.405 -2.388 3.714
6.42 -2.326 3.721
6.451 -2.27 3.735
6.826 -2.333 3.903
7.057 -2.34 4.008
7.071 -2.271 4.014
7.071 -2.198 4.014
3.669 -1.091 2.481
3.654 -1.05 2.474
3.661 -1.016 2.477
3.676 -0.983 2.484
3.701 -0.953 2.496
6.48 -1.621 3.748
6.494 -1.559 3.754
6.49 -1.494 3.752
6.989 -1.542 3.977
7.087 -1.494 4.021
7.102 -1.427 4.028
7.098 -1.357 4.026
7.116 -1.291 4.034
7.121 -1.223 4.037
7.128 -1.155 4.04
7.122 -1.085 4.037
7.136 -1.019 4.043
7.146 -0.952 4.048
7.168 -0.886 4.058
7.173 -0.818 4.06
7.181 -0.75 4.064
7.188 -0.682 4.067
7.217 -0.616 4.08
7.209 -0.547 4.076
7.226 -0.479 4.084
7.2 -0.409 4.072
6.659 -0.315 3.828
6.655 -0.252 3.827
6.666 -0.189 3.831
6.667 -0.126 3.832
9.502 -0.09 5.11
9.516 -0 5.116
9.518 0.09 5.117
9.526 0.181 5.121
9.551 0.272 5.132
9.55 0.363 5.131
7.404 0.351 4.164
7.233 0.411 4.087
6.91 0.458 3.942
6.755 0.512 3.871
6.762 0.577 3.875
6.776 0.643 3.881
6.872 0.717 3.924
7.871 0.898 4.375
7.911 0.979 4.393
7.896 1.052 4.386
7.935 1.134 4.403
7.845 1.197 4.363
9.705 1.578 5.201
7.524 1.293 4.218
7.547 1.37 4.229
7.588 1.452 4.247
0 0 0
0 0 0
7.457 1.646 4.188
7.263 1.675 4.101
7.08 1.702 4.018
6.947 1.739 3.958
6.745 1.755 3.867
6.594 1.781 3.799
6.441 1.804 3.73
6.239 1.81 3.639
6.186 1.857 3.615
6.015 1.866 3.538
5.884 1.886 3.479
5.757 1.903 3.422
5.634 1.92 3.366
5.537 1.944 3.323
5.423 1.961 3.271
2.419 0.883 1.917
2.39 0.897 1.905
2.354 0.907 1.888
2.329 0.922 1.877
2.296 0.933 1.862
2.272 0.947 1.851
2.258 0.965 1.845
4.65 2.076 2.923
4.559 2.085 2.882
4.485 2.1 2.848
4.413 2.115 2.816
4.328 2.123 2.778
4.249 2.132 2.742
4.184 2.147 2.713
4.115 2.158 2.682
4.054 2.173 2.654
3.971 2.174 2.617
3.913 2.188 2.591
3.807 2.173 2.543
3.792 2.21 2.536
3.728 2.218 2.508
3.67 2.227 2.481
3.602 2.23 2.45
3.536 2.233 2.421
3.501 2.254 2.405
3.434 2.254 2.375
3.377 2.259 2.349
3.319 2.263 2.323
3.255 2.261 2.294
3.205 2.268 2.272
3.177 2.29 2.259
3.125 2.295 2.236
1.011 0.714 1.283
1.001 0.719 1.278
0.989 0.724 1.273
0.976 0.727 1.267
0.958 0.725 1.259
0.952 0.733 1.256
0.939 0.736 1.251
0.92 0.732 1.242
0.907 0.734 1.236
0.895 0.736 1.231
0.883 0.738 1.225
0.871 0.74 1.22
0.858 0.741 1.214
0.848 0.745 1.21
0.836 0.746 1.204
0.825 0.748 1.199
0.82 0.756 1.197
0.807 0.756 1.191
0.794 0.756 1.185
0.782 0.756 1.18
0.769 0.755 1.174
0.763 0.761 1.171
0.752 0.762 1.166
0.739 0.761 1.161
0.728 0.761 1.155
0.721 0.767 1.153
0.71 0.767 1.148
0.698 0.765 1.142
0.692 0.771 1.139
0.68 0.77 1.134
0.669 0.769 1.129
0.663 0.775 1.126
0.651 0.772 1.121
0.645 0.778 1.118
0.634 0.777 1.113
0.628 0.782 1.11
0.616 0.779 1.105
0.605 0.777 1.1
0.599 0.782 1.097
0.589 0.781 1.093
0.582 0.786 1.09
0.571 0.782 1.085
0.564 0.786 1.082
0.558 0.791 1.079
0.547 0.788 1.074
0.528 0.77 1.065
0.452 0.652 1.031
0.426 0.617 1.019
0.421 0.621 1.017
0.416 0.624 1.015
0.407 0.619 1.011
0.402 0.622 1.009
0.397 0.625 1.006
0.392 0.628 1.004
0.388 0.633 1.002
0.379 0.627 0.998
0.374 0.63 0.996
0.369 0.633 0.993
0.359 0.626 0.989
0.354 0.629 0.987
0.35 0.633 0.985
0.344 0.634 0.983
0.336 0.629 0.979
0.332 0.633 0.977
0.327 0.635 0.975
0.322 0.637 0.972
0.317 0.64 0.97
0.308 0.633 0.966
0.306 0.642 0.965
0.298 0.636 0.962
0.293 0.638 0.959
0.287 0.639 0.957
0.282 0.641 0.955
0.277 0.643 0.952
0.272 0.645 0.95
0.267 0.647 0.948
0.262 0.648 0.945
0.256 0.65 0.943
0.252 0.653 0.941
0.246 0.654 0.938
0.239 0.646 0.935
0.234 0.648 0.933
0.229 0.65 0.93
0.223 0.651 0.928
0.218 0.652 0.926
0.213 0.653 0.923
0.208 0.655 0.921
0.202 0.656 0.919
0.197 0.657 0.916
