# .PCD v0.7 - Point Cloud Data file format
VERSION 0.7
FIELDS x y z
SIZE 4 4 4
TYPE F F F
COUNT 1 1 1
WIDTH 2585
HEIGHT 1
VIEWPOINT 0 0 0 1 0 0 0
POINTS 2585
DATA ascii
1.248 -1.939 1.505
1.266 -1.933 1.515
1.301 -1.953 1.534
1.315 -1.939 1.541
1.332 -1.932 1.551
1.376 -1.963 1.575
1.731 -2.454 1.767
1.766 -2.46 1.786
1.8 -2.466 1.805
1.836 -2.473 1.824
1.951 -2.588 1.887
2.09 -2.731 1.962
2.339 -3.014 2.097
2.383 -3.02 2.121
2.426 -3.022 2.144
2.485 -3.044 2.176
2.542 -3.061 2.207
2.609 -3.09 2.243
5.908 -6.991 4.032
0 0 0
2.764 -3.112 2.327
2.83 -3.132 2.363
2.911 -3.169 2.407
2.923 -3.127 2.413
2.98 -3.135 2.444
0 0 0
3.132 -3.186 2.527
0 0 0
5.646 -5.606 3.89
5.682 -5.544 3.91
0 0 0
0 0 0
0 0 0
0 0 0
6.315 -5.646 4.253
0 0 0
5.751 -4.953 3.947
5.756 -4.869 3.95
4.1 -3.388 3.052
4.121 -3.343 3.063
0 0 0
6.11 -4.806 4.142
0 0 0
6.415 -4.864 4.307
0 0 0
0 0 0
0 0 0
0 0 0
0 0 0
5.297 -3.569 3.701
0 0 0
0 0 0
6.543 -4.162 4.377
0 0 0
6.585 -4.021 4.4
0 0 0
6.517 -3.814 4.362
6.758 -3.873 4.493
6.63 -3.717 4.424
6.732 -3.693 4.479
6.648 -3.566 4.434
6.761 -3.546 4.495
6.842 -3.508 4.539
7.222 -3.62 4.745
6.812 -3.332 4.523
6.957 -3.323 4.601
6.801 -3.169 4.516
6.901 -3.137 4.571
6.144 -2.719 4.16
6.119 -2.639 4.147
6.132 -2.576 4.154
6.141 -2.511 4.159
6.368 -2.535 4.282
6.706 -2.597 4.465
6.803 -2.561 4.518
6.812 -2.49 4.523
6.823 -2.42 4.529
6.824 -2.347 4.529
6.828 -2.275 4.531
6.845 -2.208 4.541
6.822 -2.128 4.528
6.247 -1.881 4.216
6.254 -1.818 4.22
6.261 -1.754 4.224
6.317 -1.704 4.254
6.831 -1.774 4.533
6.85 -1.708 4.543
6.869 -1.643 4.553
6.879 -1.574 4.559
6.89 -1.507 4.565
6.902 -1.439 4.571
6.906 -1.37 4.574
6.919 -1.303 4.581
6.929 -1.235 4.586
6.936 -1.166 4.59
6.953 -1.099 4.599
6.964 -1.032 4.605
6.977 -0.964 4.612
6.978 -0.895 4.613
6.99 -0.827 4.619
7 -0.758 4.625
7.002 -0.689 4.626
6.584 -0.583 4.399
6.463 -0.508 4.333
6.475 -0.445 4.34
6.486 -0.382 4.346
6.697 -0.329 4.46
7.089 -0.279 4.673
7.106 -0.209 4.682
7.115 -0.14 4.687
7.133 -0.07 4.697
7.141 -0 4.701
7.159 0.07 4.711
7.126 0.14 4.693
6.804 0.2 4.518
6.612 0.26 4.414
6.626 0.325 4.422
6.639 0.391 4.429
6.65 0.457 4.435
6.658 0.524 4.439
6.668 0.59 4.444
6.674 0.657 4.448
6.689 0.724 4.456
6.703 0.792 4.463
6.712 0.86 4.468
6.722 0.928 4.474
6.737 0.998 4.482
6.745 1.066 4.486
7.324 1.232 4.8
7.33 1.307 4.804
7.353 1.385 4.816
7.366 1.462 4.823
7.377 1.539 4.829
7.389 1.617 4.836
7.402 1.696 4.843
7.405 1.772 4.844
7.425 1.853 4.855
7.435 1.933 4.861
7.453 2.015 4.87
7.462 2.095 4.875
7.479 2.178 4.885
7.485 2.258 4.888
7.509 2.345 4.901
7.514 2.426 4.903
7.534 2.513 4.914
7.538 2.595 4.916
7.563 2.686 4.93
7.574 2.771 4.936
7.597 2.863 4.948
7.605 2.949 4.953
7.621 3.039 4.961
7.637 3.131 4.97
7.651 3.222 4.978
7.657 3.311 4.981
7.567 3.357 4.932
7.435 3.382 4.861
7.3 3.404 4.787
7.171 3.426 4.717
7.095 3.472 4.676
7.106 3.561 4.682
7.131 3.658 4.696
7.134 3.744 4.697
7.123 3.824 4.691
7.009 3.847 4.63
6.893 3.867 4.567
6.78 3.886 4.505
6.676 3.909 4.449
6.572 3.929 4.393
6.462 3.944 4.333
6.373 3.971 4.284
6.269 3.986 4.228
6.178 4.008 4.179
6.078 4.022 4.124
5.989 4.042 4.077
5.894 4.056 4.025
5.805 4.072 3.977
5.725 4.094 3.933
5.637 4.108 3.885
5.556 4.126 3.842
5.478 4.145 3.799
5.39 4.155 3.751
5.315 4.173 3.711
5.237 4.187 3.668
5.158 4.2 3.626
5.082 4.214 3.584
5.006 4.226 3.543
4.936 4.242 3.505
4.866 4.257 3.467
4.795 4.27 3.429
4.723 4.281 3.39
4.659 4.297 3.355
4.592 4.311 3.319
4.534 4.331 3.287
4.462 4.337 3.248
4.398 4.349 3.213
4.335 4.362 3.179
4.269 4.37 3.143
4.209 4.384 3.111
0.503 0.461 1.101
0.51 0.477 1.105
0.5 0.475 1.1
0.492 0.473 1.095
0.486 0.475 1.092
0.484 0.481 1.091
0.475 0.479 1.086
0.472 0.483 1.084
0.463 0.481 1.08
0.458 0.482 1.077
0.455 0.487 1.075
0.446 0.485 1.07
0.443 0.488 1.068
0.44 0.493 1.067
0.437 0.498 1.065
0.428 0.494 1.06
0.419 0.49 1.055
0.415 0.493 1.053
0.415 0.502 1.053
0.407 0.5 1.049
0.403 0.502 1.047
0.396 0.501 1.043
0.391 0.503 1.041
0.384 0.501 1.037
0.381 0.504 1.035
0.375 0.505 1.032
0.371 0.508 1.03
0.365 0.506 1.026
0.363 0.513 1.025
0.359 0.515 1.023
0.351 0.51 1.019
0.347 0.513 1.017
0.342 0.514 1.014
0.34 0.52 1.013
0.335 0.521 1.01
0.328 0.518 1.006
0.324 0.52 1.004
0.318 0.518 1.001
0.315 0.522 0.999
0.312 0.527 0.998
0.304 0.52 0.993
0.299 0.521 0.991
0.296 0.524 0.989
0.293 0.528 0.987
0.289 0.532 0.985
0.283 0.528 0.982
0.28 0.535 0.98
0.275 0.532 0.977
0.271 0.536 0.975
0.266 0.536 0.973
0.261 0.533 0.97
0.256 0.535 0.968
0.255 0.545 0.967
0.248 0.538 0.963
0.244 0.54 0.961
0.24 0.541 0.958
0.236 0.543 0.956
0.232 0.545 0.954
0.229 0.55 0.952
0.224 0.551 0.95
0.218 0.547 0.947
0.214 0.546 0.944
0.21 0.548 0.942
0.206 0.552 0.94
0.202 0.554 0.938
0.198 0.556 0.936
0.192 0.547 0.932
0.188 0.55 0.93
0.183 0.55 0.928
0.179 0.552 0.926
0.175 0.553 0.923
0.171 0.554 0.921
0.166 0.553 0.918
0.162 0.554 0.916
0.158 0.555 0.914
0.155 0.565 0.912
0.15 0.566 0.91
0.146 0.566 0.908
0.142 0.567 0.905
0.137 0.565 0.903
0.133 0.565 0.9
0.129 0.572 0.898
0.125 0.573 0.896
0.12 0.571 0.893
0.115 0.569 0.891
0.112 0.579 0.889
0.107 0.58 0.887
0.103 0.58 0.884
0.098 0.578 0.882
0.094 0.578 0.879
0.089 0.577 0.877
0.085 0.578 0.874
0.08 0.584 0.872
0.076 0.578 0.87
0.076 -0.499 0.87
0.08 -0.508 0.872
0.084 -0.508 0.874
0.087 -0.508 0.876
0.091 -0.508 0.878
0.095 -0.509 0.881
0.099 -0.507 0.883
0.103 -0.507 0.885
0.107 -0.516 0.887
0.111 -0.515 0.889
0.115 -0.515 0.892
0.119 -0.515 0.894
0.123 -0.514 0.896
0.127 -0.514 0.898
0.131 -0.513 0.9
0.136 -0.521 0.903
0.14 -0.522 0.905
0.144 -0.522 0.907
0.148 -0.521 0.91
0.152 -0.521 0.912
0.155 -0.51 0.913
0.16 -0.518 0.916
0.165 -0.525 0.919
0.169 -0.524 0.921
0.173 -0.522 0.923
0.177 -0.521 0.925
0.181 -0.52 0.928
0.187 -0.529 0.931
0.191 -0.528 0.933
0.195 -0.526 0.935
0.201 -0.534 0.939
0.205 -0.532 0.941
0.211 -0.538 0.944
0.215 -0.536 0.946
0.219 -0.534 0.948
0.226 -0.542 0.952
0.228 -0.535 0.953
0.228 -0.518 0.953
0.851 -2.566 1.294
0.864 -2.537 1.301
0.87 -2.487 1.305
0.878 -2.446 1.309
0.884 -2.399 1.312
0.89 -2.356 1.315
0.899 -2.322 1.32
0.904 -2.28 1.323
0.909 -2.239 1.326
0.922 -2.217 1.333
0.785 -1.815 1.258
0.745 -1.673 1.236
0.76 -1.674 1.245
0.779 -1.68 1.255
0.791 -1.672 1.261
0.807 -1.673 1.27
0.824 -1.673 1.279
0.836 -1.666 1.286
0.853 -1.667 1.295
0.871 -1.669 1.305
0.883 -1.66 1.312
0.899 -1.659 1.32
0.919 -1.665 1.331
0.936 -1.666 1.341
0.952 -1.663 1.35
0.968 -1.66 1.358
0.994 -1.675 1.372
1.014 -1.679 1.383
1.035 -1.683 1.395
1.057 -1.689 1.407
1.093 -1.719 1.427
1.251 -1.949 1.513
1.263 -1.933 1.52
1.299 -1.956 1.54
1.304 -1.928 1.542
1.333 -1.937 1.558
1.399 -2.001 1.594
1.731 -2.459 1.776
1.759 -2.455 1.791
1.795 -2.464 1.811
1.834 -2.475 1.832
1.934 -2.57 1.887
2.297 -3.017 2.085
2.322 -2.998 2.099
2.371 -3.01 2.126
2.44 -3.047 2.164
2.484 -3.048 2.188
2.554 -3.083 2.226
5.782 -6.976 3.992
0 0 0
2.709 -3.108 2.311
0 0 0
6.035 -6.793 4.131
2.874 -3.135 2.401
2.92 -3.132 2.427
2.953 -3.112 2.444
0 0 0
3.124 -3.184 2.538
5.622 -5.693 3.905
0 0 0
0 0 0
5.802 -5.576 4.004
5.916 -5.586 4.066
0 0 0
6.188 -5.642 4.214
0 0 0
0 0 0
0 0 0
0 0 0
4.076 -3.374 3.059
4.106 -3.338 3.075
5.956 -4.782 4.088
0 0 0
0 0 0
0 0 0
0 0 0
0 0 0
0 0 0
0 0 0
0 0 0
5.29 -3.571 3.723
0 0 0
0 0 0
6.53 -4.162 4.402
6.561 -4.098 4.418
6.571 -4.02 4.424
6.573 -3.938 4.425
6.502 -3.814 4.387
6.606 -3.793 4.443
6.611 -3.714 4.446
6.621 -3.639 4.451
6.634 -3.566 4.459
6.695 -3.518 4.492
6.66 -3.42 4.473
6.705 -3.365 4.497
6.681 -3.274 4.484
6.689 -3.2 4.489
6.692 -3.124 4.491
6.709 -3.055 4.5
6.15 -2.728 4.194
6.113 -2.642 4.174
6.133 -2.582 4.185
6.13 -2.512 4.183
6.344 -2.53 4.3
6.679 -2.592 4.483
6.731 -2.538 4.512
6.775 -2.481 4.536
6.743 -2.396 4.518
6.774 -2.334 4.535
6.761 -2.257 4.528
6.781 -2.192 4.539
6.781 -2.12 4.539
6.233 -1.881 4.239
6.257 -1.822 4.252
6.263 -1.759 4.256
6.298 -1.703 4.275
6.82 -1.775 4.56
6.845 -1.711 4.574
6.855 -1.643 4.579
6.867 -1.575 4.586
6.881 -1.508 4.594
6.882 -1.438 4.594
6.897 -1.371 4.603
6.908 -1.303 4.608
6.916 -1.235 4.613
6.926 -1.167 4.618
6.93 -1.098 4.621
6.942 -1.031 4.627
6.953 -0.963 4.633
6.964 -0.895 4.639
6.971 -0.826 4.643
6.974 -0.757 4.645
7 -0.691 4.659
6.601 -0.585 4.44
6.458 -0.509 4.362
6.47 -0.446 4.369
6.473 -0.382 4.37
6.657 -0.328 4.471
7.083 -0.279 4.704
7.099 -0.21 4.713
7.116 -0.14 4.723
7.126 -0.07 4.728
7.135 -0 4.733
7.151 0.07 4.742
7.116 0.14 4.723
6.811 0.201 4.555
6.598 0.26 4.439
6.625 0.326 4.454
6.631 0.392 4.457
6.646 0.458 4.465
6.651 0.524 4.468
6.663 0.591 4.474
6.667 0.657 4.477
6.686 0.726 4.487
6.69 0.792 4.489
6.708 0.861 4.499
6.718 0.93 4.505
6.73 0.999 4.511
6.74 1.068 4.516
7.324 1.235 4.836
7.332 1.31 4.841
7.352 1.388 4.852
7.359 1.464 4.855
7.37 1.541 4.862
7.382 1.619 4.868
7.403 1.699 4.88
7.407 1.776 4.882
7.418 1.856 4.888
7.428 1.935 4.893
7.447 2.017 4.903
7.456 2.097 4.908
7.473 2.181 4.918
7.481 2.262 4.922
7.501 2.347 4.933
7.507 2.429 4.936
7.534 2.518 4.951
7.538 2.601 4.953
7.555 2.688 4.963
7.565 2.774 4.968
7.59 2.866 4.982
7.605 2.955 4.99
7.621 3.046 4.999
7.621 3.131 4.999
7.645 3.226 5.012
7.659 3.318 5.019
7.56 3.36 4.965
7.422 3.383 4.89
7.287 3.405 4.816
7.164 3.43 4.749
7.096 3.479 4.711
7.097 3.563 4.712
7.118 3.658 4.723
7.13 3.75 4.73
7.116 3.828 4.723
6.995 3.847 4.656
6.879 3.867 4.593
6.766 3.886 4.531
6.673 3.915 4.48
6.561 3.931 4.419
6.458 3.95 4.362
6.362 3.972 4.31
6.259 3.988 4.253
6.169 4.01 4.204
6.072 4.026 4.151
5.984 4.047 4.103
5.889 4.061 4.051
5.8 4.078 4.002
5.713 4.094 3.955
5.624 4.107 3.906
5.545 4.126 3.863
5.459 4.139 3.816
5.379 4.155 3.772
5.304 4.173 3.731
5.225 4.187 3.688
5.147 4.2 3.645
5.073 4.215 3.604
5.002 4.231 3.565
4.933 4.249 3.528
4.856 4.257 3.486
4.785 4.27 3.447
4.714 4.281 3.408
4.65 4.298 3.373
4.583 4.311 3.336
4.518 4.325 3.301
4.453 4.337 3.265
4.388 4.349 3.23
4.326 4.362 3.195
4.265 4.376 3.162
4.2 4.385 3.127
0.508 0.467 1.106
0.5 0.467 1.102
0.5 0.475 1.102
0.497 0.48 1.1
0.486 0.476 1.094
0.482 0.48 1.092
0.474 0.478 1.088
0.471 0.483 1.086
0.462 0.48 1.081
0.458 0.485 1.079
0.454 0.487 1.077
0.445 0.485 1.072
0.441 0.488 1.07
0.438 0.493 1.068
0.43 0.49 1.064
0.427 0.495 1.062
0.423 0.498 1.06
0.414 0.493 1.055
0.41 0.497 1.053
0.406 0.5 1.051
0.402 0.502 1.048
0.394 0.5 1.044
0.391 0.504 1.042
0.383 0.5 1.038
0.379 0.504 1.036
0.375 0.506 1.034
0.37 0.507 1.031
0.368 0.513 1.03
0.359 0.507 1.025
0.359 0.516 1.025
0.353 0.517 1.022
0.345 0.512 1.018
0.344 0.519 1.017
0.34 0.521 1.014
0.331 0.514 1.009
0.327 0.517 1.007
0.323 0.519 1.005
0.32 0.524 1.004
0.317 0.529 1.002
0.308 0.519 0.997
0.303 0.52 0.994
0.303 0.531 0.994
0.296 0.526 0.99
0.292 0.528 0.988
0.288 0.531 0.986
0.283 0.532 0.984
0.282 0.54 0.983
0.275 0.535 0.979
0.271 0.538 0.977
0.266 0.537 0.974
0.263 0.542 0.973
0.256 0.536 0.969
0.254 0.544 0.968
0.251 0.548 0.966
0.246 0.549 0.963
0.239 0.542 0.959
0.238 0.553 0.959
0.231 0.545 0.955
0.228 0.549 0.953
0.221 0.541 0.949
0.217 0.546 0.948
0.215 0.553 0.946
0.209 0.548 0.943
0.206 0.553 0.941
0.201 0.554 0.939
0.197 0.555 0.936
0.193 0.558 0.934
0.187 0.55 0.931
0.183 0.552 0.929
0.179 0.552 0.926
0.174 0.552 0.924
0.17 0.553 0.922
0.166 0.554 0.919
0.162 0.555 0.917
0.157 0.556 0.915
0.153 0.556 0.912
0.15 0.566 0.911
0.146 0.567 0.908
0.141 0.565 0.906
0.137 0.565 0.903
0.132 0.563 0.901
0.129 0.573 0.899
0.124 0.573 0.896
0.119 0.57 0.894
0.116 0.58 0.892
0.111 0.58 0.889
0.107 0.581 0.887
0.102 0.58 0.885
0.098 0.579 0.882
0.093 0.575 0.88
0.089 0.575 0.877
0.085 0.576 0.875
0.08 0.574 0.872
0.076 0.588 0.87
0.075 -0.508 0.87
0.079 -0.508 0.873
0.083 -0.509 0.875
0.087 -0.508 0.877
0.091 -0.508 0.879
0.095 -0.508 0.881
0.098 -0.507 0.883
0.102 -0.508 0.886
0.107 -0.517 0.888
0.111 -0.515 0.89
0.115 -0.515 0.892
0.119 -0.516 0.895
0.122 -0.514 0.897
0.126 -0.514 0.899
0.131 -0.522 0.902
0.135 -0.521 0.904
0.139 -0.521 0.906
0.143 -0.522 0.908
0.147 -0.521 0.911
0.151 -0.521 0.913
0.155 -0.519 0.915
0.159 -0.518 0.917
0.164 -0.525 0.92
0.168 -0.524 0.922
0.172 -0.522 0.924
0.176 -0.521 0.927
0.182 -0.529 0.93
0.186 -0.528 0.932
0.19 -0.528 0.935
0.196 -0.533 0.938
0.198 -0.525 0.939
0.204 -0.532 0.942
0.21 -0.538 0.946
0.214 -0.536 0.948
0.218 -0.534 0.95
0.225 -0.543 0.954
0.226 -0.53 0.954
0.229 -0.524 0.956
0.85 -2.577 1.302
0.861 -2.54 1.308
0.866 -2.486 1.311
0.874 -2.446 1.315
0.88 -2.399 1.318
0.886 -2.357 1.322
0.895 -2.323 1.327
0.901 -2.281 1.33
0.906 -2.241 1.333
0.918 -2.218 1.34
0.787 -1.829 1.267
0.742 -1.673 1.241
0.76 -1.68 1.252
0.775 -1.68 1.26
0.788 -1.673 1.267
0.804 -1.673 1.276
0.817 -1.665 1.283
0.833 -1.666 1.292
0.849 -1.666 1.301
0.862 -1.659 1.309
0.879 -1.659 1.318
0.895 -1.658 1.327
0.91 -1.656 1.336
0.932 -1.666 1.348
0.949 -1.664 1.357
0.968 -1.667 1.367
0.984 -1.665 1.376
1.004 -1.669 1.388
1.025 -1.673 1.399
1.052 -1.689 1.414
1.073 -1.693 1.426
1.239 -1.938 1.518
1.257 -1.932 1.529
1.297 -1.96 1.551
1.297 -1.925 1.551
1.326 -1.935 1.567
1.428 -2.054 1.623
1.718 -2.451 1.785
1.755 -2.46 1.805
1.814 -2.501 1.838
1.826 -2.474 1.845
1.882 -2.509 1.876
2.268 -2.991 2.091
2.32 -3.008 2.12
2.374 -3.026 2.15
2.443 -3.063 2.189
2.477 -3.054 2.208
5.636 -6.946 3.966
0 0 0
2.634 -3.086 2.295
0 0 0
0 0 0
0 0 0
2.875 -3.149 2.429
2.91 -3.133 2.449
2.943 -3.115 2.467
3.046 -3.171 2.524
6.105 -6.324 4.228
5.614 -5.708 3.954
0 0 0
5.65 -5.546 3.974
0 0 0
0 0 0
6.022 -5.611 4.181
0 0 0
0 0 0
0 0 0
0 0 0
5.739 -4.885 4.024
4.055 -3.371 3.086
4.099 -3.346 3.11
0 0 0
0 0 0
0 0 0
0 0 0
0 0 0
0 0 0
0 0 0
0 0 0
0 0 0
5.276 -3.576 3.766
6.498 -4.33 4.446
6.533 -4.267 4.466
6.512 -4.168 4.454
6.529 -4.094 4.463
6.539 -4.017 4.469
6.552 -3.941 4.476
6.476 -3.814 4.434
6.577 -3.792 4.49
6.565 -3.703 4.484
6.597 -3.641 4.501
6.575 -3.548 4.489
6.613 -3.489 4.51
6.574 -3.39 4.489
6.628 -3.339 4.518
6.594 -3.244 4.5
6.628 -3.184 4.519
6.611 -3.099 4.509
6.632 -3.032 4.521
6.153 -2.74 4.254
6.097 -2.646 4.223
6.117 -2.586 4.234
6.12 -2.518 4.236
6.299 -2.523 4.336
6.649 -2.591 4.531
6.7 -2.537 4.559
6.703 -2.465 4.56
6.721 -2.398 4.571
6.725 -2.327 4.573
6.743 -2.26 4.583
6.752 -2.191 4.588
6.764 -2.123 4.594
6.225 -1.886 4.294
6.239 -1.825 4.302
6.237 -1.758 4.301
6.266 -1.701 4.317
6.801 -1.777 4.615
6.817 -1.711 4.624
6.827 -1.643 4.629
6.833 -1.574 4.633
6.853 -1.508 4.644
6.846 -1.436 4.64
6.868 -1.371 4.652
6.861 -1.3 4.648
6.886 -1.235 4.662
6.856 -1.16 4.646
6.897 -1.097 4.668
6.852 -1.021 4.643
6.91 -0.96 4.675
6.85 -0.883 4.642
6.917 -0.823 4.68
6.846 -0.746 4.64
6.923 -0.686 4.683
6.589 -0.587 4.497
6.44 -0.509 4.414
6.459 -0.447 4.424
6.461 -0.383 4.426
6.63 -0.328 4.52
7.07 -0.28 4.765
7.087 -0.21 4.774
7.095 -0.14 4.779
7.103 -0.07 4.783
7.114 -0 4.789
7.139 0.071 4.803
7.101 0.14 4.782
6.787 0.201 4.607
6.588 0.26 4.497
6.612 0.327 4.51
6.616 0.392 4.512
6.632 0.459 4.521
6.635 0.525 4.522
6.653 0.593 4.533
6.662 0.66 4.538
6.668 0.727 4.541
6.677 0.794 4.546
6.69 0.863 4.553
6.699 0.931 4.558
6.711 1 4.565
6.724 1.07 4.572
7.304 1.237 4.895
7.31 1.312 4.898
7.331 1.39 4.91
7.337 1.465 4.913
7.348 1.543 4.92
7.361 1.621 4.927
7.382 1.701 4.938
7.383 1.778 4.939
7.405 1.86 4.951
7.406 1.937 4.952
7.433 2.022 4.967
7.433 2.1 4.967
7.457 2.185 4.98
7.465 2.266 4.985
7.487 2.352 4.997
7.492 2.434 5
7.511 2.521 5.01
7.515 2.603 5.012
7.54 2.694 5.026
7.55 2.78 5.032
7.574 2.872 5.045
7.582 2.958 5.05
7.598 3.049 5.059
7.607 3.138 5.064
7.62 3.229 5.071
7.635 3.321 5.079
7.537 3.364 5.025
7.4 3.387 4.948
7.27 3.411 4.876
7.14 3.432 4.804
7.075 3.483 4.767
7.082 3.57 4.771
7.104 3.666 4.784
7.111 3.755 4.787
7.084 3.826 4.772
6.974 3.851 4.711
6.854 3.869 4.645
6.741 3.888 4.582
6.638 3.91 4.524
6.535 3.931 4.467
6.431 3.95 4.409
6.332 3.969 4.354
6.24 3.992 4.303
6.144 4.01 4.249
6.053 4.03 4.198
5.96 4.047 4.146
5.865 4.061 4.094
5.778 4.078 4.045
5.69 4.094 3.996
5.608 4.112 3.951
5.529 4.131 3.907
5.443 4.144 3.859
5.365 4.161 3.816
5.282 4.173 3.769
5.203 4.186 3.725
5.133 4.206 3.686
5.056 4.218 3.643
4.981 4.231 3.602
4.906 4.242 3.56
4.836 4.257 3.521
4.765 4.269 3.481
4.7 4.286 3.445
4.636 4.303 3.41
4.572 4.319 3.374
4.506 4.331 3.337
4.442 4.344 3.301
4.371 4.349 3.262
4.308 4.362 3.227
4.246 4.374 3.193
4.188 4.389 3.16
0.507 0.469 1.111
0.499 0.468 1.106
0.496 0.473 1.105
0.488 0.472 1.1
0.479 0.47 1.095
0.482 0.482 1.097
0.472 0.478 1.091
0.468 0.482 1.089
0.461 0.481 1.085
0.456 0.484 1.082
0.452 0.487 1.08
0.447 0.489 1.077
0.439 0.487 1.073
0.437 0.493 1.072
0.433 0.497 1.07
0.425 0.494 1.065
0.416 0.49 1.06
0.412 0.494 1.058
0.408 0.497 1.056
0.404 0.5 1.054
0.395 0.495 1.049
0.397 0.507 1.05
0.39 0.506 1.046
0.386 0.509 1.044
0.377 0.503 1.039
0.373 0.506 1.036
0.369 0.509 1.034
0.361 0.504 1.03
0.362 0.514 1.03
0.353 0.51 1.025
0.348 0.509 1.022
0.344 0.512 1.02
0.341 0.517 1.019
0.334 0.513 1.014
0.329 0.513 1.012
0.325 0.515 1.009
0.322 0.519 1.008
0.319 0.525 1.006
0.311 0.518 1.002
0.31 0.527 1.001
0.302 0.522 0.997
0.298 0.523 0.995
0.295 0.527 0.993
0.29 0.527 0.99
0.287 0.532 0.988
0.282 0.531 0.985
0.277 0.532 0.983
0.274 0.536 0.981
0.27 0.539 0.979
0.266 0.541 0.977
0.262 0.542 0.974
0.255 0.536 0.971
0.254 0.546 0.97
0.247 0.539 0.966
0.242 0.54 0.964
0.238 0.542 0.961
0.234 0.543 0.959
0.23 0.547 0.957
0.226 0.548 0.955
0.222 0.549 0.952
0.216 0.546 0.949
0.212 0.545 0.947
0.208 0.548 0.944
0.205 0.553 0.942
0.2 0.554 0.94
0.196 0.555 0.938
0.19 0.547 0.934
0.188 0.558 0.933
0.184 0.559 0.931
0.178 0.552 0.928
0.175 0.562 0.926
0.169 0.554 0.923
0.165 0.553 0.92
0.162 0.566 0.919
0.157 0.556 0.916
0.154 0.566 0.914
0.149 0.566 0.912
0.145 0.567 0.909
0.14 0.565 0.907
0.136 0.566 0.904
0.132 0.572 0.902
0.128 0.573 0.9
0.123 0.571 0.897
0.119 0.57 0.895
0.114 0.569 0.892
0.111 0.581 0.89
0.106 0.582 0.888
0.102 0.581 0.885
0.097 0.58 0.883
0.093 0.579 0.88
0.088 0.577 0.878
0.084 0.577 0.875
0.08 0.583 0.873
0.075 0.579 0.87
0.075 -0.508 0.871
0.079 -0.508 0.873
0.082 -0.508 0.875
0.086 -0.508 0.878
0.09 -0.509 0.88
0.094 -0.509 0.882
0.098 -0.508 0.884
0.102 -0.516 0.887
0.106 -0.508 0.889
0.11 -0.515 0.891
0.114 -0.515 0.893
0.118 -0.515 0.895
0.122 -0.514 0.898
0.126 -0.514 0.9
0.13 -0.522 0.903
0.134 -0.521 0.905
0.139 -0.522 0.907
0.143 -0.522 0.909
0.147 -0.521 0.912
0.151 -0.521 0.914
0.154 -0.519 0.916
0.158 -0.517 0.918
0.162 -0.516 0.92
0.168 -0.524 0.924
0.171 -0.523 0.926
0.177 -0.53 0.929
0.179 -0.521 0.93
0.183 -0.52 0.933
0.189 -0.528 0.936
0.193 -0.527 0.938
0.199 -0.533 0.941
0.203 -0.532 0.944
0.209 -0.538 0.947
0.213 -0.535 0.949
0.217 -0.534 0.951
0.223 -0.542 0.955
0.223 -0.524 0.955
0.225 -0.518 0.956
0.844 -2.569 1.307
0.858 -2.541 1.315
0.863 -2.488 1.317
0.87 -2.446 1.322
0.876 -2.398 1.325
0.886 -2.367 1.331
0.892 -2.324 1.334
0.901 -2.292 1.339
0.903 -2.243 1.34
0.914 -2.219 1.347
0.784 -1.83 1.273
0.735 -1.664 1.245
0.756 -1.678 1.257
0.772 -1.68 1.266
0.784 -1.672 1.273
0.8 -1.673 1.282
0.813 -1.665 1.289
0.829 -1.666 1.298
0.846 -1.667 1.308
0.859 -1.659 1.315
0.875 -1.659 1.324
0.891 -1.659 1.334
0.907 -1.657 1.342
0.924 -1.656 1.352
0.944 -1.663 1.363
0.963 -1.666 1.374
0.98 -1.666 1.384
1 -1.669 1.395
1.02 -1.672 1.406
1.046 -1.687 1.421
1.063 -1.685 1.431
1.222 -1.918 1.521
1.252 -1.932 1.538
1.287 -1.953 1.558
1.298 -1.934 1.564
1.323 -1.938 1.578
1.471 -2.13 1.662
1.716 -2.458 1.8
1.754 -2.47 1.822
1.826 -2.53 1.863
1.814 -2.469 1.856
1.845 -2.468 1.873
2.258 -2.99 2.107
2.323 -3.026 2.144
2.376 -3.042 2.174
5.407 -6.927 3.891
0 0 0
2.516 -3.062 2.254
2.577 -3.083 2.288
0 0 0
5.957 -7 4.202
2.741 -3.118 2.381
2.794 -3.125 2.411
6.017 -6.711 4.236
2.896 -3.132 2.469
2.93 -3.114 2.488
0 0 0
0 0 0
0 0 0
5.608 -5.626 4.005
5.626 -5.546 4.015
0 0 0
5.863 -5.582 4.149
0 0 0
0 0 0
0 0 0
0 0 0
0 0 0
0 0 0
4.071 -3.399 3.135
4.093 -3.355 3.147
0 0 0
0 0 0
6.177 -4.82 4.327
0 0 0
0 0 0
0 0 0
0 0 0
0 0 0
0 0 0
5.261 -3.581 3.808
6.433 -4.304 4.472
6.48 -4.25 4.499
6.445 -4.142 4.479
6.484 -4.083 4.501
6.461 -3.985 4.488
6.495 -3.923 4.507
6.454 -3.816 4.484
6.493 -3.758 4.506
6.5 -3.682 4.51
6.506 -3.605 4.513
6.526 -3.536 4.525
6.533 -3.461 4.529
6.548 -3.39 4.537
6.55 -3.313 4.538
6.568 -3.245 4.548
6.577 -3.172 4.554
6.594 -3.103 4.563
6.602 -3.031 4.567
6.166 -2.758 4.321
6.086 -2.652 4.276
6.099 -2.588 4.283
6.103 -2.521 4.285
6.267 -2.52 4.378
6.614 -2.588 4.574
6.679 -2.54 4.612
6.69 -2.47 4.618
6.701 -2.401 4.624
6.712 -2.332 4.63
6.731 -2.266 4.641
6.732 -2.194 4.641
6.749 -2.127 4.651
6.208 -1.889 4.344
6.222 -1.827 4.352
6.22 -1.761 4.352
6.247 -1.703 4.367
6.759 -1.774 4.657
6.707 -1.69 4.627
6.776 -1.637 4.667
6.694 -1.548 4.62
6.77 -1.496 4.663
6.698 -1.411 4.622
6.767 -1.356 4.661
6.687 -1.272 4.616
6.754 -1.216 4.654
6.689 -1.136 4.617
6.755 -1.079 4.654
6.684 -1 4.614
6.749 -0.942 4.651
6.677 -0.865 4.61
6.742 -0.805 4.647
6.67 -0.73 4.606
6.737 -0.67 4.644
6.581 -0.588 4.556
6.421 -0.51 4.465
6.441 -0.447 4.476
6.445 -0.384 4.479
6.612 -0.328 4.573
7.05 -0.28 4.821
7.065 -0.21 4.83
7.074 -0.14 4.835
7.091 -0.07 4.845
7.099 -0 4.849
7.117 0.071 4.86
7.09 0.141 4.844
6.78 0.202 4.669
6.573 0.261 4.551
6.595 0.327 4.563
6.597 0.393 4.565
6.621 0.46 4.578
6.618 0.526 4.577
6.634 0.593 4.586
6.642 0.66 4.59
6.658 0.729 4.6
6.659 0.795 4.6
6.679 0.865 4.611
6.678 0.932 4.611
6.706 1.003 4.627
6.723 1.074 4.636
7.289 1.239 4.957
7.297 1.315 4.961
7.309 1.391 4.968
7.313 1.467 4.97
7.335 1.546 4.983
7.338 1.623 4.985
7.36 1.703 4.997
7.363 1.78 4.999
7.382 1.862 5.01
7.393 1.942 5.016
7.41 2.024 5.026
7.419 2.104 5.031
7.437 2.188 5.04
7.451 2.271 5.048
7.471 2.357 5.06
7.477 2.439 5.063
7.488 2.523 5.069
7.5 2.609 5.076
7.515 2.696 5.085
7.526 2.782 5.091
7.533 2.868 5.095
7.56 2.962 5.11
7.543 3.039 5.101
7.574 3.137 5.118
7.532 3.204 5.094
7.598 3.319 5.132
7.495 3.359 5.074
7.372 3.388 5.004
7.24 3.411 4.929
7.11 3.432 4.856
7.06 3.491 4.827
7.065 3.577 4.83
7.096 3.677 4.847
7.096 3.763 4.847
7.059 3.829 4.827
6.945 3.851 4.762
6.831 3.871 4.697
6.721 3.892 4.635
6.618 3.915 4.577
6.512 3.934 4.517
6.403 3.948 4.455
6.313 3.974 4.404
6.212 3.991 4.347
6.115 4.008 4.292
6.026 4.029 4.242
5.936 4.047 4.19
5.848 4.066 4.141
5.76 4.083 4.091
5.673 4.099 4.041
5.579 4.108 3.989
5.505 4.131 3.946
5.421 4.144 3.899
5.343 4.161 3.854
5.261 4.173 3.808
5.183 4.187 3.764
5.112 4.206 3.724
5.042 4.224 3.684
4.967 4.237 3.642
4.893 4.249 3.6
4.822 4.262 3.559
4.752 4.275 3.52
4.682 4.288 3.48
4.618 4.304 3.444
4.546 4.312 3.403
4.488 4.332 3.37
4.423 4.344 3.333
4.36 4.357 3.298
4.296 4.368 3.262
4.228 4.374 3.223
4.17 4.389 3.19
0.51 0.475 1.118
0.496 0.468 1.11
0.498 0.478 1.111
0.486 0.473 1.104
0.483 0.477 1.102
0.479 0.481 1.1
0.471 0.479 1.095
0.465 0.481 1.092
0.457 0.48 1.088
0.453 0.482 1.085
0.449 0.487 1.083
0.445 0.489 1.081
0.443 0.496 1.08
0.434 0.492 1.074
0.426 0.489 1.07
0.422 0.493 1.068
0.419 0.498 1.066
0.41 0.493 1.061
0.405 0.495 1.058
0.403 0.501 1.057
0.394 0.496 1.052
0.391 0.501 1.05
0.383 0.497 1.046
0.378 0.498 1.043
0.379 0.508 1.043
0.372 0.507 1.039
0.369 0.51 1.037
0.363 0.511 1.034
0.356 0.507 1.03
0.352 0.51 1.028
0.347 0.511 1.025
0.342 0.512 1.023
0.34 0.518 1.021
0.332 0.513 1.017
0.332 0.522 1.017
0.327 0.524 1.014
0.319 0.517 1.009
0.317 0.523 1.008
0.31 0.52 1.004
0.304 0.518 1.001
0.306 0.532 1.002
0.297 0.525 0.997
0.293 0.527 0.995
0.291 0.532 0.993
0.285 0.531 0.99
0.281 0.532 0.988
0.278 0.538 0.986
0.272 0.534 0.983
0.269 0.539 0.981
0.265 0.541 0.979
0.261 0.542 0.976
0.254 0.536 0.972
0.249 0.537 0.97
0.246 0.539 0.968
0.244 0.55 0.967
0.237 0.542 0.963
0.236 0.554 0.962
0.229 0.547 0.959
0.225 0.548 0.956
0.219 0.542 0.953
0.215 0.546 0.951
0.211 0.547 0.948
0.207 0.548 0.946
0.203 0.551 0.944
0.199 0.553 0.941
0.195 0.554 0.939
0.189 0.548 0.936
0.187 0.558 0.935
0.181 0.55 0.931
0.177 0.552 0.929
0.172 0.552 0.926
0.168 0.554 0.924
0.164 0.554 0.922
0.16 0.555 0.919
0.156 0.556 0.917
0.151 0.556 0.914
0.148 0.566 0.913
0.144 0.566 0.91
0.139 0.565 0.908
0.135 0.565 0.905
0.131 0.564 0.903
0.126 0.564 0.9
0.123 0.571 0.898
0.118 0.57 0.896
0.114 0.571 0.893
0.11 0.58 0.891
0.105 0.572 0.888
0.101 0.579 0.886
0.097 0.579 0.884
0.092 0.579 0.881
0.088 0.577 0.878
0.083 0.577 0.876
0.079 0.584 0.874
0.075 0.589 0.871
0.074 -0.508 0.872
0.078 -0.508 0.874
0.082 -0.508 0.876
0.086 -0.508 0.878
0.09 -0.509 0.88
0.093 -0.508 0.883
0.097 -0.507 0.885
0.101 -0.507 0.887
0.105 -0.517 0.89
0.109 -0.506 0.891
0.113 -0.515 0.894
0.117 -0.515 0.896
0.121 -0.514 0.899
0.125 -0.514 0.901
0.13 -0.522 0.904
0.134 -0.521 0.906
0.138 -0.521 0.908
0.141 -0.513 0.91
0.146 -0.521 0.913
0.15 -0.52 0.915
0.154 -0.52 0.917
0.157 -0.518 0.92
0.161 -0.516 0.922
0.167 -0.524 0.925
0.171 -0.523 0.927
0.176 -0.531 0.93
0.18 -0.53 0.933
0.184 -0.529 0.935
0.188 -0.528 0.937
0.194 -0.535 0.941
0.196 -0.525 0.942
0.202 -0.532 0.945
0.206 -0.53 0.947
0.212 -0.536 0.951
0.216 -0.534 0.953
0.222 -0.542 0.957
0.223 -0.529 0.957
0.225 -0.521 0.959
0.844 -2.58 1.315
0.852 -2.535 1.32
0.859 -2.489 1.324
0.867 -2.447 1.328
0.876 -2.411 1.333
0.881 -2.365 1.337
0.888 -2.324 1.34
0.89 -2.274 1.342
0.898 -2.241 1.346
0.893 -2.174 1.343
0.779 -1.827 1.278
0.733 -1.669 1.251
0.75 -1.672 1.261
0.768 -1.678 1.271
0.781 -1.672 1.279
0.797 -1.673 1.288
0.81 -1.666 1.295
0.825 -1.665 1.304
0.842 -1.667 1.314
0.855 -1.659 1.321
0.871 -1.659 1.331
0.887 -1.659 1.34
0.903 -1.657 1.349
0.919 -1.656 1.358
0.94 -1.663 1.37
0.954 -1.658 1.379
0.976 -1.666 1.391
0.995 -1.667 1.402
1.011 -1.664 1.411
1.036 -1.678 1.426
1.056 -1.68 1.437
1.214 -1.914 1.528
1.253 -1.943 1.551
1.278 -1.948 1.565
1.292 -1.935 1.573
1.323 -1.948 1.591
1.546 -2.254 1.719
1.725 -2.482 1.822
1.793 -2.539 1.862
1.858 -2.587 1.899
1.802 -2.463 1.867
1.843 -2.477 1.891
2.121 -2.815 2.051
2.322 -3.038 2.167
0 0 0
5.395 -6.941 3.937
2.469 -3.07 2.251
2.505 -3.062 2.272
0 0 0
5.816 -6.982 4.179
0 0 0
2.724 -3.112 2.398
0 0 0
2.849 -3.146 2.47
2.886 -3.134 2.491
2.922 -3.119 2.512
6.054 -6.435 4.316
3.086 -3.185 2.606
0 0 0
0 0 0
0 0 0
5.717 -5.562 4.122
0 0 0
0 0 0
6.107 -5.637 4.346
0 0 0
0 0 0
0 0 0
0 0 0
0 0 0
4.074 -3.354 3.176
0 0 0
0 0 0
0 0 0
0 0 0
0 0 0
0 0 0
6.332 -4.601 4.476
0 0 0
6.368 -4.451 4.497
5.244 -3.585 3.85
6.384 -4.289 4.506
6.402 -4.216 4.516
6.414 -4.139 4.523
6.425 -4.063 4.53
6.443 -3.99 4.54
6.451 -3.913 4.545
6.426 -3.816 4.53
6.464 -3.757 4.552
6.48 -3.686 4.561
6.493 -3.613 4.569
6.504 -3.539 4.575
6.516 -3.467 4.582
6.534 -3.398 4.593
6.531 -3.317 4.591
6.547 -3.248 4.6
6.557 -3.175 4.606
6.573 -3.107 4.615
6.583 -3.035 4.621
6.185 -2.778 4.392
6.061 -2.652 4.32
6.08 -2.592 4.331
6.085 -2.525 4.334
6.234 -2.517 4.42
6.574 -2.583 4.616
6.669 -2.546 4.67
6.67 -2.473 4.671
6.689 -2.407 4.682
6.693 -2.335 4.684
6.71 -2.268 4.694
6.712 -2.197 4.695
6.728 -2.13 4.705
6.188 -1.891 4.394
6.204 -1.83 4.403
6.209 -1.765 4.406
6.224 -1.704 4.414
6.61 -1.741 4.636
6.541 -1.654 4.597
6.605 -1.602 4.633
6.543 -1.519 4.598
6.598 -1.464 4.63
6.528 -1.38 4.589
6.597 -1.327 4.629
6.522 -1.245 4.586
6.6 -1.193 4.631
6.524 -1.112 4.587
6.591 -1.057 4.626
6.52 -0.979 4.585
6.587 -0.923 4.623
6.514 -0.847 4.581
6.576 -0.789 4.617
6.51 -0.715 4.579
6.577 -0.657 4.617
6.489 -0.583 4.567
6.41 -0.511 4.521
6.422 -0.448 4.528
6.424 -0.384 4.529
6.585 -0.328 4.622
7.027 -0.28 4.877
7.045 -0.211 4.887
7.054 -0.141 4.892
7.077 -0.071 4.905
7.078 -0 4.906
7.094 0.071 4.915
7.077 0.141 4.905
6.764 0.202 4.725
6.554 0.261 4.604
6.574 0.327 4.616
6.586 0.394 4.622
6.601 0.461 4.631
6.605 0.527 4.633
6.623 0.595 4.644
6.63 0.662 4.648
6.637 0.729 4.652
6.648 0.797 4.658
6.659 0.866 4.664
6.667 0.934 4.669
6.678 1.003 4.676
6.705 1.076 4.691
7.268 1.241 5.015
7.282 1.317 5.024
7.295 1.394 5.031
7.3 1.47 5.034
7.321 1.55 5.046
7.325 1.626 5.048
7.345 1.707 5.06
7.35 1.785 5.063
7.365 1.865 5.071
7.371 1.944 5.075
7.374 2.023 5.077
7.396 2.107 5.089
7.385 2.182 5.083
7.417 2.271 5.101
7.387 2.34 5.084
7.432 2.435 5.11
7.381 2.498 5.081
7.445 2.601 5.117
7.367 2.654 5.073
7.44 2.762 5.115
7.35 2.809 5.063
7.435 2.925 5.112
7.341 2.97 5.057
7.422 3.086 5.104
7.339 3.135 5.056
7.424 3.256 5.106
7.346 3.305 5.06
7.341 3.388 5.058
7.21 3.411 4.982
7.083 3.433 4.909
7.044 3.497 4.886
7.049 3.584 4.889
7.072 3.68 4.903
7.074 3.767 4.904
7.034 3.831 4.881
6.916 3.851 4.813
6.805 3.873 4.749
6.693 3.892 4.684
6.588 3.913 4.624
6.485 3.934 4.564
6.386 3.955 4.507
6.286 3.974 4.45
6.191 3.994 4.395
6.099 4.015 4.342
6.008 4.033 4.289
5.911 4.047 4.234
5.824 4.066 4.183
5.736 4.083 4.133
5.65 4.099 4.083
5.561 4.112 4.032
5.483 4.132 3.987
5.398 4.144 3.938
5.32 4.161 3.893
5.239 4.173 3.847
5.167 4.192 3.805
5.09 4.206 3.761
5.014 4.218 3.717
4.945 4.236 3.678
4.871 4.248 3.635
4.801 4.262 3.595
4.738 4.281 3.558
4.662 4.288 3.514
4.598 4.304 3.477
4.535 4.32 3.441
4.462 4.325 3.399
4.404 4.344 3.366
4.341 4.357 3.33
4.277 4.367 3.293
4.21 4.374 3.254
4.152 4.388 3.22
0.507 0.474 1.121
0.497 0.471 1.115
0.493 0.475 1.113
0.484 0.473 1.108
0.481 0.478 1.106
0.476 0.48 1.103
0.467 0.478 1.098
0.464 0.482 1.096
0.455 0.48 1.091
0.45 0.482 1.088
0.447 0.486 1.086
0.437 0.482 1.081
0.435 0.487 1.079
0.431 0.491 1.077
0.423 0.488 1.073
0.42 0.493 1.071
0.416 0.496 1.069
0.413 0.501 1.067
0.403 0.495 1.061
0.4 0.498 1.059
0.397 0.504 1.058
0.394 0.508 1.056
0.387 0.506 1.052
0.382 0.507 1.049
0.377 0.508 1.046
0.37 0.506 1.042
0.362 0.502 1.037
0.362 0.511 1.037
0.358 0.514 1.035
0.354 0.517 1.033
0.346 0.512 1.028
0.342 0.513 1.026
0.338 0.516 1.023
0.335 0.521 1.022
0.327 0.515 1.017
0.322 0.516 1.014
0.319 0.519 1.012
0.315 0.523 1.01
0.308 0.519 1.006
0.304 0.519 1.004
0.305 0.533 1.004
0.296 0.524 0.999
0.292 0.526 0.997
0.289 0.532 0.995
0.284 0.531 0.992
0.28 0.533 0.99
0.276 0.535 0.988
0.272 0.537 0.985
0.266 0.535 0.982
0.263 0.541 0.981
0.259 0.542 0.978
0.252 0.536 0.974
0.251 0.546 0.973
0.244 0.538 0.969
0.24 0.54 0.967
0.236 0.544 0.965
0.233 0.546 0.963
0.228 0.547 0.96
0.222 0.54 0.957
0.22 0.55 0.955
0.214 0.546 0.952
0.21 0.547 0.95
0.206 0.547 0.947
0.202 0.551 0.945
0.198 0.552 0.943
0.194 0.555 0.941
0.19 0.558 0.938
0.184 0.549 0.935
0.181 0.558 0.933
0.176 0.552 0.93
0.171 0.552 0.928
0.167 0.554 0.925
0.163 0.554 0.923
0.16 0.564 0.921
0.156 0.565 0.919
0.15 0.556 0.916
0.147 0.566 0.914
0.143 0.567 0.911
0.139 0.566 0.909
0.134 0.566 0.906
0.13 0.565 0.904
0.126 0.573 0.902
0.122 0.572 0.899
0.117 0.57 0.896
0.114 0.58 0.894
0.109 0.572 0.892
0.105 0.582 0.889
0.1 0.571 0.887
0.096 0.58 0.884
0.092 0.578 0.882
0.087 0.575 0.879
0.083 0.578 0.877
0.079 0.575 0.874
0.074 0.58 0.872
0.074 -0.499 0.872
0.078 -0.508 0.874
0.082 -0.509 0.876
0.085 -0.508 0.879
0.089 -0.508 0.881
0.093 -0.508 0.883
0.097 -0.507 0.885
0.101 -0.508 0.887
0.105 -0.517 0.89
0.108 -0.507 0.892
0.113 -0.515 0.894
0.117 -0.515 0.897
0.121 -0.514 0.899
0.125 -0.514 0.901
0.129 -0.522 0.904
0.133 -0.521 0.906
0.137 -0.522 0.909
0.141 -0.521 0.911
0.145 -0.521 0.913
0.149 -0.521 0.916
0.153 -0.52 0.918
0.157 -0.517 0.92
0.162 -0.525 0.923
0.166 -0.524 0.925
0.17 -0.523 0.928
0.174 -0.522 0.93
0.178 -0.521 0.932
0.184 -0.528 0.936
0.188 -0.528 0.938
0.191 -0.526 0.94
0.196 -0.525 0.943
0.201 -0.532 0.946
0.207 -0.537 0.949
0.211 -0.537 0.952
0.215 -0.534 0.954
0.219 -0.533 0.956
0.224 -0.534 0.959
0.226 -0.524 0.96
0.84 -2.575 1.317
0.853 -2.545 1.325
0.86 -2.499 1.329
0.864 -2.445 1.331
0.873 -2.409 1.336
0.874 -2.349 1.337
0.883 -2.316 1.342
0.876 -2.24 1.338
0.889 -2.221 1.346
0.881 -2.148 1.341
0.774 -1.82 1.279
0.734 -1.676 1.256
0.751 -1.678 1.265
0.766 -1.677 1.274
0.779 -1.673 1.282
0.795 -1.673 1.291
0.808 -1.665 1.298
0.823 -1.664 1.307
0.84 -1.666 1.317
0.853 -1.659 1.324
0.869 -1.659 1.334
0.881 -1.65 1.341
0.901 -1.657 1.352
0.917 -1.656 1.362
0.936 -1.66 1.373
0.952 -1.658 1.382
0.973 -1.664 1.394
0.992 -1.667 1.406
1.012 -1.671 1.417
1.034 -1.677 1.429
1.053 -1.679 1.441
1.214 -1.918 1.534
1.255 -1.951 1.558
1.272 -1.943 1.568
1.286 -1.93 1.576
1.324 -1.953 1.598
1.627 -2.383 1.774
1.765 -2.548 1.854
1.797 -2.551 1.873
1.815 -2.531 1.883
1.811 -2.481 1.881
1.85 -2.492 1.904
2.252 -3.002 2.137
0 0 0
5.371 -7.048 3.95
2.409 -3.053 2.229
2.463 -3.068 2.26
5.576 -6.944 4.069
5.689 -6.965 4.135
2.611 -3.092 2.346
2.669 -3.108 2.38
5.965 -6.933 4.295
0 0 0
2.84 -3.144 2.479
2.881 -3.136 2.503
2.916 -3.12 2.523
3.012 -3.169 2.579
0 0 0
5.568 -5.721 4.064
0 0 0
3.307 -3.251 2.751
0 0 0
0 0 0
5.956 -5.608 4.29
0 0 0
6.189 -5.626 4.425
0 0 0
6.213 -5.448 4.439
5.7 -4.904 4.141
5.729 -4.839 4.158
4.065 -3.353 3.191
0 0 0
0 0 0
0 0 0
0 0 0
6.306 -4.771 4.493
0 0 0
0 0 0
6.331 -4.522 4.508
6.365 -4.458 4.527
5.239 -3.589 3.873
6.383 -4.298 4.538
6.399 -4.223 4.547
6.412 -4.147 4.555
6.406 -4.059 4.551
6.429 -3.991 4.565
6.445 -3.918 4.574
6.424 -3.823 4.562
6.464 -3.766 4.585
6.477 -3.692 4.592
6.485 -3.617 4.597
6.506 -3.548 4.609
6.502 -3.467 4.607
6.527 -3.401 4.622
6.53 -3.324 4.623
6.547 -3.255 4.633
6.55 -3.179 4.635
6.566 -3.11 4.644
6.575 -3.038 4.65
6.234 -2.806 4.451
6.056 -2.656 4.348
6.074 -2.595 4.358
6.086 -2.531 4.365
6.225 -2.519 4.446
6.545 -2.577 4.632
6.66 -2.549 4.699
6.67 -2.479 4.704
6.682 -2.41 4.711
6.691 -2.34 4.717
6.702 -2.271 4.723
6.712 -2.202 4.729
6.721 -2.132 4.734
6.183 -1.893 4.422
6.197 -1.832 4.43
6.205 -1.768 4.434
6.215 -1.705 4.44
6.464 -1.706 4.585
6.402 -1.622 4.549
6.463 -1.571 4.585
6.404 -1.489 4.55
6.462 -1.436 4.583
6.396 -1.355 4.545
6.459 -1.302 4.582
6.383 -1.221 4.538
6.454 -1.169 4.579
6.368 -1.088 4.529
6.443 -1.035 4.573
6.366 -0.958 4.528
6.439 -0.904 4.57
6.374 -0.83 4.533
6.411 -0.77 4.554
6.381 -0.702 4.537
6.423 -0.642 4.561
6.394 -0.575 4.544
6.405 -0.512 4.55
6.42 -0.449 4.559
6.423 -0.385 4.561
6.57 -0.328 4.646
7.026 -0.281 4.911
7.044 -0.211 4.922
7.044 -0.141 4.922
7.062 -0.071 4.933
7.07 -0 4.937
7.096 0.071 4.952
7.063 0.141 4.933
6.765 0.203 4.76
6.553 0.262 4.637
6.571 0.328 4.647
6.582 0.394 4.653
6.594 0.461 4.66
6.598 0.528 4.663
6.62 0.596 4.675
6.616 0.662 4.673
6.635 0.731 4.684
6.642 0.798 4.688
6.658 0.868 4.698
6.666 0.936 4.702
6.671 1.005 4.705
6.728 1.082 4.738
7.254 1.241 5.044
7.273 1.319 5.055
7.27 1.393 5.053
7.29 1.471 5.065
7.259 1.54 5.047
7.308 1.626 5.075
7.248 1.688 5.04
7.316 1.78 5.08
7.234 1.836 5.032
7.312 1.933 5.077
7.221 1.985 5.025
7.309 2.086 5.076
7.219 2.137 5.024
7.286 2.235 5.062
7.206 2.288 5.016
7.277 2.389 5.057
7.199 2.441 5.012
7.272 2.545 5.054
7.197 2.597 5.011
7.279 2.708 5.058
7.189 2.753 5.006
7.259 2.861 5.047
7.177 2.909 4.999
7.249 3.02 5.041
7.177 3.071 4.999
7.249 3.186 5.041
7.18 3.237 5.001
7.262 3.359 5.048
7.177 3.403 4.999
7.075 3.437 4.94
7.038 3.502 4.918
7.049 3.591 4.925
7.064 3.685 4.934
7.074 3.775 4.939
7.023 3.834 4.91
6.908 3.855 4.843
6.798 3.877 4.779
6.683 3.895 4.712
6.583 3.919 4.654
6.48 3.939 4.594
6.378 3.959 4.535
6.273 3.974 4.474
6.177 3.994 4.418
6.082 4.012 4.363
5.991 4.031 4.31
5.904 4.051 4.259
5.811 4.066 4.205
5.724 4.083 4.155
5.636 4.098 4.104
5.549 4.113 4.053
5.47 4.131 4.007
5.387 4.145 3.959
5.308 4.16 3.913
5.234 4.179 3.87
5.157 4.193 3.825
5.085 4.211 3.784
5.009 4.224 3.74
4.935 4.236 3.696
4.865 4.252 3.656
4.797 4.268 3.616
4.728 4.282 3.576
4.657 4.293 3.535
4.588 4.304 3.495
4.523 4.318 3.457
4.458 4.331 3.419
4.394 4.344 3.382
4.331 4.356 3.345
4.268 4.368 3.309
4.206 4.379 3.273
4.148 4.393 3.239
0.505 0.474 1.123
0.499 0.474 1.119
0.493 0.476 1.115
0.481 0.471 1.108
0.479 0.476 1.107
0.475 0.48 1.105
0.466 0.478 1.1
0.463 0.482 1.098
0.459 0.487 1.096
0.451 0.484 1.091
0.446 0.486 1.088
0.441 0.489 1.085
0.433 0.487 1.081
0.428 0.489 1.078
0.426 0.494 1.076
0.42 0.494 1.073
0.41 0.489 1.067
0.407 0.493 1.065
0.402 0.495 1.063
0.399 0.498 1.061
0.396 0.504 1.059
0.388 0.501 1.055
0.386 0.506 1.053
0.381 0.508 1.051
0.376 0.508 1.047
0.369 0.506 1.043
0.365 0.51 1.041
0.361 0.511 1.038
0.356 0.513 1.036
0.348 0.507 1.031
0.348 0.517 1.031
0.338 0.508 1.025
0.338 0.518 1.025
0.33 0.513 1.021
0.326 0.515 1.018
0.322 0.518 1.016
0.318 0.519 1.014
0.314 0.523 1.011
0.309 0.522 1.008
0.305 0.525 1.006
0.301 0.527 1.004
0.297 0.529 1.002
0.292 0.529 0.999
0.287 0.529 0.996
0.283 0.531 0.993
0.279 0.533 0.991
0.276 0.536 0.989
0.27 0.534 0.986
0.266 0.537 0.984
0.263 0.541 0.982
0.255 0.533 0.977
0.252 0.537 0.975
0.248 0.538 0.973
0.243 0.538 0.97
0.24 0.541 0.968
0.236 0.545 0.966
0.232 0.545 0.964
0.228 0.547 0.961
0.223 0.546 0.958
0.219 0.55 0.956
0.216 0.553 0.954
0.21 0.548 0.951
0.205 0.548 0.948
0.201 0.551 0.946
0.198 0.553 0.944
0.194 0.556 0.941
0.188 0.548 0.938
0.184 0.55 0.936
0.181 0.558 0.934
0.175 0.551 0.931
0.171 0.552 0.928
0.167 0.553 0.926
0.163 0.554 0.923
0.159 0.555 0.921
0.156 0.565 0.919
0.15 0.555 0.916
0.147 0.566 0.914
0.142 0.557 0.911
0.138 0.566 0.909
0.134 0.566 0.907
0.129 0.564 0.904
0.126 0.572 0.902
0.121 0.571 0.899
0.118 0.58 0.897
0.113 0.571 0.894
0.108 0.572 0.892
0.105 0.582 0.89
0.1 0.581 0.887
0.096 0.579 0.885
0.091 0.578 0.882
0.087 0.577 0.879
0.083 0.576 0.877
0.078 0.585 0.874
0.074 0.579 0.872
0.073 -0.508 0.872
0.077 -0.508 0.875
0.081 -0.508 0.877
0.085 -0.508 0.879
0.089 -0.508 0.881
0.092 -0.508 0.884
0.096 -0.507 0.886
0.101 -0.517 0.888
0.104 -0.516 0.891
0.108 -0.515 0.893
0.112 -0.515 0.895
0.116 -0.515 0.898
0.12 -0.514 0.9
0.124 -0.515 0.902
0.129 -0.522 0.905
0.132 -0.521 0.907
0.137 -0.522 0.91
0.14 -0.521 0.912
0.144 -0.521 0.914
0.148 -0.521 0.917
0.152 -0.52 0.919
0.156 -0.518 0.921
0.16 -0.516 0.923
0.165 -0.524 0.927
0.169 -0.522 0.929
0.173 -0.522 0.931
0.179 -0.529 0.935
0.183 -0.529 0.937
0.187 -0.528 0.939
0.191 -0.527 0.942
0.195 -0.525 0.944
0.2 -0.532 0.947
0.204 -0.53 0.95
0.21 -0.536 0.953
0.214 -0.534 0.955
0.22 -0.542 0.959
0.256 -0.653 0.98
0.224 -0.523 0.961
0.836 -2.572 1.323
0.848 -2.539 1.33
0.852 -2.485 1.332
0.854 -2.426 1.334
0.861 -2.384 1.338
0.865 -2.334 1.34
0.869 -2.287 1.343
0.859 -2.203 1.337
0.861 -2.154 1.338
0.875 -2.142 1.346
0.783 -1.852 1.292
0.726 -1.663 1.258
0.746 -1.675 1.27
0.762 -1.676 1.279
0.776 -1.673 1.287
0.791 -1.673 1.297
0.804 -1.665 1.304
0.82 -1.665 1.313
0.832 -1.657 1.321
0.849 -1.659 1.331
0.866 -1.66 1.34
0.878 -1.651 1.348
0.893 -1.649 1.357
0.913 -1.656 1.369
0.933 -1.661 1.38
0.947 -1.657 1.389
0.968 -1.662 1.401
0.987 -1.667 1.412
1.008 -1.672 1.425
1.026 -1.672 1.435
1.043 -1.67 1.445
1.216 -1.931 1.547
1.252 -1.955 1.569
1.268 -1.946 1.578
1.286 -1.938 1.589
1.333 -1.977 1.616
1.631 -2.401 1.793
1.922 -2.798 1.965
2.059 -2.953 2.046
1.773 -2.482 1.877
1.802 -2.479 1.894
1.902 -2.576 1.953
2.256 -3.021 2.162
5.816 -7.81 4.266
2.35 -3.042 2.218
2.395 -3.048 2.244
2.442 -3.056 2.272
5.555 -6.948 4.111
2.543 -3.076 2.332
2.598 -3.09 2.364
2.654 -3.104 2.397
2.699 -3.103 2.424
2.764 -3.125 2.462
0 0 0
2.875 -3.142 2.527
2.899 -3.115 2.542
2.995 -3.164 2.599
0 0 0
3.127 -3.193 2.676
5.575 -5.653 4.123
5.583 -5.563 4.128
0 0 0
5.813 -5.594 4.263
0 0 0
0 0 0
0 0 0
0 0 0
6.197 -5.458 4.491
0 0 0
5.703 -4.839 4.199
4.056 -3.361 3.226
4.105 -3.34 3.255
0 0 0
0 0 0
0 0 0
0 0 0
6.286 -4.686 4.543
6.313 -4.617 4.559
6.318 -4.532 4.562
6.344 -4.463 4.577
5.23 -3.599 3.919
5.26 -3.549 3.937
6.371 -4.223 4.594
6.392 -4.152 4.606
6.405 -4.077 4.614
6.415 -4 4.62
6.422 -3.921 4.624
6.406 -3.829 4.614
6.444 -3.77 4.637
6.456 -3.696 4.644
6.466 -3.621 4.649
6.484 -3.552 4.66
6.489 -3.475 4.663
6.507 -3.405 4.674
6.511 -3.329 4.676
6.528 -3.26 4.686
6.529 -3.183 4.687
6.546 -3.114 4.697
6.554 -3.041 4.702
6.387 -2.889 4.603
6.044 -2.662 4.401
6.055 -2.597 4.407
6.062 -2.532 4.411
6.171 -2.508 4.476
6.512 -2.575 4.677
6.64 -2.552 4.752
6.649 -2.482 4.758
6.66 -2.412 4.764
6.671 -2.343 4.771
6.688 -2.276 4.781
6.697 -2.206 4.786
6.708 -2.137 4.793
6.172 -1.898 4.476
6.178 -1.834 4.479
6.185 -1.77 4.484
6.2 -1.708 4.492
6.32 -1.675 4.563
6.254 -1.591 4.524
6.312 -1.54 4.559
6.251 -1.46 4.522
6.293 -1.404 4.548
6.267 -1.333 4.532
6.294 -1.274 4.548
6.275 -1.206 4.537
6.291 -1.144 4.546
6.297 -1.08 4.55
6.31 -1.018 4.557
6.32 -0.955 4.563
6.33 -0.892 4.569
6.343 -0.83 4.577
6.341 -0.765 4.576
6.354 -0.702 4.584
6.369 -0.64 4.592
6.378 -0.576 4.597
6.382 -0.512 4.6
6.401 -0.45 4.611
6.404 -0.385 4.613
6.541 -0.328 4.694
7.007 -0.281 4.969
7.022 -0.211 4.978
7.031 -0.141 4.984
7.048 -0.071 4.993
7.056 -0 4.998
7.07 0.071 5.006
7.044 0.141 4.991
6.741 0.203 4.812
6.544 0.262 4.696
6.554 0.329 4.702
6.558 0.395 4.704
6.579 0.462 4.717
6.578 0.528 4.716
6.601 0.597 4.729
6.605 0.664 4.731
6.616 0.732 4.738
6.622 0.799 4.742
6.635 0.868 4.75
6.643 0.937 4.754
6.655 1.006 4.761
6.74 1.088 4.811
7.093 1.219 5.02
7.167 1.305 5.064
7.086 1.363 5.016
7.162 1.452 5.061
7.089 1.51 5.017
7.147 1.597 5.052
7.066 1.653 5.004
7.133 1.743 5.044
7.062 1.799 5.002
7.127 1.892 5.04
7.053 1.946 4.996
7.113 2.039 5.032
7.058 2.098 5
7.115 2.191 5.033
7.036 2.243 4.986
7.1 2.34 5.024
7.031 2.394 4.983
7.093 2.493 5.02
7.03 2.548 4.983
7.098 2.651 5.023
7.03 2.703 4.983
7.085 2.804 5.016
7.027 2.86 4.981
7.074 2.96 5.009
7.012 3.013 4.972
7.07 3.12 5.007
7.008 3.173 4.97
7.073 3.285 5.008
7.032 3.348 4.984
7.039 3.435 4.988
7.002 3.499 4.966
7.032 3.598 4.984
7.021 3.677 4.977
7.048 3.778 4.994
6.986 3.83 4.957
6.878 3.855 4.893
6.769 3.877 4.829
6.66 3.898 4.764
6.555 3.919 4.702
6.457 3.943 4.644
6.351 3.959 4.582
6.252 3.978 4.523
6.153 3.995 4.464
6.064 4.017 4.412
5.97 4.034 4.357
5.878 4.051 4.302
5.793 4.071 4.252
5.699 4.083 4.196
5.619 4.103 4.149
5.532 4.117 4.098
5.446 4.131 4.047
5.369 4.149 4.002
5.292 4.166 3.956
5.211 4.179 3.908
5.134 4.193 3.863
5.064 4.211 3.821
4.988 4.224 3.777
4.92 4.242 3.736
4.845 4.253 3.692
4.776 4.268 3.651
4.708 4.282 3.611
4.637 4.293 3.569
4.568 4.304 3.528
4.509 4.323 3.493
4.439 4.331 3.452
4.375 4.344 3.414
4.313 4.357 3.377
4.256 4.374 3.344
4.194 4.385 3.307
4.129 4.393 3.269
0.496 0.466 1.122
0.497 0.475 1.123
0.49 0.475 1.118
0.485 0.478 1.116
0.475 0.475 1.11
0.472 0.48 1.108
0.469 0.484 1.106
0.459 0.48 1.1
0.457 0.486 1.099
0.448 0.483 1.094
0.444 0.486 1.091
0.439 0.488 1.088
0.431 0.487 1.084
0.431 0.496 1.084
0.425 0.495 1.08
0.417 0.493 1.076
0.414 0.497 1.073
0.411 0.502 1.072
0.401 0.496 1.066
0.398 0.5 1.064
0.393 0.502 1.061
0.387 0.501 1.057
0.383 0.505 1.056
0.375 0.5 1.05
0.376 0.511 1.051
0.368 0.507 1.046
0.364 0.51 1.044
0.36 0.512 1.042
0.356 0.514 1.039
0.351 0.516 1.036
0.346 0.516 1.033
0.34 0.516 1.03
0.336 0.519 1.028
0.333 0.521 1.026
0.324 0.515 1.021
0.321 0.52 1.019
0.315 0.517 1.015
0.313 0.523 1.014
0.311 0.53 1.013
0.304 0.525 1.008
0.302 0.532 1.007
0.296 0.529 1.004
0.291 0.53 1.001
0.287 0.531 0.998
0.283 0.534 0.996
0.275 0.526 0.992
0.273 0.533 0.99
0.269 0.536 0.988
0.264 0.536 0.985
0.261 0.539 0.983
0.257 0.542 0.981
0.25 0.536 0.977
0.247 0.539 0.975
0.245 0.548 0.974
0.239 0.543 0.97
0.235 0.544 0.968
0.231 0.546 0.965
0.224 0.539 0.962
0.222 0.546 0.96
0.218 0.551 0.958
0.214 0.551 0.955
0.209 0.548 0.952
0.204 0.548 0.95
0.201 0.552 0.948
0.197 0.554 0.945
0.193 0.556 0.943
0.187 0.548 0.939
0.183 0.55 0.937
0.178 0.551 0.934
0.176 0.56 0.933
0.17 0.553 0.93
0.166 0.555 0.927
0.162 0.554 0.925
0.158 0.555 0.922
0.154 0.556 0.92
0.149 0.556 0.917
0.146 0.566 0.915
0.142 0.566 0.913
0.138 0.566 0.91
0.133 0.566 0.908
0.129 0.565 0.905
0.125 0.572 0.903
0.121 0.572 0.9
0.116 0.57 0.898
0.113 0.579 0.896
0.108 0.581 0.893
0.104 0.582 0.89
0.099 0.578 0.888
0.095 0.577 0.885
0.091 0.578 0.883
0.086 0.574 0.88
0.082 0.575 0.877
0.078 0.585 0.875
0.073 0.579 0.872
0.073 -0.508 0.873
0.077 -0.509 0.875
0.08 -0.509 0.878
0.084 -0.508 0.88
0.088 -0.508 0.882
0.092 -0.508 0.884
0.096 -0.507 0.887
0.099 -0.508 0.889
0.104 -0.517 0.892
0.108 -0.516 0.894
0.112 -0.516 0.896
0.115 -0.515 0.898
0.119 -0.514 0.901
0.124 -0.523 0.904
0.128 -0.522 0.906
0.132 -0.521 0.908
0.136 -0.521 0.911
0.14 -0.521 0.913
0.144 -0.521 0.915
0.148 -0.521 0.918
0.151 -0.52 0.92
0.155 -0.518 0.922
0.16 -0.525 0.926
0.164 -0.524 0.928
0.168 -0.523 0.93
0.172 -0.521 0.932
0.178 -0.529 0.936
0.182 -0.529 0.938
0.186 -0.528 0.941
0.19 -0.527 0.943
0.194 -0.525 0.945
0.199 -0.532 0.949
0.203 -0.53 0.951
0.209 -0.536 0.955
0.213 -0.534 0.957
0.219 -0.542 0.961
0.255 -0.653 0.982
0.221 -0.516 0.962
0.832 -2.574 1.329
0.836 -2.516 1.332
0.845 -2.474 1.337
0.846 -2.414 1.338
0.853 -2.37 1.342
0.855 -2.318 1.343
0.855 -2.258 1.343
0.831 -2.137 1.329
0.85 -2.136 1.34
0.873 -2.147 1.354
0.857 -2.055 1.344
0.756 -1.75 1.284
0.743 -1.677 1.276
0.757 -1.674 1.284
0.772 -1.673 1.293
0.788 -1.673 1.303
0.8 -1.665 1.31
0.812 -1.656 1.317
0.828 -1.657 1.327
0.845 -1.659 1.337
0.857 -1.65 1.344
0.873 -1.65 1.354
0.893 -1.658 1.366
0.908 -1.655 1.375
0.923 -1.651 1.384
0.943 -1.657 1.396
0.962 -1.66 1.407
0.982 -1.666 1.42
0.999 -1.665 1.43
1.021 -1.671 1.443
1.04 -1.672 1.454
1.215 -1.939 1.56
1.248 -1.958 1.579
1.262 -1.946 1.588
1.28 -1.939 1.599
1.367 -2.041 1.651
1.606 -2.374 1.794
2.006 -2.939 2.035
2.048 -2.95 2.06
1.779 -2.503 1.899
1.779 -2.458 1.898
2.208 -3.022 2.156
5.677 -7.793 4.242
2.293 -3.033 2.208
2.342 -3.045 2.237
2.393 -3.059 2.267
5.411 -6.917 4.082
2.485 -3.071 2.323
2.526 -3.069 2.348
5.754 -6.985 4.288
5.875 -7.011 4.361
2.691 -3.109 2.447
2.74 -3.112 2.476
0 0 0
2.869 -3.151 2.554
2.885 -3.113 2.563
5.996 -6.445 4.434
3.044 -3.177 2.659
0 0 0
3.19 -3.218 2.747
3.255 -3.228 2.786
5.65 -5.557 4.225
0 0 0
0 0 0
6.02 -5.619 4.448
0 0 0
6.149 -5.539 4.525
0 0 0
5.677 -4.928 4.242
0 0 0
4.039 -3.362 3.257
4.075 -3.33 3.278
0 0 0
0 0 0
0 0 0
6.259 -4.778 4.592
0 0 0
6.305 -4.633 4.619
6.311 -4.548 4.622
6.325 -4.47 4.631
5.215 -3.605 3.964
5.243 -3.553 3.981
6.348 -4.227 4.645
6.374 -4.16 4.66
6.386 -4.083 4.668
6.401 -4.009 4.676
6.402 -3.926 4.677
6.388 -3.836 4.669
6.422 -3.774 4.689
