# .PCD v0.7 - Point Cloud Data file format
VERSION 0.7
FIELDS x y z
SIZE 4 4 4
TYPE F F F
COUNT 1 1 1
WIDTH 2498
HEIGHT 1
VIEWPOINT 0 0 0 1 0 0 0
POINTS 2498
DATA ascii
0.874 -0.798 1.591
0.802 -0.714 1.528
0.881 -0.776 1.598
0.88 -0.761 1.597
0.93 -0.792 1.64
0.949 -0.794 1.656
0.958 -0.787 1.663
0.964 -0.778 1.669
0.975 -0.772 1.678
0.977 -0.759 1.68
0.993 -0.758 1.694
0.997 -0.746 1.698
1.008 -0.74 1.707
1.012 -0.728 1.711
1.016 -0.716 1.714
1.028 -0.711 1.724
1.042 -0.707 1.737
4.143 -2.874 4.426
4.117 -2.796 4.403
4.147 -2.757 4.43
4.113 -2.675 4.4
4.147 -2.639 4.429
4.131 -2.571 4.415
4.156 -2.529 4.438
4.121 -2.45 4.407
4.146 -2.409 4.429
4.109 -2.331 4.397
4.134 -2.289 4.418
4.112 -2.222 4.399
4.141 -2.183 4.424
4.111 -2.113 4.399
4.134 -2.071 4.419
4.113 -2.006 4.4
4.129 -1.961 4.414
4.105 -1.896 4.393
4.129 -1.855 4.414
4.106 -1.792 4.394
4.127 -1.749 4.412
4.106 -1.689 4.394
4.13 -1.648 4.415
4.106 -1.587 4.394
4.13 -1.545 4.415
4.11 -1.487 4.397
4.133 -1.445 4.417
4.101 -1.384 4.39
4.131 -1.344 4.415
4.098 -1.283 4.387
4.121 -1.241 4.407
4.096 -1.185 4.385
4.124 -1.144 4.409
4.096 -1.087 4.385
4.124 -1.046 4.409
4.096 -0.99 4.385
4.124 -0.949 4.409
4.097 -0.894 4.386
4.123 -0.852 4.408
4.096 -0.799 4.385
4.12 -0.755 4.406
4.093 -0.703 4.382
4.112 -0.659 4.399
4.089 -0.608 4.379
4.113 -0.564 4.4
4.088 -0.513 4.378
4.113 -0.47 4.4
4.087 -0.42 4.377
4.111 -0.375 4.398
4.092 -0.326 4.382
4.112 -0.281 4.399
4.089 -0.233 4.379
4.111 -0.187 4.398
4.091 -0.14 4.38
4.112 -0.094 4.399
4.086 -0.047 4.376
4.114 -0 4.401
4.09 0.047 4.38
4.114 0.094 4.401
4.089 0.14 4.379
4.117 0.188 4.404
4.096 0.233 4.386
4.12 0.282 4.406
4.086 0.326 4.376
4.116 0.375 4.403
4.093 0.42 4.383
4.107 0.469 4.395
4.094 0.514 4.383
4.112 0.564 4.399
4.086 0.607 4.376
4.11 0.658 4.397
4.085 0.702 4.376
4.11 0.753 4.397
4.09 0.797 4.38
4.11 0.849 4.397
4.093 0.894 4.383
4.109 0.945 4.396
4.097 0.991 4.386
4.112 1.043 4.399
4.086 1.084 4.376
4.107 1.139 4.394
4.078 1.179 4.37
4.098 1.234 4.387
4.076 1.276 4.368
4.095 1.332 4.385
4.073 1.374 4.365
4.092 1.43 4.381
4.067 1.471 4.36
4.043 1.512 4.339
3.98 1.537 4.285
3.901 1.555 4.216
3.84 1.578 4.163
3.772 1.597 4.104
3.712 1.618 4.052
0 0 0
1.072 0.475 1.763
1.052 0.478 1.746
1.043 0.487 1.737
1.019 0.488 1.717
1.014 0.498 1.712
0.997 0.502 1.698
0.981 0.506 1.684
0.976 0.515 1.68
0.96 0.518 1.665
0.948 0.524 1.655
0.937 0.53 1.646
0.922 0.532 1.633
0.913 0.539 1.625
0.902 0.544 1.615
0.891 0.549 1.606
0.888 0.559 1.604
0.877 0.563 1.593
0.872 0.572 1.589
0.864 0.578 1.582
0.853 0.583 1.573
0.848 0.591 1.569
0.839 0.596 1.561
0.842 0.611 1.564
0.854 0.632 1.573
2.526 2.001 3.023
2.489 2.009 2.991
2.457 2.022 2.964
2.421 2.03 2.932
2.383 2.036 2.9
2.347 2.043 2.869
2.322 2.059 2.847
2.291 2.069 2.82
2.259 2.077 2.792
2.228 2.085 2.765
2.202 2.099 2.743
2.172 2.108 2.717
2.141 2.115 2.69
2.111 2.122 2.663
2.086 2.134 2.642
2.061 2.145 2.62
0.653 0.648 1.4
0.655 0.662 1.401
0.601 0.613 1.355
0.588 0.608 1.343
0.579 0.609 1.335
0.573 0.613 1.33
0.569 0.618 1.326
0.508 0.554 1.273
0.505 0.56 1.271
0.506 0.572 1.272
0.503 0.577 1.269
0.504 0.589 1.27
0.5 0.594 1.267
0.506 0.613 1.272
0.497 0.611 1.264
0.483 0.601 1.252
0.473 0.598 1.243
0.468 0.6 1.239
0.462 0.603 1.234
0.454 0.601 1.227
0.447 0.601 1.221
0.444 0.607 1.218
0.435 0.604 1.211
0.431 0.609 1.207
0.423 0.606 1.2
0.42 0.611 1.197
0.416 0.615 1.194
0.407 0.611 1.186
0.403 0.615 1.183
0.399 0.619 1.179
0.395 0.624 1.176
0.385 0.615 1.167
0.383 0.623 1.165
0.376 0.623 1.16
0.373 0.627 1.156
0.364 0.622 1.149
0.36 0.626 1.146
0.356 0.629 1.142
0.356 0.641 1.142
0.348 0.636 1.135
0.344 0.639 1.131
0.335 0.633 1.124
0.331 0.636 1.12
0.327 0.639 1.117
0.323 0.642 1.113
0.319 0.646 1.11
0.311 0.64 1.103
0.31 0.651 1.102
0.302 0.645 1.095
0.298 0.648 1.091
0.294 0.651 1.088
0.289 0.653 1.084
0.285 0.657 1.081
0.278 0.651 1.074
0.274 0.653 1.07
0.269 0.655 1.067
0.265 0.659 1.063
0.261 0.661 1.059
0.257 0.663 1.056
0.252 0.666 1.052
0.248 0.668 1.048
0.243 0.669 1.044
0.239 0.671 1.04
0.234 0.672 1.036
0.23 0.675 1.032
0.225 0.676 1.028
0.22 0.677 1.024
0.216 0.68 1.021
0.21 0.673 1.015
0.207 0.683 1.013
0.201 0.676 1.007
0.197 0.679 1.004
0.192 0.681 1
0.188 0.682 0.996
0.183 0.684 0.992
0.178 0.684 0.988
0.174 0.686 0.984
0.17 0.688 0.98
0.165 0.689 0.976
0.162 0.698 0.973
0.156 0.691 0.968
0.151 0.692 0.964
0.147 0.693 0.96
0.142 0.694 0.956
0.138 0.695 0.952
0.133 0.696 0.949
0.129 0.706 0.945
0.125 0.707 0.941
0.12 0.707 0.937
0.115 0.707 0.933
0.111 0.707 0.929
0.106 0.707 0.925
0.102 0.717 0.921
0.097 0.716 0.917
0.092 0.718 0.913
0.088 0.718 0.909
0.083 0.718 0.905
0.078 0.719 0.901
0.073 0.719 0.897
0.069 0.728 0.893
0.064 0.72 0.889
0.059 0.721 0.884
0.059 -0.355 0.885
0.061 -0.356 0.887
0.063 -0.364 0.889
0.066 -0.357 0.891
0.068 -0.365 0.893
0.07 -0.362 0.895
0.073 -0.37 0.898
0.075 -0.364 0.9
0.078 -0.365 0.902
0.08 -0.363 0.904
0.082 -0.364 0.906
0.086 -0.373 0.909
0.087 -0.365 0.91
0.091 -0.374 0.913
0.093 -0.37 0.915
0.095 -0.372 0.917
0.098 -0.375 0.92
0.101 -0.377 0.922
0.103 -0.375 0.924
0.106 -0.375 0.926
0.108 -0.374 0.928
0.11 -0.369 0.93
0.113 -0.376 0.933
0.117 -0.381 0.936
0.119 -0.377 0.938
0.121 -0.375 0.94
0.123 -0.374 0.942
0.127 -0.381 0.945
0.13 -0.383 0.948
0.131 -0.374 0.949
0.136 -0.384 0.953
0.138 -0.381 0.955
0.14 -0.38 0.957
0.143 -0.382 0.96
0.148 -0.388 0.963
0.149 -0.381 0.964
0.152 -0.381 0.967
0.156 -0.388 0.971
0.158 -0.386 0.973
0.164 -0.395 0.977
0.166 -0.394 0.98
0.167 -0.385 0.98
0.172 -0.394 0.985
0.175 -0.393 0.987
0.178 -0.395 0.99
0.181 -0.394 0.993
0.186 -0.401 0.997
0.189 -0.401 1
0.191 -0.397 1.002
0.195 -0.399 1.005
0.198 -0.4 1.008
0.203 -0.403 1.012
0.205 -0.401 1.014
0.209 -0.401 1.017
0.214 -0.407 1.022
0.217 -0.405 1.024
0.219 -0.403 1.026
0.224 -0.405 1.03
0.23 -0.411 1.035
0.231 -0.406 1.036
0.238 -0.413 1.042
0.244 -0.419 1.048
0.243 -0.409 1.047
0.249 -0.414 1.052
0.255 -0.419 1.058
0.259 -0.42 1.062
0.261 -0.416 1.063
0.267 -0.42 1.069
0.27 -0.418 1.071
0.276 -0.422 1.076
0.279 -0.42 1.079
0.286 -0.424 1.085
0.288 -0.421 1.087
0.296 -0.427 1.094
0.301 -0.428 1.098
0.304 -0.426 1.101
0.312 -0.432 1.108
0.324 -0.445 1.119
0.394 -0.552 1.18
0.446 -0.627 1.226
0.456 -0.63 1.234
0.462 -0.629 1.24
0.473 -0.635 1.25
0.484 -0.641 1.26
0.489 -0.637 1.264
0.489 -0.626 1.264
0.49 -0.616 1.264
0.495 -0.613 1.269
0.499 -0.608 1.273
0.513 -0.616 1.285
0.525 -0.622 1.295
0.621 -0.737 1.38
0.624 -0.727 1.382
0.63 -0.722 1.388
0.629 -0.709 1.387
0.637 -0.707 1.394
0.645 -0.703 1.401
0.654 -0.702 1.409
0.66 -0.696 1.414
0.664 -0.689 1.418
0.679 -0.694 1.431
0.698 -0.702 1.448
0.854 -0.858 1.585
0.869 -0.858 1.598
0.816 -0.789 1.552
0.855 -0.814 1.586
0.87 -0.815 1.599
0.799 -0.73 1.536
0.803 -0.72 1.54
0.894 -0.794 1.62
0.871 -0.758 1.6
0.925 -0.793 1.647
0.943 -0.795 1.663
0.956 -0.791 1.675
0.96 -0.78 1.678
0.97 -0.773 1.687
0.978 -0.765 1.694
0.988 -0.759 1.703
0.992 -0.747 1.706
1.002 -0.74 1.715
1.013 -0.734 1.725
1.016 -0.722 1.728
1.02 -0.71 1.731
1.032 -0.704 1.741
4.068 -2.84 4.413
4.047 -2.766 4.395
4.07 -2.723 4.415
4.034 -2.641 4.384
4.076 -2.61 4.42
4.039 -2.529 4.388
4.064 -2.488 4.41
4.039 -2.416 4.388
4.062 -2.375 4.408
4.041 -2.307 4.39
4.058 -2.262 4.405
4.037 -2.195 4.386
4.071 -2.16 4.416
4.04 -2.089 4.389
4.062 -2.047 4.409
4.038 -1.982 4.387
4.056 -1.938 4.403
4.033 -1.875 4.382
4.056 -1.834 4.403
4.032 -1.771 4.381
4.054 -1.73 4.402
4.034 -1.67 4.384
4.058 -1.629 4.405
4.035 -1.569 4.385
4.056 -1.527 4.402
4.028 -1.467 4.379
4.051 -1.425 4.398
4.028 -1.368 4.378
4.052 -1.326 4.399
4.025 -1.269 4.376
4.048 -1.227 4.396
4.024 -1.171 4.375
4.043 -1.128 4.391
4.026 -1.075 4.376
4.045 -1.032 4.393
4.025 -0.979 4.376
4.053 -0.938 4.4
4.02 -0.883 4.371
4.05 -0.842 4.397
4.021 -0.789 4.372
4.04 -0.745 4.389
4.018 -0.694 4.369
4.037 -0.651 4.386
4.013 -0.6 4.365
4.039 -0.557 4.388
4.014 -0.507 4.366
4.037 -0.464 4.386
4.014 -0.415 4.366
4.042 -0.371 4.391
4.018 -0.323 4.369
4.034 -0.278 4.384
4.024 -0.231 4.374
4.035 -0.185 4.385
4.02 -0.138 4.371
4.036 -0.092 4.385
4.011 -0.046 4.364
4.036 -0 4.385
4.009 0.046 4.362
4.038 0.093 4.387
4.016 0.138 4.367
4.029 0.185 4.379
4.02 0.23 4.371
4.039 0.278 4.388
4.022 0.323 4.373
4.039 0.371 4.388
4.017 0.415 4.369
4.043 0.464 4.391
4.019 0.508 4.37
4.036 0.557 4.386
4.018 0.601 4.369
4.035 0.65 4.385
4.011 0.693 4.363
4.04 0.745 4.389
4.014 0.788 4.366
4.038 0.84 4.387
4.019 0.883 4.37
4.04 0.935 4.388
4.013 0.976 4.365
4.043 1.032 4.391
4.015 1.072 4.367
4.029 1.124 4.379
4.007 1.166 4.36
4.027 1.221 4.378
4 1.26 4.353
4.021 1.316 4.372
4.004 1.359 4.357
4.019 1.414 4.37
3.995 1.454 4.349
4.015 1.511 4.367
3.958 1.539 4.317
3.883 1.558 4.251
3.821 1.58 4.196
3.751 1.598 4.135
3.694 1.62 4.084
0 0 0
1.062 0.473 1.768
1.048 0.48 1.755
1.03 0.484 1.739
1.012 0.488 1.724
1.004 0.496 1.717
0.993 0.503 1.707
0.977 0.507 1.694
0.966 0.513 1.683
0.951 0.517 1.67
0.942 0.524 1.662
0.921 0.523 1.644
0.915 0.532 1.639
0.902 0.536 1.627
0.893 0.542 1.619
0.897 0.557 1.623
0.88 0.558 1.608
0.871 0.563 1.6
0.868 0.573 1.597
0.855 0.576 1.586
0.854 0.588 1.585
0.844 0.592 1.576
0.838 0.6 1.571
0.842 0.615 1.574
2.537 1.983 3.066
2.509 2.001 3.042
2.466 2.004 3.003
2.441 2.022 2.982
2.405 2.03 2.95
2.374 2.042 2.923
2.338 2.048 2.891
2.308 2.059 2.865
2.277 2.069 2.837
2.244 2.077 2.808
2.219 2.091 2.787
2.189 2.1 2.76
2.158 2.108 2.733
2.127 2.114 2.705
2.102 2.127 2.684
2.072 2.134 2.657
2.047 2.145 2.635
2.02 2.154 2.611
0.644 0.654 1.4
0.642 0.664 1.398
0.585 0.61 1.349
0.574 0.607 1.338
0.571 0.614 1.336
0.562 0.614 1.328
0.535 0.591 1.304
0.496 0.553 1.27
0.499 0.566 1.272
0.497 0.573 1.27
0.498 0.585 1.271
0.497 0.594 1.271
0.5 0.609 1.273
0.5 0.619 1.273
0.485 0.608 1.26
0.478 0.61 1.254
0.463 0.599 1.241
0.457 0.601 1.236
0.453 0.605 1.232
0.445 0.602 1.225
0.441 0.607 1.221
0.432 0.604 1.214
0.429 0.609 1.211
0.42 0.606 1.203
0.417 0.611 1.2
0.413 0.615 1.197
0.409 0.619 1.193
0.4 0.615 1.185
0.396 0.619 1.182
0.392 0.623 1.178
0.384 0.62 1.172
0.378 0.62 1.166
0.374 0.623 1.162
0.37 0.626 1.159
0.362 0.622 1.152
0.362 0.634 1.152
0.354 0.629 1.145
0.35 0.633 1.141
0.345 0.636 1.137
0.341 0.638 1.133
0.337 0.643 1.13
0.329 0.636 1.123
0.325 0.639 1.119
0.32 0.642 1.115
0.316 0.645 1.112
0.312 0.648 1.108
0.305 0.643 1.101
0.301 0.647 1.098
0.299 0.657 1.097
0.292 0.652 1.09
0.288 0.654 1.086
0.283 0.657 1.083
0.276 0.651 1.076
0.272 0.654 1.073
0.268 0.656 1.069
0.263 0.658 1.065
0.259 0.66 1.061
0.255 0.663 1.057
0.25 0.666 1.054
0.246 0.668 1.05
0.242 0.67 1.046
0.237 0.671 1.042
0.233 0.673 1.038
0.228 0.674 1.034
0.223 0.676 1.03
0.219 0.678 1.026
0.214 0.679 1.022
0.21 0.682 1.018
0.204 0.676 1.013
0.199 0.676 1.009
0.195 0.679 1.005
0.191 0.681 1.001
0.186 0.681 0.997
0.183 0.692 0.995
0.177 0.685 0.989
0.173 0.685 0.985
0.168 0.689 0.982
0.164 0.689 0.977
0.161 0.699 0.975
0.156 0.7 0.971
0.15 0.692 0.965
0.146 0.692 0.961
0.142 0.702 0.958
0.136 0.694 0.953
0.132 0.696 0.949
0.128 0.706 0.946
0.123 0.698 0.941
0.119 0.706 0.938
0.114 0.706 0.934
0.11 0.707 0.93
0.105 0.707 0.926
0.1 0.708 0.922
0.096 0.717 0.918
0.092 0.719 0.914
0.087 0.718 0.91
0.082 0.718 0.906
0.078 0.728 0.902
0.073 0.718 0.897
0.068 0.728 0.893
0.063 0.73 0.889
0.059 0.721 0.885
0.058 -0.364 0.885
0.06 -0.367 0.887
0.063 -0.364 0.889
0.065 -0.366 0.892
0.067 -0.366 0.894
0.07 -0.362 0.896
0.072 -0.369 0.898
0.074 -0.362 0.9
0.077 -0.363 0.902
0.08 -0.372 0.905
0.082 -0.371 0.907
0.084 -0.363 0.909
0.087 -0.366 0.911
0.09 -0.373 0.914
0.093 -0.379 0.916
0.094 -0.372 0.918
0.097 -0.373 0.92
0.099 -0.367 0.922
0.102 -0.375 0.925
0.105 -0.375 0.927
0.107 -0.374 0.929
0.109 -0.371 0.931
0.113 -0.377 0.934
0.115 -0.379 0.937
0.118 -0.377 0.939
0.12 -0.376 0.941
0.124 -0.383 0.944
0.126 -0.38 0.946
0.129 -0.381 0.949
0.132 -0.382 0.951
0.134 -0.381 0.953
0.136 -0.38 0.955
0.139 -0.381 0.958
0.142 -0.38 0.96
0.145 -0.381 0.963
0.148 -0.382 0.966
0.152 -0.388 0.969
0.155 -0.388 0.972
0.156 -0.38 0.972
0.16 -0.386 0.976
0.163 -0.385 0.979
0.165 -0.384 0.981
0.169 -0.388 0.985
0.174 -0.394 0.989
0.177 -0.396 0.992
0.18 -0.394 0.994
0.183 -0.394 0.997
0.188 -0.4 1.001
0.19 -0.397 1.003
0.193 -0.398 1.006
0.197 -0.4 1.009
0.202 -0.404 1.014
0.204 -0.403 1.016
0.207 -0.401 1.018
0.212 -0.405 1.023
0.215 -0.405 1.026
0.218 -0.404 1.028
0.221 -0.403 1.031
0.227 -0.408 1.036
0.233 -0.414 1.041
0.236 -0.413 1.044
0.238 -0.411 1.047
0.245 -0.417 1.052
0.248 -0.415 1.055
0.25 -0.413 1.057
0.257 -0.418 1.063
0.262 -0.422 1.068
0.265 -0.419 1.07
0.271 -0.424 1.076
0.274 -0.422 1.078
0.277 -0.419 1.081
0.28 -0.417 1.083
0.287 -0.422 1.09
0.294 -0.427 1.096
0.298 -0.426 1.099
0.301 -0.424 1.102
0.308 -0.429 1.108
0.315 -0.434 1.115
0.379 -0.531 1.172
0.438 -0.619 1.225
0.452 -0.63 1.238
0.461 -0.633 1.245
0.467 -0.632 1.251
0.478 -0.637 1.261
0.482 -0.632 1.264
0.478 -0.614 1.26
0.48 -0.606 1.262
0.487 -0.606 1.268
0.495 -0.607 1.276
0.51 -0.616 1.289
0.567 -0.683 1.34
0.618 -0.737 1.385
0.619 -0.727 1.386
0.624 -0.721 1.391
0.63 -0.715 1.396
0.632 -0.705 1.398
0.64 -0.703 1.406
0.643 -0.694 1.408
0.657 -0.698 1.42
0.666 -0.697 1.429
0.68 -0.699 1.44
0.693 -0.702 1.453
0.832 -0.84 1.576
0.846 -0.84 1.589
0.783 -0.76 1.533
0.875 -0.841 1.615
0.848 -0.799 1.591
0.784 -0.72 1.534
0.828 -0.75 1.573
0.856 -0.763 1.598
0.842 -0.736 1.586
0.931 -0.804 1.665
0.936 -0.794 1.669
0.945 -0.788 1.678
0.959 -0.785 1.69
0.962 -0.772 1.693
0.974 -0.767 1.703
0.977 -0.756 1.707
0.987 -0.748 1.715
0.995 -0.74 1.722
1.005 -0.733 1.732
1.012 -0.723 1.737
1.02 -0.715 1.745
1.032 -0.709 1.755
3.999 -2.809 4.405
3.979 -2.737 4.387
3.993 -2.689 4.4
3.976 -2.619 4.385
3.997 -2.576 4.403
3.972 -2.503 4.381
3.995 -2.461 4.401
3.971 -2.391 4.38
3.991 -2.348 4.398
3.97 -2.28 4.379
3.985 -2.235 4.393
3.975 -2.175 4.383
3.995 -2.133 4.401
3.971 -2.067 4.38
3.993 -2.025 4.4
3.964 -1.958 4.374
3.992 -1.92 4.399
3.959 -1.852 4.37
3.984 -1.813 4.392
3.959 -1.75 4.369
3.981 -1.709 4.389
3.958 -1.649 4.369
3.979 -1.607 4.388
3.957 -1.548 4.367
3.977 -1.507 4.385
3.955 -1.449 4.366
3.985 -1.411 4.393
3.958 -1.352 4.368
3.973 -1.309 4.382
3.954 -1.254 4.365
3.976 -1.213 4.384
3.951 -1.157 4.362
3.98 -1.118 4.388
3.952 -1.062 4.363
3.978 -1.022 4.386
3.951 -0.967 4.362
3.971 -0.925 4.38
3.954 -0.874 4.365
3.975 -0.832 4.384
3.948 -0.78 4.36
3.973 -0.738 4.382
3.945 -0.686 4.357
3.97 -0.644 4.38
3.948 -0.594 4.359
3.965 -0.551 4.375
3.947 -0.502 4.359
3.965 -0.458 4.374
3.943 -0.41 4.355
3.963 -0.366 4.373
3.945 -0.319 4.357
3.975 -0.275 4.384
3.94 -0.227 4.352
3.968 -0.183 4.378
3.942 -0.136 4.355
3.955 -0.091 4.366
3.942 -0.045 4.354
3.963 -0 4.373
3.942 0.045 4.354
3.969 0.092 4.378
3.942 0.136 4.354
3.968 0.183 4.378
3.939 0.227 4.352
3.97 0.275 4.38
3.95 0.319 4.361
3.971 0.367 4.38
3.949 0.411 4.36
3.97 0.459 4.379
3.947 0.502 4.358
3.969 0.551 4.379
3.946 0.594 4.358
3.961 0.643 4.372
3.945 0.686 4.356
3.966 0.737 4.376
3.942 0.778 4.354
3.964 0.83 4.374
3.944 0.872 4.356
3.972 0.925 4.381
3.945 0.966 4.357
3.974 1.021 4.383
3.94 1.059 4.352
3.961 1.112 4.371
3.94 1.154 4.353
3.953 1.206 4.364
3.932 1.247 4.345
3.951 1.302 4.363
3.93 1.343 4.343
3.947 1.397 4.359
3.926 1.438 4.34
3.951 1.497 4.362
3.927 1.537 4.341
3.866 1.561 4.286
3.802 1.583 4.229
3.734 1.601 4.168
1.157 0.493 1.867
1.065 0.465 1.785
1.065 0.478 1.784
1.041 0.48 1.763
1.028 0.486 1.752
1.008 0.489 1.734
0.998 0.496 1.724
0.987 0.503 1.715
0.979 0.511 1.707
0.958 0.512 1.689
0.942 0.515 1.675
0.933 0.523 1.667
0.922 0.528 1.657
0.9 0.527 1.637
0.893 0.534 1.631
0.89 0.544 1.628
0.885 0.553 1.624
0.875 0.558 1.615
0.866 0.564 1.607
0.862 0.573 1.603
0.856 0.581 1.598
0.841 0.582 1.584
0.836 0.59 1.58
0.834 0.601 1.579
0.831 0.611 1.576
2.522 1.985 3.086
2.493 2.001 3.06
2.456 2.009 3.027
2.426 2.022 3
2.388 2.029 2.966
2.359 2.042 2.941
2.322 2.048 2.908
2.293 2.059 2.881
2.262 2.069 2.854
2.235 2.082 2.829
2.205 2.091 2.803
2.174 2.099 2.775
2.149 2.112 2.753
2.118 2.12 2.725
2.089 2.127 2.699
2.064 2.139 2.677
2.034 2.145 2.65
2.004 2.151 2.623
0.624 0.637 1.391
0.63 0.655 1.396
0.593 0.624 1.363
0.575 0.613 1.347
0.565 0.612 1.338
0.559 0.616 1.333
0.552 0.618 1.327
0.519 0.587 1.297
0.49 0.56 1.271
0.487 0.566 1.269
0.489 0.578 1.27
0.489 0.588 1.27
0.49 0.599 1.271
0.489 0.609 1.27
0.493 0.626 1.274
0.481 0.619 1.263
0.466 0.607 1.249
0.454 0.601 1.239
0.451 0.606 1.236
0.442 0.602 1.228
0.438 0.607 1.224
0.434 0.611 1.221
0.426 0.609 1.214
0.417 0.606 1.206
0.413 0.61 1.203
0.41 0.615 1.2
0.401 0.611 1.192
0.397 0.615 1.188
0.393 0.619 1.185
0.386 0.616 1.178
0.382 0.62 1.174
0.376 0.62 1.169
0.371 0.623 1.165
0.367 0.626 1.161
0.363 0.631 1.158
0.359 0.634 1.154
0.351 0.628 1.147
0.347 0.633 1.144
0.343 0.635 1.139
0.339 0.639 1.136
0.331 0.633 1.129
0.326 0.636 1.125
0.322 0.639 1.121
0.318 0.642 1.118
0.314 0.645 1.114
0.31 0.648 1.11
0.305 0.651 1.106
0.298 0.646 1.1
0.294 0.649 1.096
0.29 0.652 1.092
0.286 0.654 1.089
0.282 0.658 1.085
0.274 0.65 1.078
0.27 0.654 1.075
0.265 0.655 1.071
0.261 0.658 1.067
0.257 0.66 1.063
0.253 0.663 1.059
0.248 0.665 1.055
0.244 0.667 1.051
0.24 0.67 1.048
0.235 0.671 1.044
0.231 0.672 1.039
0.226 0.674 1.036
0.222 0.675 1.031
0.217 0.677 1.027
0.213 0.68 1.024
0.209 0.682 1.02
0.202 0.675 1.014
0.198 0.677 1.01
0.194 0.679 1.006
0.189 0.681 1.003
0.185 0.682 0.999
0.18 0.684 0.995
0.176 0.685 0.991
0.173 0.694 0.988
0.167 0.689 0.983
0.162 0.689 0.979
0.158 0.69 0.975
0.155 0.699 0.972
0.149 0.692 0.967
0.146 0.702 0.964
0.14 0.695 0.959
0.135 0.695 0.954
0.132 0.705 0.951
0.127 0.706 0.947
0.123 0.706 0.943
0.118 0.707 0.939
0.113 0.706 0.935
0.109 0.707 0.931
0.104 0.707 0.926
0.099 0.708 0.922
0.095 0.708 0.918
0.091 0.718 0.914
0.086 0.717 0.91
0.081 0.717 0.906
0.077 0.718 0.902
0.072 0.718 0.898
0.067 0.719 0.894
0.063 0.72 0.889
0.058 0.73 0.885
0.058 -0.364 0.885
0.06 -0.357 0.888
0.062 -0.362 0.89
0.065 -0.366 0.892
0.067 -0.366 0.894
0.069 -0.362 0.896
0.072 -0.369 0.898
0.074 -0.361 0.9
0.077 -0.373 0.903
0.079 -0.372 0.905
0.082 -0.372 0.907
0.084 -0.362 0.909
0.086 -0.366 0.911
0.089 -0.368 0.913
0.091 -0.369 0.916
0.094 -0.37 0.918
0.097 -0.378 0.921
0.099 -0.376 0.923
0.102 -0.374 0.925
0.104 -0.377 0.928
0.107 -0.374 0.93
0.109 -0.371 0.931
0.112 -0.376 0.934
0.115 -0.379 0.937
0.117 -0.377 0.939
0.12 -0.376 0.941
0.122 -0.373 0.943
0.125 -0.38 0.947
0.128 -0.379 0.949
0.131 -0.381 0.951
0.134 -0.382 0.954
0.136 -0.382 0.956
0.139 -0.381 0.958
0.141 -0.381 0.961
0.144 -0.382 0.964
0.148 -0.384 0.967
0.15 -0.381 0.968
0.154 -0.389 0.973
0.155 -0.38 0.973
0.16 -0.387 0.977
0.164 -0.395 0.982
0.167 -0.393 0.984
0.168 -0.387 0.985
0.174 -0.396 0.99
0.177 -0.396 0.992
0.179 -0.395 0.995
0.184 -0.401 0.999
0.187 -0.401 1.002
0.19 -0.4 1.005
0.194 -0.404 1.009
0.196 -0.398 1.01
0.201 -0.405 1.015
0.204 -0.403 1.017
0.206 -0.399 1.019
0.212 -0.407 1.024
0.214 -0.405 1.027
0.218 -0.405 1.03
0.224 -0.411 1.035
0.226 -0.408 1.037
0.227 -0.404 1.038
0.235 -0.412 1.045
0.237 -0.409 1.047
0.243 -0.416 1.053
0.247 -0.416 1.056
0.249 -0.413 1.058
0.256 -0.418 1.064
0.258 -0.416 1.066
0.264 -0.42 1.072
0.267 -0.417 1.074
0.274 -0.423 1.08
0.276 -0.419 1.082
0.279 -0.418 1.085
0.285 -0.421 1.09
0.293 -0.428 1.097
0.295 -0.424 1.099
0.3 -0.424 1.103
0.305 -0.426 1.108
0.314 -0.434 1.116
0.363 -0.507 1.16
0.433 -0.613 1.224
0.453 -0.634 1.241
0.458 -0.63 1.246
0.467 -0.633 1.254
0.472 -0.63 1.258
0.475 -0.624 1.261
0.47 -0.605 1.257
0.477 -0.605 1.263
0.484 -0.605 1.27
0.494 -0.609 1.279
0.531 -0.648 1.311
0.606 -0.738 1.379
0.618 -0.741 1.39
0.621 -0.731 1.392
0.628 -0.728 1.398
0.627 -0.715 1.398
0.635 -0.711 1.405
0.639 -0.705 1.409
0.648 -0.702 1.417
0.655 -0.698 1.423
0.66 -0.692 1.427
0.679 -0.701 1.445
0.688 -0.699 1.453
0.792 -0.8 1.546
0.824 -0.82 1.575
0.752 -0.73 1.51
0.884 -0.853 1.629
0.816 -0.769 1.568
0.783 -0.722 1.538
0.854 -0.778 1.602
0.837 -0.748 1.587
0.808 -0.707 1.561
0.929 -0.805 1.669
0.933 -0.794 1.673
0.944 -0.789 1.683
0.949 -0.779 1.688
0.963 -0.776 1.701
0.971 -0.768 1.707
0.98 -0.76 1.715
0.988 -0.752 1.723
0.997 -0.745 1.731
1.003 -0.734 1.736
1.018 -0.731 1.749
1.021 -0.718 1.753
1.03 -0.71 1.76
3.942 -2.779 4.381
3.919 -2.704 4.361
3.94 -2.661 4.379
3.917 -2.589 4.359
3.938 -2.546 4.377
3.918 -2.477 4.36
3.937 -2.434 4.377
3.91 -2.362 4.352
3.934 -2.322 4.374
3.913 -2.255 4.355
3.932 -2.212 4.372
3.914 -2.149 4.356
3.933 -2.106 4.373
3.915 -2.044 4.357
3.931 -2 4.371
3.904 -1.935 4.347
3.927 -1.895 4.368
3.902 -1.832 4.345
3.927 -1.792 4.367
3.899 -1.729 4.343
3.925 -1.69 4.365
3.902 -1.631 4.345
3.925 -1.591 4.366
3.906 -1.533 4.348
3.916 -1.488 4.358
3.905 -1.435 4.348
3.921 -1.393 4.362
3.903 -1.338 4.346
3.918 -1.295 4.359
3.893 -1.239 4.337
3.923 -1.201 4.364
3.897 -1.145 4.34
3.911 -1.102 4.353
3.89 -1.049 4.335
3.918 -1.01 4.36
3.898 -0.958 4.342
3.918 -0.916 4.359
3.899 -0.865 4.343
3.915 -0.822 4.357
3.894 -0.771 4.338
3.913 -0.729 4.355
3.891 -0.679 4.335
3.91 -0.636 4.352
3.891 -0.588 4.335
3.915 -0.545 4.357
3.885 -0.496 4.33
3.913 -0.454 4.355
3.886 -0.405 4.331
3.906 -0.362 4.349
3.883 -0.315 4.328
3.903 -0.271 4.346
3.88 -0.225 4.325
3.906 -0.181 4.349
3.882 -0.135 4.327
3.908 -0.09 4.351
3.876 -0.045 4.322
3.903 -0 4.346
3.876 0.045 4.322
3.902 0.09 4.345
3.882 0.135 4.327
3.901 0.181 4.344
3.88 0.225 4.325
3.906 0.271 4.348
3.883 0.315 4.328
3.906 0.362 4.349
3.883 0.405 4.328
3.91 0.453 4.352
3.887 0.496 4.332
3.902 0.544 4.346
3.88 0.586 4.326
3.902 0.635 4.345
3.877 0.677 4.323
3.908 0.728 4.351
3.883 0.769 4.328
3.91 0.821 4.352
3.885 0.862 4.329
3.911 0.914 4.353
3.885 0.954 4.33
3.905 1.006 4.348
3.888 1.048 4.333
3.907 1.101 4.349
3.88 1.14 4.325
3.9 1.193 4.343
3.872 1.232 4.318
3.897 1.288 4.34
3.877 1.329 4.322
3.894 1.383 4.338
3.871 1.423 4.317
3.897 1.481 4.341
3.874 1.521 4.32
3.855 1.562 4.303
3.79 1.583 4.244
3.729 1.605 4.189
3.67 1.626 4.136
1.083 0.475 1.808
1.057 0.476 1.785
1.038 0.48 1.768
1.016 0.482 1.748
1.003 0.488 1.736
0.997 0.498 1.731
0.987 0.505 1.722
0.969 0.508 1.706
0.955 0.512 1.693
0.946 0.52 1.685
0.932 0.524 1.673
0.912 0.524 1.654
0.908 0.533 1.651
0.894 0.536 1.638
0.884 0.542 1.629
0.88 0.552 1.626
0.874 0.559 1.62
0.864 0.565 1.611
0.857 0.572 1.605
0.843 0.574 1.592
0.845 0.587 1.594
0.835 0.592 1.585
0.838 0.606 1.588
0.841 0.621 1.59
2.517 1.988 3.099
2.485 2.001 3.07
2.454 2.014 3.042
2.417 2.022 3.008
2.38 2.029 2.975
2.35 2.041 2.948
2.32 2.053 2.922
2.29 2.065 2.895
2.254 2.069 2.862
2.228 2.082 2.838
2.197 2.091 2.811
2.172 2.105 2.788
2.141 2.112 2.761
2.111 2.12 2.733
2.081 2.127 2.707
2.056 2.139 2.684
2.027 2.145 2.658
2.003 2.157 2.636
1.977 2.167 2.613
0.628 0.656 1.399
0.626 0.665 1.397
0.6 0.646 1.374
0.569 0.619 1.345
0.555 0.613 1.333
0.553 0.622 1.332
0.546 0.624 1.325
0.489 0.56 1.273
0.481 0.56 1.267
0.487 0.578 1.272
0.484 0.583 1.269
0.482 0.591 1.267
0.484 0.605 1.27
0.488 0.621 1.273
0.487 0.63 1.272
0.472 0.619 1.258
0.455 0.604 1.243
0.448 0.605 1.237
0.439 0.601 1.229
0.436 0.607 1.226
0.432 0.611 1.222
0.424 0.609 1.216
0.42 0.614 1.212
0.412 0.611 1.205
0.408 0.615 1.201
0.404 0.619 1.197
0.4 0.623 1.194
0.392 0.62 1.187
0.388 0.624 1.183
0.38 0.619 1.176
0.376 0.623 1.172
0.37 0.623 1.166
0.366 0.627 1.163
0.362 0.631 1.159
0.358 0.634 1.156
0.35 0.629 1.149
0.346 0.633 1.145
0.341 0.635 1.141
0.337 0.638 1.137
0.329 0.633 1.13
0.325 0.636 1.126
0.321 0.639 1.123
0.317 0.642 1.119
0.313 0.646 1.115
0.309 0.648 1.111
0.305 0.652 1.108
0.297 0.646 1.101
0.293 0.649 1.097
0.289 0.652 1.093
0.284 0.654 1.09
0.28 0.658 1.086
0.276 0.66 1.082
0.269 0.654 1.076
0.264 0.655 1.072
0.26 0.658 1.068
0.256 0.66 1.064
0.252 0.662 1.06
0.248 0.666 1.056
0.243 0.668 1.053
0.239 0.669 1.048
0.234 0.671 1.044
0.23 0.673 1.041
0.225 0.674 1.036
0.221 0.675 1.032
0.217 0.678 1.028
0.212 0.68 1.025
0.208 0.682 1.021
0.201 0.675 1.015
0.199 0.685 1.013
0.193 0.679 1.007
0.19 0.689 1.005
0.184 0.682 0.999
0.179 0.683 0.995
0.175 0.685 0.991
0.171 0.686 0.987
0.166 0.688 0.983
0.162 0.689 0.979
0.157 0.69 0.975
0.153 0.69 0.971
0.149 0.7 0.968
0.144 0.693 0.963
0.14 0.703 0.96
0.136 0.704 0.956
0.131 0.705 0.952
0.127 0.705 0.948
0.122 0.707 0.944
0.117 0.706 0.939
0.113 0.707 0.935
0.108 0.706 0.931
0.104 0.717 0.927
0.099 0.708 0.923
0.094 0.708 0.919
0.09 0.719 0.915
0.086 0.718 0.911
0.081 0.718 0.906
0.076 0.719 0.902
0.072 0.719 0.898
0.067 0.719 0.894
0.062 0.73 0.89
0.058 0.731 0.885
0.057 -0.364 0.886
0.059 -0.357 0.888
0.062 -0.364 0.89
0.064 -0.365 0.892
0.066 -0.366 0.895
0.069 -0.362 0.897
0.071 -0.361 0.899
0.073 -0.361 0.901
0.076 -0.363 0.903
0.078 -0.369 0.905
0.081 -0.372 0.908
0.083 -0.371 0.91
0.086 -0.374 0.912
0.088 -0.372 0.914
0.091 -0.37 0.917
0.094 -0.378 0.919
0.096 -0.376 0.922
0.098 -0.375 0.924
0.101 -0.372 0.926
0.102 -0.368 0.927
0.106 -0.374 0.93
0.108 -0.37 0.932
0.111 -0.373 0.935
0.112 -0.369 0.937
0.116 -0.376 0.94
0.119 -0.377 0.942
0.121 -0.374 0.944
0.124 -0.38 0.947
0.127 -0.378 0.95
0.13 -0.38 0.952
0.132 -0.382 0.955
0.135 -0.379 0.957
0.137 -0.38 0.959
0.14 -0.382 0.962
0.143 -0.381 0.964
0.148 -0.389 0.969
0.149 -0.383 0.97
0.153 -0.388 0.973
0.155 -0.387 0.976
0.158 -0.386 0.978
0.16 -0.384 0.98
0.166 -0.394 0.985
0.169 -0.395 0.988
0.172 -0.395 0.991
0.175 -0.395 0.994
0.178 -0.395 0.996
0.18 -0.394 0.999
0.186 -0.401 1.003
0.186 -0.391 1.003
0.191 -0.399 1.008
0.197 -0.406 1.014
0.197 -0.399 1.014
0.202 -0.402 1.018
0.207 -0.406 1.023
0.207 -0.399 1.023
0.213 -0.405 1.028
0.215 -0.404 1.031
0.221 -0.41 1.036
0.224 -0.408 1.038
0.227 -0.407 1.041
0.233 -0.412 1.046
0.239 -0.418 1.052
0.242 -0.417 1.055
0.244 -0.414 1.057
0.247 -0.412 1.06
0.253 -0.417 1.065
0.256 -0.416 1.068
0.262 -0.42 1.073
0.266 -0.419 1.076
0.272 -0.423 1.082
0.274 -0.42 1.084
0.277 -0.418 1.087
0.283 -0.421 1.092
0.287 -0.421 1.096
0.295 -0.427 1.103
0.297 -0.424 1.106
0.304 -0.428 1.111
0.308 -0.427 1.115
0.352 -0.493 1.155
0.423 -0.601 1.22
0.448 -0.631 1.243
0.454 -0.629 1.248
0.462 -0.632 1.256
0.461 -0.618 1.255
0.463 -0.611 1.257
0.466 -0.604 1.259
0.47 -0.6 1.263
0.48 -0.604 1.272
0.489 -0.606 1.281
0.588 -0.732 1.371
0.605 -0.742 1.387
0.611 -0.737 1.391
0.612 -0.725 1.392
0.617 -0.72 1.398
0.623 -0.715 1.403
0.631 -0.713 1.41
0.634 -0.703 1.413
0.643 -0.702 1.421
0.65 -0.698 1.427
0.655 -0.692 1.432
0.67 -0.696 1.445
0.683 -0.698 1.457
0.7 -0.705 1.473
0.783 -0.783 1.549
0.75 -0.733 1.519
0.855 -0.83 1.615
0.776 -0.734 1.543
0.792 -0.736 1.557
0.811 -0.742 1.575
0.874 -0.789 1.632
0.815 -0.719 1.578
0.922 -0.805 1.676
0.926 -0.794 1.68
0.941 -0.792 1.693
0.953 -0.788 1.704
0.962 -0.781 1.712
0.965 -0.768 1.715
0.973 -0.76 1.722
0.984 -0.754 1.732
0.989 -0.744 1.737
0.999 -0.736 1.746
1.009 -0.73 1.756
1.012 -0.717 1.758
1.021 -0.709 1.766
3.87 -2.746 4.368
3.858 -2.68 4.357
3.875 -2.635 4.373
3.853 -2.563 4.352
3.866 -2.516 4.364
3.846 -2.447 4.346
3.862 -2.403 4.36
3.841 -2.336 4.342
3.87 -2.299 4.368
3.847 -2.232 4.347
3.865 -2.189 4.364
3.846 -2.125 4.346
3.863 -2.082 4.362
3.839 -2.018 4.34
3.863 -1.979 4.362
3.832 -1.911 4.333
3.853 -1.871 4.352
3.831 -1.81 4.332
3.855 -1.771 4.354
3.831 -1.71 4.332
3.855 -1.671 4.354
3.832 -1.612 4.334
3.856 -1.573 4.355
3.833 -1.515 4.334
3.854 -1.475 4.354
3.833 -1.418 4.334
3.854 -1.378 4.354
3.831 -1.322 4.332
3.854 -1.282 4.353
3.829 -1.227 4.331
3.851 -1.186 4.351
3.826 -1.132 4.328
3.853 -1.093 4.353
3.828 -1.039 4.329
3.846 -0.998 4.347
3.827 -0.946 4.328
3.844 -0.904 4.345
3.823 -0.853 4.325
3.847 -0.813 4.347
3.818 -0.761 4.321
3.845 -0.721 4.346
3.813 -0.67 4.316
3.843 -0.63 4.344
3.813 -0.58 4.316
3.834 -0.538 4.335
3.814 -0.49 4.317
3.837 -0.448 4.338
3.813 -0.4 4.316
3.836 -0.358 4.337
3.811 -0.311 4.314
3.832 -0.268 4.334
3.816 -0.222 4.319
3.833 -0.179 4.334
3.81 -0.133 4.313
3.836 -0.089 4.337
3.809 -0.044 4.313
3.832 -0 4.333
3.811 0.044 4.314
3.831 0.089 4.333
3.81 0.133 4.313
3.829 0.178 4.331
3.808 0.222 4.312
3.832 0.268 4.334
3.819 0.312 4.321
3.842 0.358 4.342
3.815 0.401 4.318
3.837 0.448 4.338
3.815 0.49 4.318
3.838 0.538 4.339
3.816 0.58 4.318
3.837 0.629 4.338
3.814 0.67 4.317
3.835 0.719 4.336
3.811 0.76 4.315
3.833 0.81 4.335
3.815 0.852 4.318
3.84 0.903 4.341
3.814 0.943 4.317
3.84 0.996 4.341
3.807 1.033 4.311
3.842 1.089 4.342
3.809 1.126 4.312
3.834 1.181 4.335
3.807 1.219 4.311
3.832 1.275 4.333
3.811 1.315 4.314
3.829 1.369 4.33
3.81 1.41 4.314
3.829 1.465 4.331
3.806 1.504 4.31
3.821 1.559 4.324
3.775 1.587 4.281
3.705 1.605 4.217
3.645 1.626 4.163
1.078 0.476 1.819
1.045 0.474 1.789
1.026 0.477 1.771
1.014 0.484 1.759
1.003 0.492 1.75
0.987 0.496 1.735
0.98 0.505 1.729
0.962 0.508 1.713
0.95 0.513 1.702
0.94 0.52 1.692
0.933 0.528 1.686
0.909 0.526 1.664
0.895 0.529 1.651
0.887 0.536 1.644
0.88 0.544 1.637
0.87 0.549 1.629
0.86 0.554 1.619
0.861 0.567 1.62
0.847 0.569 1.607
0.847 0.581 1.608
0.841 0.589 1.602
0.829 0.591 1.591
0.828 0.603 1.59
0.834 0.62 1.596
2.503 1.99 3.119
2.475 2.006 3.094
2.437 2.014 3.06
2.406 2.027 3.031
2.369 2.034 2.998
2.34 2.047 2.971
2.305 2.053 2.939
2.275 2.064 2.911
2.245 2.075 2.884
2.215 2.084 2.856
2.187 2.095 2.831
2.157 2.104 2.804
2.127 2.112 2.776
2.103 2.126 2.754
2.067 2.127 2.722
2.043 2.14 2.7
2.014 2.146 2.673
1.99 2.158 2.651
1.966 2.169 2.629
0.653 0.689 1.43
0.612 0.653 1.393
0.615 0.669 1.395
0.565 0.62 1.35
0.555 0.618 1.341
0.545 0.617 1.332
0.535 0.615 1.323
0.5 0.579 1.29
0.477 0.559 1.269
0.481 0.575 1.274
0.474 0.575 1.267
0.48 0.593 1.272
0.479 0.602 1.271
0.481 0.616 1.273
0.479 0.623 1.271
0.479 0.635 1.271
0.46 0.617 1.254
0.446 0.606 1.241
0.441 0.609 1.237
0.433 0.607 1.229
0.429 0.611 1.226
0.421 0.609 1.218
0.417 0.614 1.215
0.409 0.61 1.207
0.405 0.614 1.204
0.397 0.611 1.196
0.393 0.615 1.193
0.389 0.62 1.19
0.385 0.624 1.186
0.377 0.619 1.178
0.374 0.624 1.175
0.367 0.623 1.169
0.363 0.627 1.166
0.359 0.631 1.162
0.355 0.634 1.158
0.347 0.629 1.151
0.343 0.633 1.147
0.339 0.635 1.143
0.335 0.638 1.14
0.331 0.643 1.136
0.327 0.646 1.132
0.318 0.638 1.125
0.315 0.642 1.121
0.31 0.645 1.117
0.306 0.648 1.114
0.299 0.643 1.107
0.295 0.645 1.103
0.291 0.649 1.099
0.287 0.652 1.096
0.282 0.654 1.092
0.275 0.648 1.085
0.274 0.66 1.084
0.267 0.654 1.078
0.263 0.656 1.074
0.258 0.658 1.07
0.254 0.661 1.066
0.25 0.663 1.062
0.246 0.666 1.058
0.241 0.668 1.054
0.237 0.669 1.05
0.232 0.671 1.046
0.226 0.665 1.04
0.224 0.674 1.038
0.219 0.676 1.034
0.215 0.678 1.03
0.21 0.68 1.026
0.204 0.673 1.02
0.2 0.676 1.017
0.197 0.686 1.014
0.191 0.679 1.009
0.187 0.681 1.005
0.184 0.691 1.002
0.178 0.684 0.997
0.175 0.694 0.994
0.169 0.686 0.989
0.165 0.688 0.984
0.16 0.689 0.98
0.156 0.69 0.976
0.153 0.7 0.973
0.147 0.692 0.968
0.144 0.702 0.965
0.138 0.694 0.96
0.134 0.695 0.956
0.13 0.705 0.953
0.126 0.706 0.949
0.121 0.706 0.944
0.116 0.706 0.94
0.112 0.707 0.936
0.107 0.707 0.932
0.103 0.706 0.928
0.098 0.708 0.923
0.094 0.717 0.92
0.089 0.708 0.915
0.085 0.718 0.911
0.08 0.717 0.907
0.076 0.719 0.903
0.071 0.718 0.899
0.066 0.719 0.894
0.062 0.729 0.89
0.057 0.73 0.886
0.056 -0.355 0.887
0.058 -0.356 0.889
0.061 -0.355 0.891
0.063 -0.356 0.893
0.065 -0.365 0.895
0.068 -0.364 0.897
0.07 -0.367 0.9
0.072 -0.361 0.902
0.075 -0.364 0.904
0.077 -0.365 0.906
0.079 -0.365 0.908
0.082 -0.372 0.911
0.085 -0.374 0.913
0.086 -0.364 0.915
0.09 -0.374 0.918
0.091 -0.368 0.92
0.094 -0.373 0.922
0.097 -0.371 0.924
0.1 -0.377 0.927
0.101 -0.367 0.928
0.104 -0.371 0.931
0.106 -0.371 0.933
0.109 -0.375 0.936
0.112 -0.377 0.939
0.115 -0.378 0.941
0.117 -0.374 0.943
0.12 -0.381 0.947
0.123 -0.38 0.949
0.126 -0.381 0.951
0.128 -0.379 0.953
0.131 -0.381 0.956
0.133 -0.38 0.958
0.136 -0.38 0.961
0.138 -0.381 0.963
0.141 -0.381 0.966
0.145 -0.387 0.97
0.146 -0.38 0.971
0.149 -0.38 0.973
0.153 -0.386 0.977
0.158 -0.393 0.982
0.161 -0.395 0.985
0.164 -0.393 0.987
0.166 -0.393 0.989
0.167 -0.387 0.991
0.173 -0.395 0.995
0.176 -0.396 0.999
0.178 -0.394 1.001
0.18 -0.392 1.003
0.187 -0.401 1.008
0.188 -0.396 1.01
0.191 -0.396 1.013
0.197 -0.403 1.018
0.201 -0.405 1.021
0.204 -0.406 1.025
0.207 -0.405 1.027
0.211 -0.407 1.031
0.214 -0.405 1.034
0.215 -0.402 1.035
0.222 -0.41 1.042
0.225 -0.408 1.044
0.227 -0.405 1.046
0.232 -0.409 1.051
0.236 -0.409 1.054
0.241 -0.414 1.059
0.247 -0.419 1.065
0.251 -0.418 1.068
0.254 -0.418 1.072
0.256 -0.414 1.073
0.262 -0.417 1.078
0.268 -0.422 1.084
0.272 -0.421 1.088
0.274 -0.418 1.09
0.281 -0.423 1.096
0.284 -0.422 1.1
0.291 -0.427 1.106
0.293 -0.423 1.108
0.302 -0.431 1.116
0.309 -0.436 1.123
0.333 -0.468 1.145
0.403 -0.576 1.211
0.44 -0.626 1.245
0.442 -0.618 1.247
0.448 -0.617 1.253
0.443 -0.598 1.247
0.452 -0.601 1.256
0.457 -0.599 1.261
0.462 -0.596 1.266
0.478 -0.608 1.28
0.502 -0.632 1.303
0.525 -0.653 1.324
0.535 -0.655 1.333
0.603 -0.736 1.398
0.609 -0.731 1.403
0.614 -0.725 1.408
0.616 -0.714 1.409
0.623 -0.711 1.416
0.628 -0.705 1.421
0.63 -0.695 1.423
0.643 -0.698 1.435
0.651 -0.696 1.442
0.661 -0.695 1.452
0.668 -0.69 1.458
0.677 -0.688 1.466
0.743 -0.748 1.528
0.756 -0.749 1.54
0.745 -0.724 1.53
0.766 -0.732 1.55
0.849 -0.803 1.627
0.893 -0.832 1.668
0.803 -0.729 1.584
0.907 -0.815 1.681
0.913 -0.805 1.686
0.922 -0.799 1.695
0.934 -0.795 1.707
0.939 -0.784 1.711
0.949 -0.779 1.721
0.959 -0.772 1.729
0.971 -0.767 1.741
0.976 -0.756 1.745
0.986 -0.75 1.755
0.989 -0.737 1.758
0.999 -0.73 1.767
1.005 -0.719 1.772
1.021 -0.717 1.787
3.751 -2.688 4.337
3.735 -2.62 4.321
3.749 -2.575 4.335
3.73 -2.506 4.317
3.743 -2.461 4.33
3.723 -2.393 4.311
3.744 -2.353 4.331
3.725 -2.287 4.312
3.738 -2.243 4.325
3.723 -2.182 4.311
3.742 -2.141 4.329
3.718 -2.075 4.306
3.741 -2.037 4.328
3.721 -1.975 4.309
3.733 -1.931 4.32
3.713 -1.871 4.301
3.731 -1.83 4.318
3.71 -1.771 4.299
3.728 -1.73 4.315
3.713 -1.674 4.301
3.73 -1.633 4.318
3.709 -1.576 4.298
3.731 -1.537 4.318
3.71 -1.481 4.298
3.731 -1.442 4.318
3.716 -1.389 4.304
3.725 -1.345 4.313
3.705 -1.291 4.294
3.73 -1.253 4.317
3.707 -1.199 4.296
3.725 -1.159 4.313
3.704 -1.106 4.293
3.722 -1.066 4.31
3.702 -1.015 4.291
3.721 -0.975 4.309
3.703 -0.925 4.291
3.722 -0.884 4.31
3.699 -0.834 4.288
3.717 -0.793 4.305
3.7 -0.745 4.289
3.717 -0.704 4.305
3.694 -0.655 4.284
3.718 -0.615 4.306
3.696 -0.567 4.285
3.713 -0.526 4.301
3.689 -0.479 4.278
3.712 -0.438 4.3
3.688 -0.391 4.278
3.704 -0.349 4.293
3.686 -0.304 4.276
3.707 -0.262 4.296
3.69 -0.217 4.279
3.71 -0.175 4.299
3.692 -0.13 4.281
3.705 -0.087 4.294
3.686 -0.043 4.276
3.707 -0 4.296
3.68 0.043 4.27
3.706 0.087 4.294
3.686 0.13 4.276
3.712 0.175 4.3
3.69 0.217 4.28
3.708 0.262 4.297
3.691 0.304 4.281
3.71 0.35 4.299
3.694 0.392 4.284
3.72 0.439 4.308
3.694 0.479 4.284
3.721 0.527 4.309
3.697 0.568 4.286
3.714 0.615 4.303
3.697 0.656 4.286
3.718 0.704 4.306
3.696 0.744 4.285
3.716 0.793 4.304
3.697 0.834 4.286
3.712 0.882 4.3
3.692 0.922 4.282
3.719 0.974 4.307
3.697 1.013 4.286
3.709 1.062 4.298
3.697 1.104 4.286
3.714 1.155 4.302
3.685 1.192 4.275
3.709 1.246 4.298
3.689 1.285 4.279
3.706 1.338 4.295
3.684 1.377 4.274
3.701 1.43 4.29
3.685 1.471 4.275
3.701 1.525 4.29
3.679 1.563 4.27
3.677 1.61 4.268
3.614 1.629 4.209
3.556 1.649 4.154
3.504 1.67 4.106
1.023 0.482 1.79
1.01 0.488 1.777
0.978 0.484 1.747
0.974 0.495 1.744
0.959 0.499 1.73
0.951 0.507 1.722
0.941 0.514 1.713
0.93 0.52 1.703
0.914 0.523 1.688
0.903 0.528 1.678
0.885 0.529 1.661
0.879 0.537 1.655
0.871 0.544 1.648
0.866 0.553 1.643
0.858 0.559 1.635
0.856 0.57 1.634
0.843 0.573 1.622
0.838 0.581 1.617
0.828 0.586 1.608
0.826 0.596 1.605
0.818 0.602 1.598
2.519 1.985 3.186
2.484 1.996 3.154
2.454 2.011 3.126
2.412 2.014 3.086
2.382 2.027 3.058
2.351 2.039 3.03
2.315 2.046 2.996
2.286 2.058 2.969
2.256 2.069 2.941
2.227 2.08 2.914
2.192 2.085 2.881
2.166 2.097 2.857
2.135 2.104 2.828
2.111 2.118 2.805
2.081 2.126 2.777
2.051 2.133 2.749
2.027 2.145 2.727
1.998 2.151 2.699
1.969 2.158 2.673
1.945 2.169 2.65
1.915 2.172 2.622
0.608 0.656 1.402
0.593 0.65 1.388
0.605 0.676 1.399
0.592 0.672 1.387
0.544 0.622 1.342
0.533 0.619 1.332
0.522 0.616 1.322
0.498 0.594 1.299
0.468 0.564 1.272
0.469 0.576 1.273
0.466 0.581 1.27
0.466 0.59 1.269
0.471 0.609 1.274
0.467 0.614 1.271
0.469 0.628 1.272
0.45 0.609 1.254
0.441 0.605 1.246
0.432 0.602 1.238
0.428 0.607 1.234
0.424 0.611 1.23
0.416 0.609 1.223
0.413 0.614 1.22
0.405 0.611 1.212
0.401 0.615 1.209
0.397 0.619 1.205
0.389 0.615 1.197
0.385 0.619 1.193
0.381 0.623 1.19
0.373 0.619 1.182
0.369 0.624 1.179
0.365 0.628 1.175
0.359 0.627 1.17
0.355 0.631 1.166
0.351 0.633 1.162
0.343 0.629 1.155
0.339 0.633 1.151
0.335 0.636 1.147
0.331 0.638 1.143
0.327 0.643 1.14
0.319 0.636 1.132
0.315 0.639 1.128
0.311 0.642 1.125
0.307 0.645 1.121
0.303 0.648 1.117
0.295 0.642 1.11
0.291 0.646 1.106
0.287 0.649 1.103
0.283 0.652 1.099
0.279 0.654 1.095
0.275 0.657 1.091
0.268 0.65 1.084
0.266 0.662 1.083
0.259 0.655 1.076
0.255 0.658 1.072
0.251 0.661 1.069
0.247 0.663 1.065
0.243 0.665 1.061
0.238 0.667 1.057
0.234 0.669 1.053
0.23 0.671 1.049
0.225 0.672 1.045
0.221 0.674 1.04
0.217 0.676 1.036
0.212 0.678 1.032
0.208 0.679 1.028
0.202 0.674 1.023
0.199 0.683 1.02
0.193 0.676 1.015
0.191 0.688 1.012
0.184 0.68 1.006
0.18 0.682 1.003
0.176 0.684 0.999
0.173 0.694 0.996
0.167 0.686 0.99
0.164 0.696 0.988
0.158 0.689 0.982
0.154 0.69 0.978
0.15 0.69 0.974
0.145 0.692 0.97
0.141 0.693 0.966
0.137 0.703 0.963
0.132 0.695 0.957
0.128 0.696 0.953
0.124 0.706 0.95
0.119 0.706 0.946
0.115 0.706 0.941
0.11 0.706 0.937
0.106 0.707 0.933
0.102 0.716 0.929
0.097 0.718 0.925
0.093 0.718 0.921
0.088 0.717 0.916
0.084 0.718 0.912
0.079 0.718 0.908
0.074 0.718 0.904
0.07 0.718 0.899
0.065 0.72 0.895
0.061 0.73 0.891
0.056 0.731 0.887
0.055 -0.356 0.887
0.058 -0.357 0.889
0.06 -0.365 0.891
0.062 -0.363 0.893
0.065 -0.373 0.896
0.067 -0.364 0.898
0.069 -0.365 0.9
0.072 -0.363 0.902
0.074 -0.365 0.904
0.076 -0.365 0.907
0.079 -0.366 0.909
0.081 -0.365 0.911
0.083 -0.366 0.913
0.086 -0.374 0.916
0.088 -0.365 0.918
0.091 -0.376 0.921
0.094 -0.375 0.923
0.096 -0.372 0.925
0.098 -0.367 0.927
0.1 -0.367 0.929
0.103 -0.371 0.932
0.106 -0.373 0.934
0.108 -0.375 0.937
0.111 -0.378 0.94
0.112 -0.369 0.941
0.116 -0.374 0.944
0.118 -0.372 0.946
0.122 -0.38 0.95
0.124 -0.378 0.952
0.126 -0.379 0.954
0.129 -0.381 0.957
0.132 -0.381 0.96
0.134 -0.379 0.962
0.137 -0.38 0.964
0.141 -0.386 0.968
0.144 -0.387 0.971
0.146 -0.386 0.973
0.15 -0.388 0.976
0.152 -0.387 0.979
0.154 -0.384 0.98
0.157 -0.384 0.983
0.16 -0.384 0.986
0.165 -0.395 0.991
0.168 -0.394 0.994
0.171 -0.395 0.997
0.174 -0.395 1
0.177 -0.394 1.002
0.182 -0.401 1.007
0.185 -0.4 1.009
0.186 -0.396 1.011
0.19 -0.397 1.014
0.196 -0.405 1.02
0.198 -0.402 1.022
0.203 -0.407 1.027
0.206 -0.408 1.03
0.209 -0.406 1.032
0.212 -0.405 1.035
0.217 -0.41 1.04
0.22 -0.41 1.043
0.225 -0.413 1.048
0.228 -0.411 1.05
0.231 -0.41 1.053
0.237 -0.417 1.059
0.24 -0.415 1.062
0.245 -0.419 1.067
0.248 -0.417 1.069
0.252 -0.418 1.073
0.257 -0.419 1.078
0.26 -0.418 1.081
0.266 -0.423 1.087
0.269 -0.42 1.089
0.272 -0.418 1.092
0.274 -0.415 1.094
0.281 -0.42 1.1
0.289 -0.426 1.108
0.295 -0.43 1.114
0.299 -0.429 1.117
0.302 -0.427 1.12
0.322 -0.454 1.14
0.384 -0.549 1.198
0.435 -0.623 1.246
0.435 -0.613 1.247
0.437 -0.605 1.249
0.44 -0.598 1.251
0.446 -0.597 1.257
0.453 -0.597 1.263
0.46 -0.598 1.27
0.485 -0.624 1.294
0.515 -0.655 1.322
0.522 -0.654 1.329
0.577 -0.718 1.381
0.603 -0.742 1.406
0.604 -0.729 1.406
0.61 -0.725 1.412
0.614 -0.718 1.417
0.62 -0.713 1.422
0.623 -0.704 1.425
0.632 -0.703 1.433
0.636 -0.695 1.437
0.648 -0.698 1.449
0.654 -0.692 1.454
0.666 -0.693 1.465
0.674 -0.69 1.473
0.697 -0.703 1.495
0.746 -0.743 1.541
0.746 -0.73 1.541
0.779 -0.752 1.573
0.878 -0.838 1.666
0.887 -0.832 1.675
0.805 -0.736 1.597
0.902 -0.816 1.689
0.911 -0.81 1.698
0.915 -0.799 1.702
0.927 -0.795 1.713
0.937 -0.789 1.722
0.948 -0.783 1.733
0.957 -0.776 1.741
0.963 -0.766 1.747
0.968 -0.756 1.752
0.979 -0.75 1.762
0.986 -0.74 1.768
0.996 -0.733 1.778
1 -0.721 1.782
3.658 -2.695 4.301
3.685 -2.659 4.326
3.667 -2.59 4.309
3.684 -2.547 4.325
3.662 -2.477 4.304
3.676 -2.433 4.317
3.657 -2.367 4.299
3.678 -2.327 4.319
3.656 -2.26 4.299
3.675 -2.22 4.317
3.655 -2.156 4.297
3.675 -2.117 4.317
3.656 -2.055 4.299
3.68 -2.018 4.322
3.657 -1.954 4.299
3.676 -1.914 4.317
3.649 -1.851 4.292
3.667 -1.811 4.309
3.648 -1.752 4.291
3.67 -1.715 4.312
3.644 -1.654 4.287
3.668 -1.617 4.31
3.644 -1.559 4.287
3.663 -1.519 4.305
3.65 -1.467 4.293
3.669 -1.428 4.311
3.642 -1.37 4.285
3.665 -1.332 4.307
3.642 -1.278 4.286
3.656 -1.237 4.299
3.641 -1.186 4.284
3.655 -1.145 4.297
3.636 -1.094 4.28
3.657 -1.055 4.299
3.638 -1.004 4.282
3.657 -0.965 4.3
3.632 -0.913 4.276
3.658 -0.875 4.3
3.637 -0.826 4.28
3.648 -0.784 4.291
3.634 -0.737 4.277
3.652 -0.696 4.295
3.63 -0.648 4.274
3.646 -0.607 4.289
3.625 -0.56 4.269
3.641 -0.519 4.285
3.617 -0.472 4.262
3.64 -0.432 4.283
3.623 -0.387 4.267
3.645 -0.346 4.288
3.62 -0.3 4.265
3.644 -0.259 4.287
3.623 -0.215 4.268
3.646 -0.173 4.289
3.623 -0.129 4.267
3.647 -0.086 4.29
3.62 -0.043 4.265
3.641 -0 4.284
3.62 0.043 4.265
3.64 0.086 4.283
3.62 0.129 4.264
3.646 0.173 4.289
3.625 0.215 4.269
3.643 0.259 4.286
3.628 0.301 4.272
3.645 0.346 4.288
3.629 0.387 4.273
3.653 0.434 4.296
3.635 0.475 4.279
3.654 0.521 4.297
3.632 0.561 4.276
3.649 0.608 4.292
3.624 0.647 4.269
3.648 0.696 4.291
3.634 0.737 4.277
3.645 0.783 4.288
3.63 0.824 4.274
3.657 0.875 4.299
3.63 0.913 4.274
3.655 0.964 4.297
3.631 1.002 4.274
3.652 1.053 4.295
3.626 1.091 4.271
3.648 1.143 4.291
3.628 1.181 4.272
3.639 1.231 4.283
3.626 1.272 4.27
3.637 1.322 4.281
3.621 1.362 4.265
3.632 1.413 4.275
3.617 1.453 4.261
3.639 1.509 4.282
3.61 1.544 4.255
3.635 1.602 4.279
3.599 1.633 4.245
3.534 1.65 4.183
3.478 1.67 4.13
1.033 0.49 1.813
1.002 0.487 1.784
0.978 0.488 1.761
0.969 0.496 1.753
0.957 0.502 1.741
0.938 0.504 1.723
0.935 0.515 1.721
0.912 0.513 1.699
0.909 0.523 1.696
0.893 0.526 1.681
0.883 0.532 1.671
0.875 0.539 1.664
0.872 0.549 1.661
0.862 0.554 1.651
0.85 0.558 1.64
0.848 0.568 1.638
0.843 0.577 1.633
0.832 0.581 1.623
0.828 0.59 1.619
0.822 0.597 1.613
0.822 0.61 1.613
2.503 1.987 3.206
2.467 1.996 3.172
2.438 2.011 3.144
2.401 2.019 3.109
2.37 2.032 3.08
2.335 2.039 3.047
2.305 2.051 3.018
2.27 2.058 2.985
2.241 2.069 2.958
2.212 2.08 2.93
2.177 2.085 2.897
2.15 2.096 2.871
2.126 2.11 2.849
2.096 2.118 2.82
2.066 2.126 2.792
2.036 2.132 2.764
2.012 2.145 2.741
1.983 2.15 2.713
1.96 2.163 2.691
1.932 2.169 2.665
1.907 2.178 2.641
1.876 2.18 2.612
0.584 0.645 1.388
0.589 0.662 1.392
0.587 0.671 1.39
0.578 0.671 1.382
0.536 0.628 1.342
0.518 0.615 1.325
0.512 0.618 1.32
0.462 0.561 1.273
0.471 0.582 1.28
0.464 0.583 1.274
0.46 0.587 1.27
0.465 0.605 1.275
0.463 0.613 1.274
0.46 0.619 1.27
0.44 0.599 1.252
0.437 0.605 1.249
0.433 0.609 1.245
0.425 0.607 1.237
0.417 0.604 1.229
0.414 0.609 1.226
0.409 0.613 1.222
0.402 0.611 1.215
0.397 0.614 1.211
0.394 0.619 1.208
0.386 0.616 1.2
0.382 0.62 1.197
0.378 0.624 1.193
0.371 0.62 1.186
0.366 0.623 1.181
0.363 0.628 1.178
0.358 0.63 1.174
0.352 0.63 1.168
0.349 0.634 1.165
0.34 0.628 1.157
0.336 0.632 1.153
0.332 0.635 1.149
0.329 0.639 1.146
0.325 0.643 1.142
0.317 0.636 1.135
0.313 0.639 1.131
0.309 0.642 1.127
0.305 0.645 1.123
0.3 0.648 1.119
0.293 0.642 1.112
0.289 0.645 1.108
0.285 0.649 1.105
0.281 0.652 1.101
0.277 0.654 1.097
0.273 0.657 1.093
0.266 0.651 1.086
0.262 0.654 1.082
0.26 0.665 1.081
0.253 0.658 1.074
0.249 0.66 1.07
0.245 0.662 1.066
0.241 0.666 1.063
0.236 0.667 1.058
0.232 0.669 1.054
0.228 0.671 1.05
0.223 0.671 1.046
0.219 0.675 1.042
0.215 0.676 1.038
0.211 0.678 1.034
0.206 0.68 1.03
0.202 0.682 1.026
0.198 0.684 1.022
0.194 0.686 1.018
0.189 0.688 1.014
0.185 0.689 1.01
0.179 0.682 1.004
0.175 0.684 1
0.17 0.685 0.996
0.166 0.686 0.992
0.161 0.688 0.987
0.158 0.698 0.985
0.153 0.69 0.979
0.15 0.7 0.976
0.144 0.692 0.971
0.141 0.702 0.968
0.136 0.702 0.963
0.131 0.696 0.958
0.127 0.697 0.954
0.123 0.706 0.951
0.118 0.707 0.947
0.114 0.706 0.942
0.109 0.707 0.938
0.105 0.708 0.934
0.1 0.707 0.929
0.096 0.717 0.926
0.092 0.717 0.921
0.087 0.717 0.917
0.083 0.718 0.913
0.078 0.717 0.908
0.074 0.728 0.904
0.069 0.718 0.9
0.065 0.73 0.896
0.06 0.72 0.891
0.055 0.73 0.887
0.055 -0.356 0.887
0.057 -0.357 0.889
0.059 -0.365 0.892
0.062 -0.364 0.894
0.064 -0.363 0.896
0.066 -0.364 0.898
0.069 -0.367 0.901
0.071 -0.372 0.903
0.073 -0.364 0.905
0.076 -0.367 0.907
0.078 -0.367 0.91
0.08 -0.369 0.912
0.083 -0.368 0.914
0.085 -0.373 0.917
0.088 -0.374 0.919
0.09 -0.372 0.921
0.093 -0.375 0.924
0.095 -0.373 0.926
0.098 -0.376 0.929
0.1 -0.377 0.931
0.102 -0.371 0.933
0.104 -0.371 0.935
0.107 -0.375 0.938
0.109 -0.371 0.94
0.113 -0.379 0.943
0.115 -0.375 0.945
0.118 -0.382 0.948
0.121 -0.38 0.951
0.124 -0.386 0.954
0.126 -0.381 0.956
0.128 -0.381 0.958
0.131 -0.382 0.961
0.134 -0.382 0.963
0.136 -0.38 0.965
0.14 -0.386 0.969
0.141 -0.38 0.97
0.145 -0.387 0.974
0.148 -0.388 0.977
0.151 -0.388 0.98
0.155 -0.392 0.984
0.158 -0.392 0.986
0.161 -0.393 0.989
0.165 -0.398 0.993
0.166 -0.393 0.995
0.17 -0.395 0.998
0.173 -0.394 1.001
0.175 -0.394 1.003
0.18 -0.4 1.008
0.183 -0.398 1.01
0.185 -0.396 1.012
0.19 -0.402 1.017
0.194 -0.404 1.021
0.196 -0.403 1.023
0.199 -0.401 1.026
0.201 -0.399 1.028
0.207 -0.406 1.034
0.21 -0.404 1.036
0.215 -0.41 1.041
0.218 -0.409 1.045
0.221 -0.406 1.047
0.227 -0.413 1.053
0.232 -0.418 1.058
0.236 -0.417 1.061
0.238 -0.414 1.063
0.243 -0.419 1.069
0.243 -0.411 1.069
0.253 -0.424 1.078
0.255 -0.419 1.08
0.261 -0.424 1.086
0.261 -0.416 1.086
0.266 -0.419 1.091
0.273 -0.424 1.097
0.276 -0.421 1.1
0.282 -0.427 1.106
0.286 -0.426 1.11
0.292 -0.428 1.115
0.295 -0.427 1.119
0.3 -0.427 1.123
