# .PCD v0.7 - Point Cloud Data file format
VERSION 0.7
FIELDS x y z
SIZE 4 4 4
TYPE F F F
COUNT 1 1 1
WIDTH 2497
HEIGHT 1
VIEWPOINT 0 0 0 1 0 0 0
POINTS 2497
DATA ascii
0.825 0.721 1.716
0.82 0.731 1.711
0.816 0.741 1.707
0.808 0.747 1.698
0.803 0.756 1.692
0.799 0.766 1.688
0.793 0.775 1.682
0.793 0.789 1.682
0.789 0.799 1.677
0.783 0.808 1.672
0.783 0.822 1.671
0.778 0.831 1.666
0.775 0.843 1.663
0.77 0.852 1.657
0.764 0.861 1.651
0.755 0.864 1.641
0.75 0.874 1.636
0.744 0.882 1.63
0.739 0.891 1.625
0.734 0.9 1.619
0.729 0.909 1.613
0.719 0.911 1.603
0.718 0.926 1.602
0.707 0.927 1.59
0.706 0.942 1.589
0.696 0.945 1.579
0.69 0.952 1.572
0.685 0.96 1.566
0.678 0.968 1.56
0.674 0.977 1.555
0.667 0.984 1.548
0.662 0.993 1.542
0.655 0.999 1.535
0.68 1.06 1.562
0.634 0.998 1.512
0.606 0.968 1.483
0.602 0.978 1.478
0.612 1.015 1.489
0.585 0.983 1.46
0.557 0.948 1.43
0.528 0.91 1.399
0.512 0.896 1.383
0.488 0.864 1.356
0.472 0.849 1.34
0.452 0.823 1.318
0.432 0.798 1.297
0.417 0.78 1.281
0.403 0.764 1.266
0.384 0.737 1.246
0.372 0.724 1.233
0.332 0.646 1.19
0.296 0.576 1.152
0.295 0.583 1.151
0.289 0.582 1.145
0.285 0.583 1.141
0.282 0.587 1.137
0.281 0.597 1.136
0.28 0.606 1.135
0.277 0.61 1.132
0.271 0.608 1.126
0.26 0.588 1.113
0.251 0.577 1.105
0.245 0.572 1.098
0.239 0.566 1.091
0.232 0.559 1.084
0.224 0.544 1.075
0.217 0.535 1.068
0.211 0.529 1.062
0.206 0.523 1.056
0.197 0.505 1.046
0.18 0.458 1.028
0.175 0.451 1.023
0.172 0.451 1.02
0.169 0.452 1.017
0.163 0.442 1.011
0.159 0.438 1.006
0.155 0.435 1.002
0.153 0.435 0.999
0.15 0.434 0.996
0.147 0.436 0.993
0.146 0.443 0.992
0.142 0.44 0.988
0.139 0.439 0.985
0.137 0.444 0.983
0.134 0.443 0.98
0.132 0.447 0.977
0.13 0.452 0.975
0.126 0.446 0.971
0.124 0.451 0.969
0.122 0.457 0.967
0.12 0.459 0.964
0.117 0.463 0.962
0.115 0.468 0.96
0.113 0.476 0.958
0.11 0.468 0.953
0.106 0.464 0.95
0.103 0.463 0.946
0.101 0.467 0.944
0.098 0.468 0.941
0.095 0.47 0.938
0.093 0.48 0.936
0.09 0.475 0.933
0.088 0.486 0.93
0.085 0.484 0.927
0.083 0.491 0.925
0.08 0.49 0.921
0.077 0.5 0.919
0.074 0.498 0.915
0.071 0.507 0.913
0.068 0.507 0.909
0.066 0.517 0.906
0.063 0.519 0.903
0.059 0.51 0.9
0.056 0.52 0.897
0.053 0.531 0.893
0.05 0.533 0.89
0.05 -0.551 0.89
0.053 -0.55 0.894
0.056 -0.561 0.898
0.059 -0.561 0.901
0.063 -0.56 0.905
0.066 -0.568 0.909
0.07 -0.57 0.912
0.073 -0.568 0.916
0.077 -0.577 0.92
0.08 -0.575 0.924
0.084 -0.586 0.928
0.088 -0.584 0.932
0.092 -0.594 0.936
0.096 -0.602 0.941
0.1 -0.609 0.945
0.104 -0.61 0.949
0.108 -0.615 0.954
0.112 -0.614 0.958
0.115 -0.612 0.962
0.12 -0.622 0.967
0.124 -0.62 0.971
0.128 -0.626 0.976
0.133 -0.635 0.981
0.137 -0.632 0.985
0.143 -0.648 0.991
0.147 -0.646 0.996
0.152 -0.655 1.001
0.157 -0.66 1.007
0.162 -0.662 1.012
0.167 -0.669 1.017
0.172 -0.671 1.022
0.178 -0.68 1.029
0.185 -0.696 1.037
0.228 -0.887 1.083
0.357 -1.479 1.223
0.373 -1.513 1.241
0.387 -1.529 1.255
0.402 -1.551 1.272
0.416 -1.569 1.287
0.432 -1.59 1.304
0.446 -1.605 1.319
0.463 -1.629 1.338
0.457 -1.565 1.331
0.468 -1.564 1.343
0.469 -1.531 1.345
0.471 -1.498 1.346
0.504 -1.579 1.382
0.538 -1.655 1.419
0.553 -1.664 1.435
0.574 -1.695 1.458
0.603 -1.748 1.489
0.626 -1.782 1.514
0.65 -1.814 1.54
0.68 -1.862 1.572
0.729 -1.966 1.626
0.766 -2.028 1.666
0.783 -2.032 1.684
0.821 -2.092 1.725
0.844 -2.112 1.75
0.892 -2.192 1.801
0.927 -2.239 1.84
0.963 -2.285 1.879
1.005 -2.343 1.924
1.045 -2.393 1.967
1.093 -2.461 2.02
1.139 -2.519 2.069
1.19 -2.588 2.125
1.245 -2.662 2.184
1.303 -2.738 2.247
0.972 -1.978 1.889
0.908 -1.807 1.82
0.927 -1.811 1.839
0.925 -1.774 1.837
0.92 -1.734 1.833
0.93 -1.721 1.843
1.854 -3.464 2.842
1.97 -3.621 2.968
2.089 -3.778 3.097
2.231 -3.969 3.25
2.381 -4.166 3.412
2.555 -4.399 3.601
2.737 -4.636 3.798
2.959 -4.931 4.038
2.997 -4.908 4.079
3.025 -4.868 4.109
3.058 -4.837 4.145
3.084 -4.793 4.173
3.115 -4.759 4.207
3.143 -4.72 4.237
3.178 -4.69 4.275
3.205 -4.649 4.304
3.201 -4.563 4.3
3.227 -4.521 4.328
3.202 -4.408 4.301
3.214 -4.348 4.314
3.199 -4.251 4.297
3.212 -4.195 4.311
3.2 -4.106 4.298
3.21 -4.048 4.31
3.189 -3.95 4.286
3.203 -3.898 4.302
3.19 -3.814 4.288
3.208 -3.768 4.307
3.193 -3.684 4.291
3.215 -3.643 4.315
3.197 -3.558 4.295
3.208 -3.506 4.307
3.196 -3.43 4.295
3.213 -3.386 4.313
3.193 -3.303 4.291
3.209 -3.259 4.308
3.188 -3.178 4.286
3.203 -3.134 4.302
3.189 -3.061 4.286
3.199 -3.013 4.297
3.187 -2.945 4.285
3.201 -2.901 4.3
3.187 -2.832 4.285
3.212 -2.799 4.311
3.187 -2.722 4.284
3.205 -2.684 4.304
3.185 -2.614 4.283
3.208 -2.579 4.307
3.186 -2.509 4.284
3.207 -2.473 4.306
3.205 -2.42 4.303
3.227 -2.385 4.327
3.246 -2.348 4.348
3.271 -2.315 4.376
3.21 -2.221 4.309
3.22 -2.178 4.32
3.228 -2.134 4.329
3.243 -2.095 4.345
3.242 -2.045 4.344
3.296 -2.03 4.402
3.202 -1.924 4.301
3.205 -1.878 4.304
3.178 -1.816 4.275
3.191 -1.777 4.289
3.186 -1.728 4.283
3.201 -1.69 4.3
3.183 -1.635 4.28
3.194 -1.595 4.293
3.183 -1.544 4.28
3.191 -1.504 4.289
3.176 -1.452 4.273
3.187 -1.413 4.285
3.175 -1.364 4.271
3.188 -1.326 4.286
3.177 -1.278 4.274
3.19 -1.24 4.288
3.175 -1.191 4.272
3.193 -1.155 4.291
3.175 -1.106 4.272
3.194 -1.07 4.293
3.182 -1.023 4.279
3.187 -0.983 4.285
3.188 -0.941 4.286
3.195 -0.901 4.293
3.184 -0.856 4.282
3.195 -0.817 4.293
3.185 -0.773 4.282
3.194 -0.734 4.292
3.179 -0.689 4.276
3.19 -0.65 4.288
3.17 -0.605 4.266
3.185 -0.567 4.282
3.161 -0.522 4.256
3.124 -0.476 4.216
3.129 -0.437 4.222
3.186 -0.404 4.283
3.163 -0.361 4.259
3.183 -0.323 4.28
3.172 -0.281 4.268
3.193 -0.243 4.291
3.175 -0.201 4.272
3.188 -0.161 4.285
3.176 -0.121 4.272
3.19 -0.081 4.288
3.179 -0.04 4.275
3.192 -0 4.29
3.177 0.04 4.273
3.189 0.081 4.287
3.171 0.12 4.267
3.188 0.161 4.285
3.163 0.2 4.258
3.179 0.242 4.276
3.166 0.281 4.262
3.183 0.323 4.28
3.162 0.361 4.258
3.178 0.403 4.274
3.164 0.442 4.259
3.173 0.484 4.269
3.165 0.523 4.26
3.18 0.566 4.277
3.163 0.604 4.259
3.184 0.649 4.281
3.169 0.687 4.265
3.183 0.731 4.28
3.164 0.768 4.26
3.183 0.814 4.281
3.161 0.85 4.256
3.217 0.907 4.317
3.208 0.947 4.307
3.224 0.994 4.324
3.253 1.046 4.356
3.245 1.087 4.347
3.181 1.107 4.278
3.206 1.16 4.305
3.22 1.208 4.321
3.213 1.249 4.313
3.213 1.292 4.312
3.252 1.353 4.355
3.186 1.369 4.283
3.218 1.427 4.318
3.211 1.468 4.31
3.224 1.52 4.325
3.204 1.555 4.303
3.259 1.628 4.362
3.146 1.615 4.24
3.173 1.675 4.27
3.157 1.711 4.252
3.166 1.762 4.262
3.15 1.799 4.244
3.162 1.853 4.258
3.145 1.889 4.239
3.156 1.943 4.251
3.145 1.983 4.239
3.156 2.037 4.251
3.138 2.073 4.231
3.153 2.132 4.248
3.141 2.172 4.235
3.156 2.232 4.25
3.137 2.268 4.231
3.156 2.332 4.251
3.142 2.372 4.236
3.158 2.435 4.253
3.144 2.475 4.238
3.158 2.538 4.253
3.141 2.577 4.235
3.153 2.64 4.248
3.137 2.679 4.23
0.84 0.7 1.746
0.832 0.706 1.737
0.827 0.715 1.731
0.818 0.721 1.722
0.814 0.731 1.717
0.81 0.742 1.713
0.801 0.747 1.703
0.796 0.756 1.698
0.792 0.766 1.693
0.792 0.78 1.693
0.786 0.789 1.688
0.782 0.798 1.683
0.781 0.812 1.682
0.782 0.828 1.683
0.778 0.838 1.678
0.769 0.843 1.669
0.763 0.851 1.663
0.759 0.861 1.658
0.753 0.87 1.651
0.748 0.879 1.646
0.739 0.883 1.636
0.733 0.891 1.63
0.728 0.9 1.624
0.722 0.908 1.618
0.717 0.917 1.613
0.711 0.925 1.606
0.706 0.934 1.601
0.701 0.943 1.595
0.69 0.944 1.584
0.689 0.959 1.582
0.684 0.968 1.577
0.678 0.975 1.57
0.668 0.977 1.559
0.666 0.991 1.557
0.656 0.993 1.547
0.649 0.998 1.539
0.696 1.095 1.589
0.617 0.979 1.505
0.598 0.964 1.484
0.597 0.979 1.483
0.601 1.004 1.487
0.579 0.98 1.463
0.551 0.946 1.433
0.523 0.91 1.403
0.504 0.889 1.382
0.48 0.857 1.356
0.468 0.849 1.343
0.445 0.817 1.318
0.429 0.799 1.301
0.413 0.78 1.284
0.399 0.764 1.269
0.381 0.737 1.249
0.366 0.718 1.233
0.322 0.631 1.186
0.295 0.579 1.156
0.292 0.582 1.152
0.287 0.581 1.147
0.282 0.582 1.142
0.281 0.591 1.141
0.278 0.596 1.138
0.281 0.615 1.141
0.275 0.611 1.134
0.265 0.598 1.124
0.257 0.586 1.115
0.249 0.577 1.106
0.243 0.572 1.1
0.237 0.565 1.093
0.227 0.55 1.083
0.222 0.544 1.077
0.213 0.528 1.067
0.209 0.529 1.063
0.203 0.521 1.057
0.195 0.504 1.048
0.181 0.469 1.033
0.176 0.46 1.027
0.17 0.452 1.021
0.165 0.444 1.016
0.163 0.446 1.013
0.158 0.438 1.007
0.153 0.431 1.002
0.152 0.437 1.001
0.148 0.433 0.997
0.147 0.444 0.996
0.145 0.445 0.994
0.142 0.447 0.991
0.14 0.448 0.988
0.136 0.446 0.984
0.133 0.443 0.981
0.131 0.447 0.978
0.127 0.443 0.975
0.126 0.453 0.973
0.123 0.451 0.97
0.123 0.467 0.97
0.118 0.458 0.965
0.116 0.462 0.962
0.114 0.468 0.96
0.111 0.466 0.957
0.109 0.47 0.954
0.105 0.464 0.95
0.102 0.462 0.947
0.1 0.466 0.945
0.097 0.468 0.942
0.094 0.47 0.939
0.092 0.48 0.937
0.09 0.484 0.934
0.086 0.477 0.93
0.084 0.484 0.928
0.082 0.491 0.925
0.079 0.499 0.922
0.076 0.499 0.919
0.074 0.507 0.916
0.071 0.507 0.913
0.068 0.516 0.91
0.065 0.519 0.907
0.062 0.519 0.904
0.059 0.519 0.9
0.056 0.52 0.897
0.053 0.532 0.894
0.05 0.536 0.89
0.049 -0.55 0.891
0.052 -0.55 0.894
0.055 -0.561 0.898
0.059 -0.561 0.902
0.062 -0.569 0.905
0.066 -0.568 0.909
0.069 -0.569 0.913
0.072 -0.569 0.917
0.076 -0.577 0.921
0.08 -0.585 0.925
0.083 -0.585 0.929
0.087 -0.593 0.933
0.091 -0.595 0.937
0.094 -0.593 0.941
0.098 -0.6 0.945
0.103 -0.608 0.95
0.106 -0.606 0.954
0.111 -0.614 0.959
0.115 -0.624 0.964
0.119 -0.622 0.968
0.122 -0.619 0.972
0.127 -0.626 0.977
0.132 -0.635 0.982
0.137 -0.642 0.987
0.14 -0.639 0.991
0.145 -0.647 0.997
0.15 -0.653 1.002
0.156 -0.661 1.008
0.16 -0.662 1.013
0.164 -0.66 1.017
0.169 -0.666 1.023
0.174 -0.671 1.028
0.181 -0.685 1.036
0.216 -0.84 1.075
0.355 -1.489 1.227
0.37 -1.513 1.243
0.384 -1.53 1.258
0.396 -1.543 1.273
0.411 -1.564 1.289
0.426 -1.581 1.305
0.442 -1.604 1.322
0.458 -1.626 1.34
0.457 -1.58 1.339
0.47 -1.587 1.353
0.47 -1.548 1.353
0.485 -1.563 1.37
0.523 -1.66 1.412
0.537 -1.669 1.427
0.548 -1.664 1.439
0.567 -1.688 1.46
0.596 -1.744 1.492
0.621 -1.782 1.519
0.642 -1.807 1.543
0.67 -1.852 1.573
0.719 -1.954 1.627
0.757 -2.021 1.669
0.784 -2.054 1.698
0.802 -2.061 1.718
0.833 -2.101 1.752
0.881 -2.185 1.805
0.915 -2.229 1.842
0.952 -2.278 1.883
0.994 -2.336 1.929
1.033 -2.387 1.972
1.081 -2.454 2.025
1.127 -2.513 2.075
1.179 -2.585 2.132
1.228 -2.647 2.186
1.287 -2.726 2.25
1.344 -2.799 2.313
0.957 -1.927 1.888
0.883 -1.737 1.807
0.909 -1.758 1.835
1.634 -3.182 2.632
1.731 -3.316 2.738
1.826 -3.441 2.843
1.94 -3.596 2.968
2.058 -3.752 3.097
2.198 -3.942 3.251
2.338 -4.125 3.405
2.512 -4.36 3.596
2.681 -4.578 3.782
2.923 -4.911 4.047
2.973 -4.909 4.102
3.006 -4.878 4.138
3.034 -4.839 4.169
3.062 -4.8 4.2
3.095 -4.769 4.237
3.123 -4.728 4.267
3.148 -4.685 4.295
3.165 -4.628 4.313
3.142 -4.515 4.288
3.163 -4.467 4.311
3.145 -4.365 4.292
3.157 -4.305 4.304
3.143 -4.212 4.289
3.157 -4.157 4.304
3.134 -4.054 4.279
3.148 -4.002 4.295
3.128 -3.906 4.272
3.146 -3.86 4.292
3.132 -3.774 4.276
3.15 -3.73 4.297
3.139 -3.65 4.284
3.151 -3.6 4.298
3.141 -3.525 4.287
3.157 -3.478 4.304
3.136 -3.393 4.282
3.158 -3.356 4.306
3.138 -3.273 4.284
3.152 -3.228 4.299
3.13 -3.145 4.275
3.15 -3.107 4.297
3.128 -3.027 4.273
3.148 -2.989 4.294
3.133 -2.918 4.278
3.148 -2.876 4.294
3.133 -2.807 4.278
3.15 -2.767 4.296
3.138 -2.703 4.283
3.142 -2.653 4.289
3.136 -2.594 4.281
3.151 -2.554 4.298
3.138 -2.491 4.283
3.158 -2.455 4.305
3.179 -2.42 4.329
3.202 -2.386 4.354
3.186 -2.323 4.336
3.179 -2.268 4.329
3.156 -2.201 4.303
3.175 -2.165 4.325
3.193 -2.128 4.344
3.21 -2.091 4.363
3.132 -1.991 4.276
3.159 -1.961 4.306
3.17 -1.92 4.319
3.197 -1.89 4.349
3.128 -1.802 4.273
3.141 -1.763 4.287
3.124 -1.708 4.268
3.136 -1.669 4.281
3.126 -1.619 4.271
3.14 -1.581 4.286
3.12 -1.527 4.264
3.134 -1.489 4.28
3.119 -1.438 4.263
3.134 -1.401 4.279
3.118 -1.35 4.261
3.132 -1.313 4.277
3.121 -1.265 4.265
3.135 -1.228 4.28
3.118 -1.179 4.261
3.138 -1.144 4.284
3.119 -1.095 4.263
3.138 -1.059 4.283
3.127 -1.014 4.271
3.139 -0.976 4.284
3.134 -0.932 4.279
3.146 -0.894 4.293
3.127 -0.847 4.271
3.141 -0.81 4.287
3.127 -0.765 4.272
3.138 -0.727 4.283
3.117 -0.681 4.261
3.134 -0.644 4.279
3.114 -0.599 4.257
3.129 -0.562 4.274
3.112 -0.518 4.255
3.093 -0.475 4.234
3.1 -0.436 4.242
3.124 -0.4 4.268
3.113 -0.358 4.257
3.126 -0.32 4.271
3.111 -0.278 4.254
3.129 -0.24 4.273
3.113 -0.199 4.256
3.132 -0.16 4.277
3.114 -0.119 4.257
3.128 -0.08 4.273
3.115 -0.04 4.258
3.13 -0 4.274
3.115 0.04 4.258
3.127 0.08 4.272
3.114 0.119 4.257
3.126 0.16 4.27
3.113 0.199 4.256
3.123 0.239 4.267
3.11 0.278 4.253
3.125 0.32 4.27
3.105 0.357 4.248
3.121 0.399 4.265
3.107 0.437 4.25
3.124 0.48 4.268
3.108 0.518 4.251
3.123 0.561 4.267
3.108 0.598 4.251
3.122 0.642 4.266
3.107 0.679 4.25
3.128 0.724 4.272
3.108 0.76 4.251
3.119 0.804 4.263
3.103 0.841 4.245
3.132 0.89 4.278
3.156 0.939 4.304
3.195 0.993 4.347
3.189 1.034 4.339
3.198 1.08 4.349
3.147 1.105 4.293
3.153 1.15 4.3
3.151 1.192 4.298
3.205 1.256 4.358
3.195 1.296 4.347
3.19 1.338 4.341
3.143 1.361 4.289
3.155 1.41 4.302
3.151 1.453 4.298
3.195 1.519 4.346
3.198 1.565 4.349
3.16 1.591 4.307
3.099 1.604 4.241
3.117 1.659 4.261
3.101 1.695 4.243
3.116 1.749 4.259
3.097 1.783 4.238
3.107 1.835 4.249
3.091 1.872 4.232
3.109 1.929 4.252
3.093 1.966 4.234
3.103 2.02 4.245
3.084 2.055 4.225
3.102 2.114 4.243
3.083 2.15 4.223
3.103 2.213 4.246
3.085 2.249 4.226
3.105 2.313 4.247
3.086 2.348 4.227
3.109 2.417 4.252
3.083 2.447 4.224
3.099 2.511 4.241
3.084 2.551 4.224
3.101 2.618 4.243
3.083 2.654 4.223
0.834 0.7 1.753
0.825 0.706 1.743
0.82 0.716 1.738
0.815 0.725 1.733
0.807 0.731 1.724
0.803 0.742 1.719
0.799 0.752 1.715
0.795 0.761 1.71
0.789 0.77 1.704
0.785 0.78 1.699
0.78 0.789 1.694
0.78 0.804 1.694
0.775 0.812 1.688
0.775 0.828 1.689
0.771 0.838 1.684
0.768 0.849 1.68
0.757 0.851 1.668
0.752 0.861 1.663
0.747 0.87 1.658
0.742 0.879 1.652
0.732 0.882 1.641
0.732 0.897 1.641
0.722 0.9 1.63
0.716 0.909 1.624
0.711 0.917 1.618
0.706 0.926 1.612
0.7 0.934 1.606
0.694 0.942 1.6
0.689 0.95 1.593
0.684 0.959 1.588
0.677 0.967 1.581
0.672 0.976 1.575
0.666 0.983 1.569
0.656 0.984 1.558
0.65 0.992 1.551
0.647 1.004 1.548
0.69 1.095 1.595
0.604 0.965 1.5
0.597 0.971 1.493
0.596 0.986 1.492
0.594 0.999 1.489
0.568 0.97 1.461
0.544 0.941 1.434
0.516 0.904 1.403
0.496 0.882 1.382
0.477 0.859 1.361
0.456 0.833 1.338
0.436 0.807 1.316
0.421 0.79 1.3
0.406 0.771 1.283
0.392 0.756 1.268
0.377 0.737 1.252
0.362 0.717 1.235
0.315 0.622 1.184
0.295 0.584 1.161
0.289 0.583 1.155
0.283 0.579 1.148
0.282 0.588 1.147
0.276 0.585 1.141
0.276 0.597 1.141
0.28 0.619 1.145
0.272 0.61 1.136
0.262 0.595 1.125
0.257 0.593 1.119
0.247 0.576 1.108
0.24 0.571 1.101
0.234 0.565 1.095
0.225 0.55 1.085
0.219 0.543 1.078
0.214 0.538 1.072
0.207 0.527 1.064
0.198 0.511 1.055
0.192 0.501 1.048
0.177 0.461 1.032
0.175 0.463 1.029
0.169 0.452 1.022
0.164 0.446 1.017
0.159 0.438 1.012
0.155 0.434 1.008
0.152 0.434 1.004
0.15 0.437 1.002
0.147 0.436 0.999
0.146 0.443 0.997
0.143 0.445 0.995
0.141 0.446 0.992
0.138 0.447 0.989
0.133 0.437 0.984
0.132 0.443 0.982
0.129 0.445 0.979
0.127 0.451 0.977
0.125 0.453 0.974
0.123 0.46 0.972
0.12 0.456 0.969
0.117 0.46 0.966
0.115 0.461 0.963
0.113 0.468 0.961
0.11 0.465 0.958
0.108 0.471 0.955
0.104 0.464 0.951
0.101 0.46 0.948
0.098 0.465 0.945
0.096 0.468 0.942
0.093 0.471 0.94
0.091 0.481 0.938
0.089 0.483 0.935
0.086 0.484 0.932
0.083 0.483 0.928
0.081 0.491 0.926
0.078 0.49 0.922
0.075 0.497 0.92
0.073 0.507 0.917
0.07 0.508 0.914
0.067 0.508 0.91
0.064 0.51 0.907
0.061 0.52 0.904
0.058 0.519 0.901
0.055 0.52 0.897
0.052 0.524 0.894
0.049 0.534 0.891
0.048 -0.55 0.891
0.051 -0.55 0.895
0.055 -0.559 0.898
0.058 -0.56 0.902
0.061 -0.559 0.906
0.065 -0.569 0.91
0.068 -0.569 0.913
0.071 -0.569 0.917
0.075 -0.577 0.921
0.078 -0.575 0.925
0.082 -0.586 0.929
0.086 -0.583 0.933
0.089 -0.587 0.937
0.094 -0.603 0.942
0.097 -0.6 0.946
0.102 -0.61 0.951
0.105 -0.606 0.955
0.109 -0.613 0.959
0.113 -0.614 0.964
0.118 -0.623 0.969
0.121 -0.62 0.973
0.126 -0.628 0.978
0.13 -0.634 0.983
0.134 -0.632 0.987
0.139 -0.64 0.992
0.144 -0.646 0.998
0.147 -0.643 1.002
0.152 -0.65 1.007
0.158 -0.661 1.014
0.164 -0.668 1.02
0.168 -0.672 1.025
0.174 -0.678 1.031
0.18 -0.686 1.038
0.209 -0.815 1.071
0.348 -1.469 1.225
0.364 -1.502 1.244
0.38 -1.528 1.261
0.393 -1.543 1.275
0.408 -1.566 1.292
0.422 -1.582 1.308
0.438 -1.604 1.326
0.454 -1.625 1.343
0.463 -1.618 1.353
0.479 -1.639 1.372
0.483 -1.611 1.375
0.51 -1.671 1.406
0.538 -1.729 1.437
0.537 -1.683 1.436
0.542 -1.66 1.441
0.563 -1.693 1.465
0.588 -1.735 1.493
0.612 -1.771 1.52
0.639 -1.813 1.549
0.667 -1.859 1.581
0.711 -1.949 1.63
0.748 -2.014 1.671
0.779 -2.059 1.706
0.791 -2.049 1.719
0.827 -2.104 1.759
0.871 -2.177 1.808
0.908 -2.229 1.849
0.941 -2.27 1.886
0.983 -2.329 1.933
1.022 -2.379 1.976
1.069 -2.447 2.029
1.11 -2.496 2.075
1.163 -2.57 2.133
1.214 -2.638 2.191
1.27 -2.712 2.253
1.326 -2.783 2.315
1.394 -2.879 2.391
1.464 -2.973 2.47
1.537 -3.068 2.55
1.613 -3.166 2.635
1.703 -3.289 2.736
1.8 -3.418 2.843
1.911 -3.57 2.967
2.021 -3.713 3.09
2.164 -3.912 3.249
2.301 -4.092 3.402
2.465 -4.314 3.585
2.637 -4.54 3.777
2.868 -4.857 4.034
2.957 -4.924 4.133
2.985 -4.885 4.165
3.014 -4.847 4.197
3.042 -4.807 4.228
3.071 -4.769 4.26
3.1 -4.733 4.293
3.091 -4.636 4.282
3.104 -4.576 4.297
3.089 -4.475 4.28
3.102 -4.415 4.294
3.089 -4.321 4.281
3.103 -4.265 4.296
3.083 -4.164 4.274
3.101 -4.116 4.293
3.079 -4.015 4.269
3.093 -3.964 4.285
3.077 -3.873 4.267
3.092 -3.824 4.283
3.075 -3.736 4.264
3.095 -3.694 4.287
3.084 -3.616 4.275
3.099 -3.569 4.291
3.081 -3.485 4.272
3.103 -3.447 4.296
3.083 -3.363 4.273
3.098 -3.317 4.29
3.081 -3.239 4.271
3.093 -3.192 4.284
3.077 -3.118 4.267
3.09 -3.072 4.281
3.074 -2.999 4.264
3.092 -2.96 4.284
3.08 -2.892 4.27
3.091 -2.847 4.283
3.081 -2.783 4.271
3.096 -2.743 4.289
3.081 -2.675 4.272
3.089 -2.629 4.28
3.069 -2.56 4.259
3.093 -2.527 4.285
3.109 -2.488 4.302
3.131 -2.455 4.328
3.149 -2.417 4.347
3.157 -2.372 4.356
3.093 -2.273 4.284
3.116 -2.241 4.31
3.134 -2.204 4.33
3.15 -2.166 4.348
3.083 -2.071 4.274
3.138 -2.06 4.335
3.111 -1.994 4.305
3.128 -1.958 4.324
3.145 -1.921 4.342
3.182 -1.896 4.384
3.061 -1.777 4.249
3.076 -1.74 4.265
3.075 -1.695 4.265
3.084 -1.655 4.275
3.071 -1.603 4.26
3.087 -1.567 4.278
3.065 -1.511 4.253
3.079 -1.475 4.269
3.064 -1.424 4.252
3.079 -1.387 4.269
3.062 -1.337 4.25
3.083 -1.303 4.274
3.066 -1.253 4.254
3.079 -1.216 4.269
3.062 -1.167 4.25
3.081 -1.132 4.272
3.071 -1.087 4.26
3.082 -1.049 4.273
3.071 -1.003 4.26
3.089 -0.968 4.28
3.074 -0.922 4.264
3.091 -0.886 4.282
3.075 -0.84 4.265
3.079 -0.8 4.27
3.072 -0.758 4.261
3.082 -0.72 4.273
3.063 -0.675 4.252
3.078 -0.638 4.268
3.059 -0.594 4.247
3.075 -0.556 4.264
3.062 -0.514 4.25
3.066 -0.475 4.255
3.064 -0.435 4.253
3.075 -0.396 4.264
3.057 -0.355 4.245
3.071 -0.317 4.261
3.06 -0.276 4.248
3.074 -0.237 4.263
3.063 -0.197 4.251
3.076 -0.158 4.266
3.066 -0.118 4.254
3.076 -0.079 4.265
3.063 -0.039 4.251
3.075 -0 4.264
3.059 0.039 4.247
3.078 0.079 4.268
3.059 0.118 4.247
3.07 0.158 4.259
3.057 0.197 4.245
3.069 0.237 4.258
3.054 0.275 4.242
3.071 0.316 4.26
3.051 0.354 4.238
3.067 0.395 4.255
3.059 0.434 4.247
3.069 0.475 4.258
3.053 0.513 4.24
3.067 0.555 4.255
3.059 0.594 4.247
3.067 0.635 4.256
3.057 0.673 4.245
3.073 0.717 4.263
3.046 0.751 4.233
3.068 0.797 4.257
3.053 0.834 4.24
3.066 0.878 4.255
3.049 0.914 4.236
3.128 0.98 4.324
3.159 1.033 4.358
3.095 1.053 4.287
3.085 1.092 4.276
3.132 1.151 4.328
3.123 1.191 4.318
3.119 1.232 4.313
3.088 1.262 4.279
3.092 1.307 4.284
3.087 1.348 4.277
3.117 1.405 4.311
3.121 1.451 4.316
3.11 1.489 4.303
3.06 1.509 4.247
3.059 1.552 4.247
3.047 1.59 4.234
3.063 1.643 4.251
3.04 1.675 4.226
3.06 1.731 4.248
3.042 1.766 4.228
3.056 1.819 4.243
3.04 1.856 4.226
3.055 1.911 4.242
3.039 1.947 4.224
3.049 2.001 4.236
3.033 2.037 4.217
3.043 2.091 4.229
3.03 2.13 4.215
3.046 2.189 4.232
3.028 2.224 4.212
3.047 2.288 4.234
3.04 2.332 4.225
3.047 2.388 4.234
3.026 2.421 4.21
3.043 2.486 4.229
3.028 2.525 4.213
3.045 2.591 4.231
3.027 2.627 4.211
0.827 0.7 1.759
0.824 0.712 1.756
0.813 0.715 1.743
0.81 0.726 1.74
0.8 0.731 1.729
0.797 0.742 1.725
0.792 0.752 1.72
0.788 0.761 1.716
0.784 0.771 1.711
0.778 0.78 1.705
0.778 0.794 1.705
0.774 0.804 1.7
0.774 0.818 1.7
0.769 0.828 1.694
0.764 0.837 1.689
0.761 0.848 1.685
0.756 0.858 1.68
0.746 0.861 1.669
0.74 0.87 1.663
0.735 0.879 1.657
0.731 0.888 1.652
0.725 0.897 1.645
0.72 0.906 1.64
0.71 0.908 1.629
0.706 0.918 1.624
0.699 0.925 1.617
0.694 0.934 1.611
0.688 0.942 1.605
0.683 0.95 1.598
0.678 0.959 1.593
0.672 0.967 1.586
0.666 0.975 1.58
0.66 0.983 1.573
0.655 0.991 1.567
0.649 0.999 1.561
0.641 1.003 1.552
0.662 1.058 1.576
0.602 0.97 1.508
0.591 0.969 1.496
0.594 0.991 1.499
0.59 1.002 1.495
0.561 0.966 1.463
0.535 0.933 1.434
0.511 0.903 1.407
0.488 0.874 1.381
0.468 0.85 1.359
0.452 0.833 1.342
0.432 0.807 1.319
0.418 0.79 1.303
0.403 0.773 1.287
0.384 0.746 1.266
0.371 0.73 1.251
0.355 0.707 1.233
0.308 0.611 1.181
0.292 0.584 1.163
0.285 0.578 1.155
0.283 0.586 1.153
0.279 0.587 1.148
0.276 0.591 1.145
0.275 0.601 1.144
0.275 0.613 1.144
0.269 0.61 1.138
0.262 0.601 1.129
0.251 0.585 1.118
0.245 0.578 1.11
0.236 0.563 1.1
0.232 0.565 1.096
0.223 0.55 1.086
0.217 0.543 1.08
0.209 0.528 1.07
0.205 0.528 1.066
0.197 0.511 1.056
0.186 0.485 1.044
0.175 0.46 1.033
0.173 0.462 1.03
0.165 0.445 1.022
0.162 0.445 1.018
0.16 0.448 1.016
0.154 0.436 1.009
0.15 0.43 1.004
0.149 0.437 1.003
0.145 0.434 0.999
0.145 0.444 0.999
0.142 0.446 0.996
0.139 0.443 0.992
0.136 0.445 0.989
0.132 0.435 0.984
0.131 0.445 0.983
0.128 0.444 0.98
0.126 0.45 0.978
0.124 0.453 0.975
0.121 0.451 0.972
0.119 0.457 0.97
0.116 0.46 0.967
0.115 0.47 0.966
0.112 0.47 0.962
0.109 0.471 0.959
0.107 0.473 0.956
0.103 0.464 0.952
0.099 0.459 0.948
0.097 0.463 0.946
0.095 0.469 0.943
0.092 0.47 0.94
0.09 0.48 0.938
0.087 0.478 0.935
0.085 0.483 0.932
0.083 0.493 0.93
0.08 0.49 0.926
0.077 0.49 0.923
0.074 0.496 0.92
0.071 0.498 0.917
0.069 0.507 0.914
0.066 0.509 0.911
0.063 0.509 0.908
0.06 0.511 0.904
0.057 0.519 0.901
0.054 0.53 0.898
0.051 0.524 0.895
0.048 0.527 0.891
0.048 -0.55 0.891
0.051 -0.55 0.895
0.054 -0.559 0.899
0.058 -0.56 0.902
0.061 -0.559 0.906
0.064 -0.569 0.91
0.068 -0.57 0.914
0.071 -0.569 0.917
0.075 -0.578 0.921
0.078 -0.585 0.926
0.082 -0.586 0.93
0.085 -0.584 0.933
0.09 -0.596 0.938
0.093 -0.602 0.943
0.097 -0.599 0.946
0.101 -0.608 0.951
0.104 -0.605 0.955
0.109 -0.612 0.96
0.113 -0.621 0.965
0.117 -0.624 0.969
0.121 -0.62 0.973
0.125 -0.627 0.978
0.13 -0.633 0.983
0.135 -0.641 0.989
0.138 -0.638 0.993
0.143 -0.645 0.998
0.148 -0.652 1.004
0.152 -0.651 1.008
0.157 -0.659 1.014
0.163 -0.668 1.02
0.167 -0.666 1.025
0.173 -0.677 1.032
0.177 -0.677 1.036
0.2 -0.771 1.062
0.335 -1.414 1.214
0.362 -1.499 1.244
0.376 -1.519 1.26
0.391 -1.541 1.276
0.406 -1.565 1.294
0.42 -1.58 1.309
0.436 -1.603 1.327
0.452 -1.624 1.345
0.465 -1.634 1.36
0.484 -1.665 1.381
0.497 -1.673 1.396
0.517 -1.703 1.418
0.54 -1.744 1.444
0.536 -1.686 1.439
0.541 -1.664 1.445
0.559 -1.686 1.465
0.584 -1.729 1.493
0.611 -1.775 1.524
0.633 -1.804 1.548
0.658 -1.841 1.577
0.703 -1.934 1.627
0.742 -2.005 1.67
0.77 -2.043 1.702
0.799 -2.078 1.734
0.826 -2.11 1.765
0.864 -2.168 1.807
0.898 -2.213 1.845
0.934 -2.262 1.886
0.972 -2.312 1.928
1.014 -2.371 1.976
1.058 -2.43 2.025
1.103 -2.489 2.075
1.151 -2.554 2.13
1.202 -2.622 2.187
1.257 -2.696 2.249
1.313 -2.768 2.312
1.383 -2.866 2.39
1.447 -2.949 2.462
1.525 -3.057 2.55
1.594 -3.141 2.627
1.686 -3.269 2.731
1.779 -3.391 2.834
1.887 -3.54 2.956
1.996 -3.682 3.078
2.138 -3.881 3.238
2.269 -4.051 3.385
2.431 -4.269 3.566
2.597 -4.486 3.752
2.822 -4.798 4.005
2.945 -4.924 4.144
2.977 -4.891 4.18
3.006 -4.853 4.212
3.035 -4.816 4.245
3.057 -4.766 4.269
3.065 -4.697 4.278
3.046 -4.587 4.257
3.06 -4.528 4.272
3.047 -4.431 4.258
3.059 -4.371 4.271
3.048 -4.28 4.259
3.057 -4.219 4.269
3.042 -4.124 4.252
3.054 -4.069 4.266
3.033 -3.97 4.242
3.045 -3.917 4.256
3.032 -3.831 4.241
3.05 -3.787 4.261
3.035 -3.701 4.244
3.051 -3.656 4.262
3.044 -3.583 4.254
3.059 -3.537 4.272
3.042 -3.454 4.252
3.054 -3.405 4.265
3.044 -3.333 4.255
3.057 -3.286 4.269
3.038 -3.207 4.248
3.052 -3.162 4.263
3.034 -3.085 4.243
3.05 -3.044 4.261
3.034 -2.971 4.243
3.051 -2.932 4.262
3.036 -2.862 4.246
3.052 -2.822 4.264
3.039 -2.755 4.248
3.053 -2.715 4.265
3.035 -2.645 4.244
3.051 -2.607 4.263
3.055 -2.558 4.267
3.077 -2.524 4.291
3.092 -2.485 4.308
3.122 -2.457 4.342
3.059 -2.357 4.272
3.058 -2.305 4.27
3.074 -2.268 4.288
3.089 -2.23 4.305
3.085 -2.178 4.3
3.113 -2.149 4.332
3.056 -2.061 4.268
3.07 -2.023 4.283
3.092 -1.99 4.309
3.103 -1.949 4.32
3.055 -1.872 4.267
3.056 -1.827 4.268
3.03 -1.766 4.239
3.046 -1.73 4.257
3.025 -1.674 4.234
3.049 -1.642 4.26
3.029 -1.587 4.237
3.044 -1.551 4.254
3.028 -1.499 4.237
3.037 -1.46 4.247
3.028 -1.412 4.236
3.036 -1.373 4.245
3.021 -1.324 4.228
3.04 -1.29 4.25
3.03 -1.243 4.238
3.037 -1.204 4.246
3.027 -1.158 4.235
3.039 -1.121 4.249
3.029 -1.076 4.238
3.047 -1.041 4.258
3.034 -0.995 4.243
3.048 -0.959 4.259
3.027 -0.911 4.235
3.044 -0.875 4.254
3.032 -0.831 4.241
3.044 -0.794 4.254
3.028 -0.75 4.237
3.04 -0.712 4.25
3.027 -0.669 4.236
3.037 -0.632 4.247
3.022 -0.589 4.23
3.032 -0.551 4.241
3.017 -0.509 4.224
3.034 -0.472 4.243
3.02 -0.43 4.228
3.032 -0.392 4.241
3.017 -0.351 4.225
3.035 -0.314 4.245
3.021 -0.273 4.229
3.032 -0.235 4.242
3.027 -0.196 4.235
3.041 -0.157 4.252
3.022 -0.117 4.23
3.033 -0.078 4.242
3.018 -0.039 4.226
3.035 -0 4.244
3.018 0.039 4.226
3.034 0.078 4.243
3.021 0.117 4.229
3.035 0.157 4.244
3.018 0.195 4.225
3.032 0.235 4.242
3.015 0.273 4.222
3.027 0.313 4.236
3.017 0.351 4.225
3.03 0.392 4.239
3.013 0.429 4.22
3.025 0.47 4.234
3.014 0.508 4.221
3.026 0.55 4.234
3.011 0.586 4.217
3.032 0.63 4.241
3.014 0.666 4.22
3.02 0.708 4.228
3.015 0.746 4.221
3.025 0.789 4.233
3.011 0.826 4.217
3.024 0.87 4.232
3.008 0.906 4.215
3.016 0.948 4.223
3.005 0.986 4.211
3.076 1.051 4.29
3.106 1.104 4.324
3.071 1.133 4.285
3.065 1.173 4.278
3.12 1.237 4.34
3.04 1.247 4.25
3.065 1.3 4.278
3.071 1.346 4.285
3.067 1.388 4.28
3.059 1.427 4.271
3.127 1.504 4.347
3.007 1.488 4.213
3.019 1.538 4.226
3.004 1.574 4.21
3.014 1.623 4.221
3.004 1.662 4.21
3.012 1.71 4.218
3.001 1.749 4.206
3.019 1.804 4.226
3 1.838 4.205
3.013 1.892 4.219
2.997 1.928 4.201
3.009 1.982 4.215
2.991 2.017 4.195
3.008 2.075 4.214
2.99 2.11 4.194
3.007 2.169 4.213
2.994 2.208 4.198
3.002 2.263 4.208
2.99 2.303 4.194
3.003 2.362 4.208
2.988 2.4 4.191
3 2.46 4.205
2.985 2.499 4.189
3.001 2.564 4.207
2.987 2.603 4.19
0.828 0.705 1.767
0.825 0.716 1.763
0.815 0.721 1.752
0.812 0.732 1.749
0.802 0.736 1.738
0.798 0.746 1.733
0.793 0.756 1.728
0.789 0.766 1.723
0.785 0.775 1.718
0.775 0.78 1.708
0.775 0.795 1.708
0.776 0.81 1.708
0.77 0.818 1.702
0.766 0.828 1.697
0.761 0.838 1.692
0.757 0.848 1.688
0.752 0.858 1.682
0.747 0.866 1.676
0.737 0.869 1.665
0.735 0.883 1.663
0.727 0.888 1.654
0.724 0.9 1.651
0.717 0.905 1.642
0.71 0.912 1.634
0.707 0.923 1.631
0.7 0.931 1.624
0.691 0.934 1.613
0.685 0.941 1.607
0.68 0.95 1.601
0.674 0.959 1.595
0.669 0.967 1.588
0.663 0.974 1.582
0.658 0.983 1.576
0.651 0.99 1.569
0.647 1 1.563
0.64 1.007 1.556
0.644 1.03 1.56
0.6 0.973 1.512
0.592 0.974 1.502
0.597 1.002 1.508
0.585 0.997 1.494
0.553 0.956 1.459
0.529 0.926 1.431
0.505 0.896 1.405
0.486 0.875 1.383
0.463 0.842 1.357
0.447 0.826 1.339
0.428 0.801 1.318
0.413 0.784 1.301
0.397 0.765 1.284
0.383 0.746 1.267
0.369 0.729 1.251
0.35 0.699 1.23
0.3 0.595 1.174
0.288 0.578 1.161
0.287 0.587 1.16
0.28 0.582 1.152
0.279 0.591 1.151
0.275 0.591 1.146
0.276 0.605 1.147
0.277 0.623 1.149
0.267 0.608 1.138
0.26 0.6 1.129
0.25 0.584 1.118
0.241 0.569 1.108
0.235 0.563 1.101
0.228 0.556 1.094
0.222 0.549 1.087
0.216 0.543 1.08
0.208 0.527 1.071
0.202 0.521 1.064
0.195 0.509 1.057
0.184 0.481 1.044
0.175 0.461 1.034
0.172 0.461 1.03
0.167 0.453 1.025
0.161 0.444 1.019
0.158 0.441 1.014
0.154 0.437 1.01
0.149 0.428 1.004
0.147 0.435 1.003
0.144 0.433 1
0.144 0.447 1
0.141 0.445 0.996
0.138 0.446 0.993
0.134 0.435 0.988
0.132 0.439 0.985
0.13 0.444 0.983
0.127 0.444 0.98
0.125 0.448 0.978
0.123 0.452 0.975
0.122 0.463 0.974
0.12 0.468 0.972
0.117 0.47 0.969
0.115 0.471 0.966
0.112 0.471 0.963
0.108 0.468 0.959
0.105 0.463 0.955
0.102 0.462 0.952
0.099 0.461 0.949
0.097 0.462 0.946
0.095 0.477 0.944
0.092 0.477 0.941
0.09 0.478 0.938
0.087 0.478 0.935
0.084 0.483 0.932
0.082 0.482 0.929
0.079 0.491 0.927
0.077 0.499 0.924
0.074 0.496 0.92
0.071 0.506 0.918
0.069 0.508 0.914
0.066 0.507 0.911
0.063 0.509 0.908
0.06 0.518 0.905
0.057 0.519 0.901
0.054 0.519 0.898
0.051 0.532 0.895
0.048 0.536 0.891
0.047 -0.549 0.892
0.05 -0.55 0.895
0.053 -0.549 0.899
0.056 -0.56 0.903
0.06 -0.559 0.907
0.063 -0.568 0.911
0.066 -0.569 0.914
0.07 -0.569 0.918
0.073 -0.576 0.922
0.077 -0.576 0.926
0.081 -0.587 0.931
0.084 -0.583 0.934
0.088 -0.594 0.939
0.091 -0.592 0.943
0.095 -0.598 0.947
0.099 -0.607 0.952
0.104 -0.615 0.957
0.107 -0.613 0.961
0.111 -0.613 0.965
0.115 -0.623 0.97
0.119 -0.621 0.974
0.122 -0.617 0.978
0.128 -0.634 0.985
0.131 -0.632 0.989
0.136 -0.639 0.994
0.14 -0.637 0.998
0.146 -0.651 1.005
0.149 -0.649 1.009
0.154 -0.657 1.015
0.159 -0.659 1.02
0.164 -0.666 1.026
0.17 -0.676 1.033
0.174 -0.675 1.038
0.189 -0.731 1.055
0.26 -1.063 1.137
0.357 -1.496 1.248
0.371 -1.518 1.264
0.383 -1.532 1.278
0.398 -1.553 1.295
0.413 -1.572 1.312
0.427 -1.592 1.329
0.443 -1.615 1.347
0.46 -1.637 1.365
0.476 -1.659 1.385
0.495 -1.688 1.406
0.511 -1.706 1.425
0.53 -1.734 1.447
0.534 -1.705 1.451
0.53 -1.654 1.447
0.553 -1.69 1.472
0.575 -1.725 1.498
0.599 -1.763 1.526
0.626 -1.808 1.557
0.647 -1.834 1.581
0.685 -1.908 1.625
0.73 -1.998 1.676
0.757 -2.034 1.707
0.786 -2.071 1.74
0.817 -2.115 1.776
0.846 -2.152 1.81
0.883 -2.205 1.852
0.916 -2.245 1.889
0.953 -2.295 1.932
0.995 -2.355 1.98
1.038 -2.415 2.03
1.078 -2.464 2.076
1.13 -2.539 2.135
1.174 -2.593 2.186
1.229 -2.668 2.249
1.284 -2.739 2.311
1.351 -2.836 2.389
1.411 -2.912 2.458
1.485 -3.013 2.542
1.554 -3.101 2.622
1.643 -3.225 2.724
1.734 -3.346 2.828
1.836 -3.486 2.945
1.94 -3.623 3.065
2.071 -3.806 3.215
2.196 -3.968 3.358
2.353 -4.184 3.539
2.514 -4.397 3.723
2.723 -4.687 3.964
2.907 -4.922 4.175
2.945 -4.9 4.219
2.963 -4.845 4.239
2.972 -4.775 4.249
2.956 -4.667 4.231
2.97 -4.608 4.247
2.953 -4.502 4.228
2.965 -4.443 4.242
2.951 -4.345 4.226
2.966 -4.292 4.243
2.951 -4.196 4.226
2.962 -4.139 4.238
2.948 -4.047 4.222
2.957 -3.989 4.232
2.943 -3.9 4.216
2.955 -3.849 4.23
2.942 -3.765 4.215
2.959 -3.72 4.234
2.948 -3.64 4.221
2.966 -3.598 4.242
2.943 -3.507 4.216
2.965 -3.47 4.241
2.951 -3.392 4.225
2.959 -3.341 4.234
2.949 -3.27 4.224
2.963 -3.226 4.239
2.947 -3.15 4.221
2.958 -3.103 4.233
2.945 -3.033 4.219
2.957 -2.988 4.232
2.945 -2.92 4.218
2.956 -2.876 4.231
2.943 -2.808 4.216
2.961 -2.773 4.237
2.935 -2.694 4.207
2.96 -2.665 4.236
2.976 -2.627 4.254
2.999 -2.594 4.28
3.017 -2.558 4.301
3.004 -2.495 4.286
2.958 -2.406 4.233
2.978 -2.372 4.256
2.994 -2.336 4.275
3.018 -2.304 4.302
2.945 -2.2 4.218
2.988 -2.184 4.267
2.975 -2.126 4.253
2.993 -2.091 4.273
3.01 -2.056 4.293
3.02 -2.015 4.304
2.927 -1.906 4.198
2.943 -1.871 4.216
2.936 -1.822 4.208
2.947 -1.784 4.22
2.933 -1.731 4.205
2.951 -1.697 4.225
2.93 -1.641 4.201
2.95 -1.609 4.225
2.928 -1.553 4.199
2.953 -1.523 4.228
2.938 -1.473 4.21
2.946 -1.434 4.22
2.937 -1.387 4.21
2.946 -1.349 4.219
2.93 -1.3 4.201
2.944 -1.265 4.217
2.935 -1.219 4.206
2.946 -1.183 4.22
2.937 -1.138 4.209
2.949 -1.101 4.223
2.936 -1.056 4.209
2.948 -1.02 4.222
2.935 -0.975 4.207
2.947 -0.939 4.221
2.933 -0.894 4.204
2.947 -0.858 4.22
2.931 -0.814 4.202
2.947 -0.778 4.221
2.934 -0.735 4.206
2.951 -0.7 4.225
2.94 -0.658 4.213
2.948 -0.621 4.222
2.933 -0.578 4.205
2.948 -0.542 4.222
2.934 -0.501 4.205
2.942 -0.463 4.214
2.928 -0.422 4.199
2.942 -0.386 4.215
2.932 -0.346 4.204
2.939 -0.308 4.212
2.934 -0.269 4.205
2.95 -0.232 4.224
2.934 -0.192 4.205
2.941 -0.154 4.214
2.929 -0.115 4.2
2.943 -0.077 4.216
2.924 -0.038 4.194
2.936 -0 4.209
2.925 0.038 4.195
2.943 0.077 4.216
2.924 0.115 4.194
2.941 0.154 4.213
2.928 0.191 4.199
2.942 0.231 4.215
2.923 0.268 4.193
2.939 0.308 4.211
2.924 0.345 4.194
2.941 0.385 4.213
2.926 0.422 4.197
2.934 0.462 4.206
2.928 0.5 4.199
2.936 0.54 4.208
2.925 0.577 4.196
2.929 0.617 4.2
2.926 0.655 4.197
2.934 0.696 4.206
2.918 0.731 4.188
2.931 0.774 4.203
2.917 0.81 4.186
2.934 0.854 4.206
2.918 0.889 4.188
2.931 0.933 4.203
2.92 0.97 4.19
2.924 1.011 4.195
2.908 1.046 4.176
2.988 1.116 4.267
2.919 1.131 4.189
2.966 1.191 4.242
2.981 1.239 4.26
3.009 1.293 4.292
2.985 1.325 4.264
2.987 1.368 4.266
2.912 1.375 4.18
2.926 1.424 4.197
2.915 1.461 4.184
2.924 1.508 4.194
2.909 1.543 4.178
2.924 1.594 4.194
2.909 1.629 4.177
2.922 1.68 4.192
2.907 1.715 4.174
2.919 1.766 4.188
2.909 1.805 4.177
2.915 1.853 4.184
2.905 1.892 4.173
2.922 1.949 4.193
2.908 1.985 4.176
2.919 2.039 4.188
2.901 2.072 4.168
2.912 2.127 4.181
2.906 2.17 4.173
2.919 2.228 4.189
2.902 2.263 4.17
2.91 2.318 4.179
2.897 2.356 4.164
2.91 2.416 4.179
2.89 2.449 4.155
2.908 2.515 4.176
0.816 0.69 1.775
0.817 0.705 1.776
0.814 0.715 1.772
0.804 0.721 1.761
0.801 0.731 1.757
0.797 0.741 1.752
0.793 0.752 1.748
0.787 0.761 1.742
0.783 0.77 1.736
0.774 0.775 1.727
0.77 0.786 1.722
0.765 0.795 1.717
0.765 0.809 1.716
0.76 0.818 1.71
0.759 0.832 1.71
0.758 0.845 1.708
0.751 0.853 1.7
0.743 0.858 1.691
0.738 0.867 1.685
0.733 0.876 1.679
0.709 0.861 1.651
0.714 0.882 1.657
2.869 3.801 4.132
0.707 0.905 1.65
0.705 0.918 1.647
0.694 0.919 1.635
0.689 0.928 1.629
0.691 0.947 1.631
0.691 0.964 1.631
0.683 0.969 1.622
0.686 0.991 1.626
0.665 0.974 1.601
0.663 0.988 1.599
0.652 0.988 1.587
0.645 0.994 1.578
0.641 1.005 1.574
0.635 1.012 1.567
0.621 1.005 1.551
0.594 0.976 1.52
0.589 0.984 1.514
0.591 1.005 1.517
0.569 0.981 1.491
0.538 0.941 1.456
0.518 0.918 1.433
0.496 0.891 1.407
0.472 0.859 1.38
0.453 0.836 1.358
0.434 0.811 1.336
0.418 0.792 1.318
0.403 0.775 1.301
0.389 0.757 1.284
0.374 0.74 1.268
0.359 0.719 1.251
0.329 0.663 1.216
0.292 0.587 1.174
0.285 0.581 1.166
0.283 0.587 1.163
0.279 0.587 1.158
0.276 0.591 1.154
0.273 0.597 1.152
0.274 0.61 1.152
0.271 0.617 1.15
0.263 0.606 1.14
0.254 0.593 1.13
0.246 0.583 1.121
0.237 0.568 1.11
0.231 0.562 1.103
0.225 0.555 1.096
0.216 0.54 1.086
0.211 0.535 1.08
0.204 0.526 1.073
0.199 0.52 1.066
0.191 0.503 1.057
0.177 0.468 1.041
0.17 0.451 1.033
0.167 0.452 1.03
0.164 0.452 1.026
0.159 0.446 1.021
0.155 0.441 1.016
0.15 0.433 1.011
0.148 0.434 1.008
0.145 0.432 1.004
0.142 0.432 1.001
0.141 0.441 1
0.139 0.444 0.997
0.136 0.444 0.994
0.132 0.44 0.99
0.129 0.435 0.986
0.128 0.446 0.985
0.125 0.445 0.982
0.124 0.452 0.98
0.12 0.449 0.976
0.12 0.463 0.976
0.115 0.45 0.97
0.114 0.46 0.969
0.112 0.465 0.966
0.109 0.464 0.963
0.107 0.472 0.961
0.104 0.472 0.958
0.1 0.458 0.953
0.098 0.462 0.95
0.095 0.464 0.947
0.093 0.467 0.944
0.091 0.476 0.942
0.088 0.477 0.939
0.085 0.476 0.936
0.083 0.484 0.933
0.08 0.481 0.93
0.078 0.49 0.927
0.075 0.498 0.925
0.073 0.497 0.921
0.07 0.498 0.918
0.067 0.509 0.915
0.064 0.506 0.912
0.061 0.509 0.909
0.059 0.517 0.905
0.056 0.519 0.902
0.053 0.528 0.899
0.05 0.531 0.895
0.047 0.526 0.892
0.046 -0.55 0.892
0.049 -0.549 0.896
0.052 -0.549 0.899
0.056 -0.559 0.903
0.059 -0.56 0.907
0.062 -0.558 0.911
0.066 -0.569 0.915
0.069 -0.568 0.919
0.072 -0.577 0.923
0.076 -0.575 0.927
0.08 -0.586 0.931
0.083 -0.583 0.935
0.087 -0.593 0.939
0.09 -0.593 0.943
0.094 -0.599 0.948
0.098 -0.607 0.953
0.102 -0.614 0.958
0.106 -0.614 0.962
0.11 -0.615 0.966
0.114 -0.622 0.971
0.117 -0.621 0.975
0.121 -0.618 0.979
0.127 -0.635 0.986
0.13 -0.633 0.99
0.134 -0.638 0.995
0.139 -0.643 1
0.144 -0.652 1.006
0.148 -0.649 1.01
0.153 -0.657 1.016
0.157 -0.659 1.022
0.162 -0.666 1.028
0.166 -0.666 1.032
0.173 -0.678 1.04
0.185 -0.719 1.054
0.247 -1.008 1.126
0.353 -1.494 1.25
0.366 -1.511 1.265
0.38 -1.532 1.281
0.394 -1.553 1.298
0.408 -1.571 1.314
0.423 -1.592 1.332
0.437 -1.605 1.347
0.455 -1.637 1.369
0.471 -1.655 1.387
0.489 -1.685 1.409
0.507 -1.707 1.429
0.523 -1.726 1.448
0.531 -1.712 1.457
0.527 -1.66 1.453
0.548 -1.693 1.478
0.567 -1.717 1.5
0.593 -1.762 1.53
0.618 -1.799 1.558
0.64 -1.828 1.584
0.673 -1.891 1.623
0.721 -1.99 1.678
0.748 -2.027 1.71
0.776 -2.064 1.743
0.806 -2.106 1.778
0.836 -2.143 1.812
0.872 -2.197 1.855
0.904 -2.238 1.892
0.942 -2.289 1.936
0.98 -2.34 1.98
1.022 -2.398 2.03
1.065 -2.457 2.08
1.113 -2.523 2.135
1.161 -2.586 2.191
1.211 -2.653 2.25
1.266 -2.725 2.313
1.328 -2.812 2.387
1.392 -2.897 2.461
1.465 -3 2.546
1.534 -3.088 2.626
1.618 -3.203 2.724
1.704 -3.318 2.824
1.809 -3.466 2.947
1.909 -3.597 3.064
2.037 -3.776 3.213
2.158 -3.934 3.353
2.309 -4.141 3.529
2.465 -4.35 3.711
2.659 -4.616 3.937
2.871 -4.903 4.185
2.919 -4.9 4.241
2.906 -4.792 4.225
2.915 -4.724 4.235
2.897 -4.613 4.215
2.916 -4.563 4.237
2.901 -4.461 4.219
2.918 -4.41 4.239
2.894 -4.298 4.211
2.911 -4.248 4.231
2.896 -4.153 4.213
2.907 -4.097 4.227
2.895 -4.008 4.212
2.902 -3.949 4.221
2.889 -3.862 4.205
2.903 -3.814 4.222
2.895 -3.736 4.212
2.906 -3.685 4.225
2.892 -3.603 4.209
2.905 -3.556 4.225
2.897 -3.483 4.215
2.91 -3.437 4.23
2.897 -3.36 4.215
2.905 -3.308 4.224
2.894 -3.236 4.212
2.909 -3.195 4.229
2.895 -3.12 4.212
2.907 -3.077 4.227
2.889 -3.001 4.206
2.902 -2.958 4.221
2.889 -2.89 4.206
2.906 -2.852 4.225
2.886 -2.778 4.202
2.907 -2.745 4.226
2.911 -2.696 4.231
2.927 -2.658 4.25
2.954 -2.631 4.281
2.97 -2.592 4.299
2.901 -2.481 4.22
2.909 -2.437 4.229
2.929 -2.403 4.252
2.953 -2.374 4.28
2.92 -2.297 4.241
2.96 -2.28 4.288
2.912 -2.194 4.232
2.93 -2.16 4.253
2.95 -2.127 4.277
2.97 -2.094 4.3
2.906 -2.001 4.225
2.9 -1.951 4.218
2.883 -1.894 4.198
2.894 -1.856 4.211
2.882 -1.804 4.197
2.892 -1.766 4.209
2.88 -1.714 4.195
2.895 -1.679 4.212
2.882 -1.628 4.197
2.896 -1.593 4.213
2.881 -1.542 4.197
2.905 -1.512 4.224
2.879 -1.456 4.194
2.892 -1.42 4.209
2.884 -1.374 4.199
2.891 -1.336 4.208
2.882 -1.29 4.197
2.895 -1.255 4.213
2.886 -1.21 4.202
2.899 -1.174 4.217
2.89 -1.129 4.207
2.899 -1.092 4.217
2.883 -1.046 4.198
2.892 -1.009 4.209
2.884 -0.966 4.2
2.895 -0.93 4.213
2.883 -0.886 4.199
2.895 -0.85 4.213
2.881 -0.807 4.196
2.892 -0.77 4.208
2.884 -0.729 4.199
2.895 -0.693 4.212
2.882 -0.651 4.197
2.896 -0.615 4.214
2.882 -0.573 4.198
2.892 -0.537 4.209
2.877 -0.495 4.191
2.892 -0.459 4.209
2.877 -0.419 4.192
2.898 -0.383 4.216
2.88 -0.343 4.195
2.893 -0.306 4.21
2.876 -0.266 4.19
2.894 -0.229 4.212
2.877 -0.19 4.192
2.885 -0.152 4.201
2.873 -0.114 4.187
2.887 -0.076 4.203
2.875 -0.038 4.189
2.887 -0 4.203
2.875 0.038 4.189
2.887 0.076 4.203
2.869 0.114 4.182
2.886 0.152 4.202
2.873 0.19 4.187
2.889 0.229 4.205
2.879 0.266 4.193
2.883 0.305 4.198
2.873 0.342 4.187
2.884 0.381 4.2
2.877 0.419 4.191
2.887 0.458 4.203
2.874 0.495 4.187
2.886 0.535 4.202
2.866 0.57 4.179
2.887 0.613 4.203
2.871 0.648 4.185
2.884 0.69 4.2
2.868 0.725 4.18
2.883 0.768 4.199
2.866 0.803 4.179
2.879 0.846 4.194
2.869 0.882 4.182
2.881 0.925 4.196
2.864 0.959 4.177
2.884 1.006 4.199
2.866 1.04 4.179
2.872 1.082 4.185
2.861 1.118 4.173
2.93 1.187 4.253
2.967 1.244 4.296
2.925 1.268 4.247
2.925 1.31 4.247
2.954 1.365 4.281
2.86 1.362 4.172
2.875 1.411 4.189
2.861 1.447 4.173
2.871 1.494 4.184
2.856 1.528 4.167
2.869 1.578 4.183
2.856 1.613 4.166
2.868 1.664 4.181
2.853 1.698 4.163
2.865 1.749 4.178
2.855 1.787 4.166
2.868 1.84 4.181
2.858 1.877 4.169
2.869 1.93 4.182
2.857 1.967 4.168
2.867 2.02 4.18
2.856 2.058 4.167
2.865 2.111 4.177
2.857 2.152 4.169
2.861 2.202 4.172
2.849 2.241 4.159
2.858 2.296 4.17
2.846 2.334 4.155
2.858 2.394 4.169
2.844 2.431 4.153
2.857 2.492 4.168
0.819 0.699 1.793
0.816 0.71 1.789
0.807 0.716 1.779
0.802 0.725 1.773
0.794 0.732 1.764
0.785 0.736 1.753
0.786 0.752 1.754
0.78 0.76 1.747
0.772 0.766 1.738
0.767 0.775 1.733
0.763 0.785 1.728
0.763 0.8 1.728
0.758 0.809 1.722
0.753 0.818 1.716
0.753 0.833 1.716
0.745 0.839 1.707
0.751 0.862 1.714
0.733 0.855 1.693
2.824 3.516 4.129
2.834 3.592 4.141
2.827 3.647 4.133
2.828 3.713 4.134
2.817 3.764 4.121
2.506 3.401 3.759
2.096 2.885 3.281
1.732 2.414 2.856
1.604 2.271 2.708
0.802 1.121 1.773
0.893 1.278 1.88
0.718 1.032 1.676
0.773 1.136 1.74
0.679 1.006 1.629
0.683 1.031 1.635
0.65 0.994 1.596
0.64 0.995 1.584
0.632 1 1.575
0.632 1.016 1.575
0.601 0.98 1.538
0.59 0.978 1.526
0.584 0.984 1.519
0.58 0.995 1.514
0.561 0.977 1.493
0.53 0.934 1.456
0.51 0.911 1.432
0.488 0.884 1.407
0.468 0.86 1.384
0.449 0.836 1.362
0.43 0.811 1.339
0.414 0.793 1.321
0.399 0.775 1.304
0.381 0.749 1.283
0.371 0.74 1.271
0.356 0.718 1.253
0.32 0.647 1.211
0.287 0.579 1.172
0.282 0.58 1.167
0.281 0.587 1.165
0.276 0.588 1.16
0.275 0.597 1.159
0.271 0.598 1.154
0.271 0.611 1.155
0.266 0.61 1.149
0.26 0.604 1.141
0.251 0.592 1.131
0.241 0.574 1.119
0.235 0.569 1.112
0.228 0.561 1.104
0.223 0.555 1.098
0.214 0.541 1.088
0.211 0.543 1.084
0.202 0.525 1.074
0.197 0.519 1.068
0.188 0.5 1.057
0.175 0.468 1.043
0.17 0.461 1.037
0.165 0.452 1.031
0.162 0.451 1.027
0.158 0.446 1.022
0.152 0.434 1.015
0.149 0.435 1.012
0.146 0.435 1.009
0.143 0.431 1.005
0.14 0.431 1.002
0.14 0.443 1.001
0.137 0.444 0.999
0.134 0.442 0.995
0.131 0.441 0.991
0.129 0.443 0.989
0.127 0.446 0.986
0.124 0.446 0.983
0.122 0.451 0.981
0.119 0.449 0.977
0.117 0.454 0.975
0.115 0.459 0.973
0.112 0.459 0.969
0.111 0.466 0.967
0.108 0.464 0.964
0.106 0.47 0.962
0.103 0.471 0.958
0.098 0.456 0.953
0.096 0.46 0.951
0.094 0.465 0.948
0.092 0.467 0.945
0.09 0.474 0.943
0.087 0.476 0.94
0.085 0.485 0.937
0.082 0.484 0.934
0.08 0.49 0.931
0.077 0.49 0.928
0.075 0.498 0.925
0.072 0.498 0.922
0.069 0.506 0.919
0.066 0.508 0.916
0.063 0.506 0.912
0.061 0.518 0.909
0.058 0.517 0.906
0.055 0.518 0.902
0.052 0.518 0.899
0.049 0.531 0.896
0.046 0.526 0.892
0.045 -0.549 0.893
0.049 -0.549 0.896
0.052 -0.558 0.9
0.055 -0.559 0.904
0.058 -0.556 0.907
0.061 -0.557 0.911
0.065 -0.57 0.915
0.068 -0.568 0.919
0.072 -0.577 0.923
0.075 -0.575 0.927
0.079 -0.586 0.932
0.082 -0.584 0.935
0.086 -0.593 0.94
0.089 -0.593 0.944
0.093 -0.599 0.949
0.097 -0.607 0.954
0.1 -0.606 0.958
0.104 -0.604 0.961
0.108 -0.615 0.967
0.113 -0.622 0.972
0.116 -0.62 0.976
0.121 -0.628 0.981
0.124 -0.624 0.985
0.128 -0.63 0.99
0.133 -0.638 0.996
0.138 -0.643 1.001
0.143 -0.653 1.008
0.146 -0.649 1.011
0.151 -0.656 1.017
0.155 -0.658 1.023
0.161 -0.669 1.029
0.165 -0.666 1.034
0.171 -0.678 1.041
0.18 -0.706 1.052
0.231 -0.941 1.112
0.348 -1.484 1.25
0.362 -1.508 1.267
0.376 -1.532 1.284
0.389 -1.545 1.299
0.403 -1.562 1.315
0.419 -1.59 1.334
0.433 -1.605 1.351
0.449 -1.626 1.369
0.466 -1.655 1.39
0.483 -1.676 1.41
0.499 -1.697 1.429
0.519 -1.727 1.452
0.53 -1.725 1.465
0.522 -1.657 1.456
0.542 -1.686 1.479
0.561 -1.714 1.503
0.587 -1.76 1.534
0.61 -1.791 1.56
0.632 -1.822 1.586
0.665 -1.882 1.625
0.711 -1.982 1.68
0.738 -2.018 1.712
0.766 -2.056 1.745
0.797 -2.099 1.781
0.825 -2.135 1.815
0.862 -2.189 1.858
0.892 -2.225 1.893
0.93 -2.28 1.939
0.968 -2.331 1.983
1.01 -2.39 2.033
1.05 -2.442 2.08
1.1 -2.515 2.14
1.144 -2.57 2.192
1.194 -2.638 2.251
1.248 -2.71 2.315
1.31 -2.797 2.388
1.37 -2.876 2.459
1.445 -2.984 2.548
1.509 -3.064 2.624
1.596 -3.187 2.726
1.676 -3.291 2.821
1.777 -3.433 2.941
1.873 -3.559 3.055
2 -3.738 3.204
2.12 -3.898 3.347
2.268 -4.103 3.522
2.412 -4.292 3.692
2.61 -4.57 3.926
2.805 -4.832 4.157
2.869 -4.856 4.232
2.85 -4.741 4.21
2.866 -4.685 4.229
2.852 -4.581 4.212
2.863 -4.52 4.226
2.846 -4.414 4.205
2.859 -4.359 4.221
2.844 -4.26 4.203
2.857 -4.205 4.218
2.838 -4.105 4.196
2.857 -4.061 4.218
2.842 -3.97 4.201
2.851 -3.913 4.211
2.841 -3.831 4.199
2.858 -3.787 4.219
2.845 -3.703 4.204
2.862 -3.661 4.224
2.847 -3.577 4.207
2.863 -3.534 4.225
2.849 -3.454 4.209
2.863 -3.41 4.226
2.849 -3.332 4.209
2.858 -3.283 4.219
2.847 -3.211 4.206
2.862 -3.17 4.224
2.845 -3.093 4.204
2.857 -3.05 4.219
2.84 -2.975 4.198
2.852 -2.932 4.212
2.842 -2.867 4.201
2.851 -2.822 4.211
2.842 -2.76 4.2
2.865 -2.729 4.228
2.882 -2.692 4.248
2.899 -2.656 4.268
2.89 -2.595 4.257
2.849 -2.507 4.209
2.868 -2.473 4.231
2.882 -2.436 4.248
2.89 -2.392 4.257
2.917 -2.365 4.289
2.845 -2.257 4.204
2.861 -2.222 4.223
2.885 -2.193 4.251
2.895 -2.152 4.263
2.894 -2.105 4.262
2.892 -2.056 4.259
2.833 -1.967 4.189
2.846 -1.932 4.206
2.83 -1.875 4.186
2.84 -1.838 4.198
2.829 -1.786 4.185
2.845 -1.752 4.204
2.827 -1.697 4.183
2.842 -1.662 4.2
2.829 -1.612 4.185
2.843 -1.577 4.202
2.83 -1.527 4.186
2.844 -1.492 4.202
2.834 -1.445 4.191
2.845 -1.409 4.204
2.83 -1.36 4.187
2.844 -1.325 4.202
2.835 -1.28 4.192
2.848 -1.245 4.207
2.834 -1.198 4.191
2.85 -1.164 4.21
2.834 -1.117 4.191
2.846 -1.081 4.205
2.829 -1.035 4.185
2.847 -1.002 4.206
2.83 -0.956 4.186
2.841 -0.92 4.199
2.828 -0.877 4.184
2.84 -0.841 4.198
2.826 -0.798 4.181
2.842 -0.764 4.201
2.829 -0.721 4.185
2.844 -0.687 4.203
2.831 -0.645 4.188
2.848 -0.61 4.208
2.834 -0.569 4.191
2.843 -0.532 4.202
2.835 -0.492 4.192
2.844 -0.456 4.202
2.829 -0.415 4.185
2.843 -0.379 4.201
2.831 -0.34 4.187
2.841 -0.303 4.199
2.827 -0.264 4.183
2.84 -0.227 4.198
2.825 -0.188 4.18
2.836 -0.151 4.193
2.826 -0.113 4.181
2.832 -0.075 4.188
2.822 -0.038 4.176
2.833 -0 4.189
2.822 0.038 4.176
2.832 0.075 4.189
2.821 0.113 4.176
2.837 0.151 4.195
2.825 0.188 4.181
2.835 0.226 4.192
2.823 0.263 4.178
2.836 0.302 4.193
2.825 0.339 4.18
2.837 0.378 4.194
2.822 0.414 4.176
2.837 0.454 4.195
2.822 0.49 4.177
2.827 0.529 4.182
2.818 0.565 4.172
2.832 0.607 4.188
2.818 0.642 4.172
2.836 0.685 4.193
2.819 0.719 4.173
2.829 0.76 4.185
2.817 0.796 4.171
2.825 0.837 4.18
2.814 0.872 4.167
2.828 0.916 4.184
2.816 0.951 4.17
2.828 0.995 4.184
2.818 1.031 4.172
2.827 1.074 4.183
2.811 1.108 4.163
2.818 1.151 4.172
2.813 1.189 4.166
2.9 1.268 4.269
2.876 1.299 4.24
2.817 1.312 4.171
