# .PCD v0.7 - Point Cloud Data file format
VERSION 0.7
FIELDS x y z
SIZE 4 4 4
TYPE F F F
COUNT 1 1 1
WIDTH 2555
HEIGHT 1
VIEWPOINT 0 0 0 1 0 0 0
POINTS 2555
DATA ascii
4.848 3.41 2.433
4.766 3.416 2.403
4.687 3.423 2.373
4.608 3.428 2.344
4.527 3.43 2.313
4.451 3.435 2.285
4.377 3.44 2.257
4.309 3.449 2.232
4.235 3.451 2.204
4.164 3.455 2.178
4.094 3.457 2.151
4.024 3.459 2.125
3.96 3.466 2.102
3.889 3.464 2.075
3.825 3.467 2.051
3.769 3.477 2.03
3.665 3.441 1.991
3.608 3.447 1.97
3.558 3.459 1.951
3.495 3.457 1.928
3.432 3.455 1.904
3.378 3.46 1.884
3.322 3.462 1.863
3.273 3.471 1.845
3.218 3.472 1.824
3.164 3.473 1.804
3.116 3.481 1.786
3.062 3.481 1.766
3.015 3.487 1.748
2.968 3.494 1.731
2.919 3.495 1.713
2.868 3.495 1.694
2.822 3.5 1.677
2.775 3.503 1.659
2.729 3.505 1.642
2.682 3.507 1.624
2.642 3.517 1.609
2.596 3.518 1.592
2.55 3.518 1.575
2.505 3.517 1.558
2.463 3.523 1.543
2.424 3.53 1.528
2.378 3.526 1.511
2.332 3.522 1.493
2.296 3.532 1.48
2.253 3.531 1.464
2.217 3.541 1.451
2.183 3.553 1.438
2.148 3.562 1.425
2.118 3.58 1.413
2.079 3.584 1.399
2.035 3.576 1.382
1.996 3.577 1.368
1.954 3.572 1.352
1.92 3.582 1.34
1.881 3.581 1.325
1.843 3.58 1.311
1.797 3.564 1.294
1.628 3.293 1.23
1.593 3.291 1.217
1.562 3.299 1.206
1.527 3.295 1.193
1.496 3.3 1.181
1.465 3.303 1.17
1.43 3.3 1.157
1.399 3.303 1.145
1.368 3.306 1.133
1.338 3.311 1.122
1.308 3.314 1.111
1.277 3.316 1.099
1.246 3.319 1.088
1.216 3.321 1.077
1.185 3.321 1.065
1.155 3.324 1.054
1.125 3.325 1.042
1.094 3.324 1.031
1.064 3.327 1.02
1.034 3.327 1.009
1.004 3.327 0.998
0.977 3.336 0.987
0.947 3.335 0.976
0.92 3.343 0.966
0.89 3.342 0.955
0.86 3.339 0.944
0.833 3.348 0.933
0.803 3.346 0.922
0.774 3.343 0.911
0.746 3.35 0.901
0.717 3.347 0.89
0.689 3.353 0.88
0.662 3.358 0.87
0.634 3.364 0.859
0.605 3.361 0.848
0.578 3.366 0.838
0.549 3.361 0.827
0.522 3.374 0.817
0.493 3.369 0.807
0.466 3.374 0.796
0.438 3.378 0.786
0.409 3.371 0.775
0.382 3.374 0.765
0.354 3.376 0.755
0.325 3.366 0.744
0.3 3.392 0.734
0.292 3.67 0.732
0.262 3.672 0.72
0.232 3.674 0.709
0.202 3.676 0.698
0.169 3.597 0.685
0.133 3.4 0.672
0.104 3.359 0.661
0.076 3.348 0.651
0.049 3.339 0.641
0.022 0.194 0.631
0.021 -0.097 0.631
0.056 -4.25 0.645
0.09 -4.259 0.658
0.125 -4.254 0.672
0.159 -4.249 0.686
0.194 -4.251 0.699
0.228 -4.241 0.713
0.262 -4.238 0.726
0.306 -4.383 0.744
0.342 -4.38 0.758
0.377 -4.375 0.772
0.404 -4.28 0.783
0.44 -4.282 0.797
0.477 -4.304 0.812
0.513 -4.307 0.826
0.55 -4.324 0.841
0.587 -4.329 0.855
0.623 -4.334 0.869
0.66 -4.339 0.884
0.695 -4.334 0.898
0.73 -4.325 0.912
0.767 -4.328 0.926
0.809 -4.361 0.943
0.856 -4.415 0.962
0.892 -4.409 0.976
0.909 -4.306 0.982
0.948 -4.318 0.998
0.991 -4.346 1.015
1.031 -4.355 1.031
1.084 -4.419 1.052
1.125 -4.432 1.068
1.164 -4.433 1.084
1.205 -4.44 1.1
1.243 -4.436 1.115
1.282 -4.436 1.13
1.321 -4.434 1.146
1.362 -4.44 1.162
1.401 -4.436 1.178
1.443 -4.443 1.194
1.486 -4.448 1.211
1.528 -4.453 1.228
1.567 -4.448 1.243
1.613 -4.462 1.262
1.653 -4.456 1.277
1.696 -4.459 1.294
1.74 -4.463 1.312
1.783 -4.465 1.329
1.827 -4.466 1.346
1.871 -4.469 1.364
1.919 -4.479 1.383
1.963 -4.479 1.4
2.008 -4.48 1.418
2.056 -4.488 1.437
2.101 -4.486 1.455
2.15 -4.493 1.474
2.199 -4.501 1.494
2.244 -4.497 1.511
2.294 -4.503 1.531
2.34 -4.499 1.549
2.39 -4.503 1.569
2.446 -4.517 1.591
0 0 0
0 0 0
0 0 0
0 0 0
0 0 0
0 0 0
0 0 0
0 0 0
1.496 -2.308 1.215
1.482 -2.244 1.209
1.5 -2.23 1.217
0 0 0
3.165 -4.57 1.876
3.218 -4.563 1.897
3.277 -4.563 1.92
3.337 -4.565 1.944
3.404 -4.574 1.971
3.464 -4.574 1.995
3.531 -4.58 2.021
3.591 -4.576 2.045
3.665 -4.589 2.074
3.733 -4.593 2.101
3.802 -4.597 2.129
3.872 -4.6 2.156
3.948 -4.609 2.186
4.018 -4.61 2.214
4.09 -4.611 2.242
0 0 0
0 0 0
0 0 0
0 0 0
0 0 0
0 0 0
0 0 0
0 0 0
0 0 0
0 0 0
0 0 0
0 0 0
0 0 0
5.281 -4.664 2.714
5.304 -4.601 2.723
1.7 -1.437 1.296
5.286 -4.424 2.716
5.268 -4.33 2.709
5.288 -4.269 2.717
5.292 -4.195 2.719
5.296 -4.122 2.72
5.304 -4.053 2.723
5.308 -3.982 2.725
5.315 -3.913 2.728
5.312 -3.838 2.726
5.326 -3.777 2.732
5.325 -3.705 2.732
5.33 -3.638 2.734
5.329 -3.567 2.733
5.341 -3.506 2.738
5.354 -3.447 2.743
5.347 -3.374 2.74
5.352 -3.31 2.742
5.346 -3.241 2.74
5.359 -3.182 2.745
5.358 -3.117 2.745
5.368 -3.058 2.748
5.379 -3 2.753
5.376 -2.935 2.752
5.39 -2.879 2.757
5.377 -2.81 2.752
5.377 -2.748 2.752
5.379 -2.687 2.753
5.379 -2.626 2.753
5.39 -2.571 2.757
5.382 -2.507 2.754
5.385 -2.449 2.755
5.4 -2.396 2.761
5.401 -2.338 2.762
5.403 -2.28 2.763
5.405 -2.223 2.763
5.405 -2.165 2.763
5.411 -2.11 2.766
5.42 -2.056 2.769
5.418 -1.999 2.768
5.428 -1.946 2.772
5.426 -1.889 2.771
5.428 -1.834 2.772
5.432 -1.779 2.774
5.438 -1.726 2.776
5.436 -1.67 2.776
5.441 -1.617 2.777
5.444 -1.563 2.779
5.45 -1.51 2.781
5.459 -1.458 2.785
5.454 -1.403 2.782
5.458 -1.35 2.784
5.459 -1.297 2.785
5.459 -1.243 2.785
5.47 -1.192 2.789
5.471 -1.14 2.79
5.472 -1.087 2.79
5.471 -1.034 2.789
5.482 -0.983 2.794
5.481 -0.93 2.793
5.487 -0.879 2.796
5.488 -0.826 2.796
5.493 -0.775 2.798
5.492 -0.723 2.798
5.498 -0.671 2.8
5.503 -0.62 2.802
5.495 -0.567 2.799
5.505 -0.516 2.803
5.5 -0.464 2.801
5.509 -0.413 2.804
5.505 -0.361 2.803
5.517 -0.31 2.807
5.515 -0.258 2.807
5.52 -0.207 2.809
5.531 -0.155 2.813
5.528 -0.103 2.812
5.531 -0.052 2.813
5.533 -0 2.814
5.54 0.052 2.817
5.539 0.104 2.816
5.544 0.156 2.818
5.546 0.208 2.819
5.55 0.26 2.821
5.55 0.312 2.821
5.551 0.364 2.821
5.56 0.417 2.825
5.555 0.468 2.823
5.56 0.521 2.825
5.565 0.574 2.826
5.569 0.627 2.828
5.575 0.681 2.83
5.576 0.734 2.831
5.58 0.787 2.833
5.583 0.841 2.834
5.583 0.894 2.834
5.586 0.948 2.835
5.586 1.002 2.835
5.597 1.058 2.839
5.597 1.111 2.839
5.607 1.168 2.843
5.609 1.223 2.844
5.615 1.279 2.846
5.626 1.337 2.851
5.623 1.391 2.85
5.621 1.446 2.849
5.628 1.504 2.851
5.633 1.561 2.854
5.642 1.62 2.857
5.637 1.675 2.855
5.643 1.734 2.858
5.645 1.792 2.858
5.647 1.85 2.859
5.65 1.909 2.86
5.652 1.968 2.861
5.662 2.03 2.865
5.662 2.089 2.865
5.663 2.149 2.866
5.67 2.212 2.868
5.669 2.271 2.868
5.677 2.335 2.871
5.674 2.395 2.87
5.68 2.459 2.872
5.684 2.523 2.874
5.688 2.587 2.875
5.693 2.652 2.877
5.695 2.717 2.878
5.698 2.783 2.879
5.692 2.844 2.877
5.696 2.911 2.878
5.703 2.981 2.881
5.704 3.048 2.882
5.704 3.114 2.882
5.714 3.187 2.886
5.71 3.253 2.884
5.731 3.334 2.892
5.651 3.356 2.861
5.533 3.354 2.814
5.452 3.373 2.782
5.352 3.377 2.742
5.253 3.381 2.703
5.156 3.384 2.664
5.068 3.392 2.63
4.986 3.402 2.597
4.895 3.405 2.561
4.812 3.41 2.528
4.728 3.414 2.495
4.646 3.419 2.463
4.566 3.423 2.431
4.493 3.431 2.402
4.411 3.43 2.369
4.346 3.442 2.344
4.274 3.447 2.315
4.203 3.452 2.287
4.133 3.456 2.26
4.062 3.457 2.231
3.993 3.459 2.204
3.93 3.466 2.179
3.866 3.47 2.154
3.803 3.474 2.129
3.741 3.478 2.104
3.633 3.437 2.061
3.586 3.452 2.043
3.531 3.459 2.021
3.466 3.456 1.995
3.407 3.456 1.972
3.352 3.46 1.95
3.303 3.469 1.931
3.248 3.47 1.909
3.193 3.472 1.887
3.139 3.473 1.866
3.091 3.48 1.847
3.037 3.479 1.826
2.99 3.485 1.807
2.945 3.493 1.789
2.896 3.495 1.77
2.846 3.495 1.75
2.8 3.499 1.731
2.753 3.502 1.713
2.708 3.506 1.695
2.662 3.507 1.677
2.616 3.508 1.659
2.576 3.518 1.643
2.53 3.517 1.625
2.485 3.517 1.607
2.445 3.523 1.591
2.405 3.53 1.575
2.36 3.527 1.557
2.32 3.531 1.541
2.279 3.534 1.525
2.238 3.535 1.509
2.194 3.532 1.492
2.155 3.535 1.476
2.114 3.534 1.46
2.079 3.541 1.446
2.043 3.549 1.432
2.013 3.566 1.42
1.977 3.571 1.406
1.948 3.59 1.394
1.91 3.59 1.379
1.869 3.586 1.363
1.832 3.587 1.348
1.761 3.519 1.32
1.613 3.288 1.261
1.58 3.291 1.248
1.55 3.298 1.236
1.515 3.295 1.223
1.484 3.299 1.21
1.453 3.303 1.198
1.419 3.299 1.184
1.389 3.304 1.173
1.358 3.307 1.16
1.328 3.311 1.148
1.297 3.314 1.136
1.267 3.317 1.124
1.233 3.31 1.111
1.206 3.321 1.1
1.176 3.322 1.088
1.146 3.325 1.077
1.116 3.325 1.064
1.086 3.325 1.053
1.056 3.327 1.041
1.026 3.327 1.029
0.996 3.326 1.017
0.969 3.335 1.006
0.939 3.334 0.995
0.912 3.343 0.984
0.883 3.341 0.972
0.853 3.339 0.96
0.826 3.347 0.95
0.797 3.346 0.938
0.767 3.343 0.926
0.74 3.349 0.916
0.711 3.346 0.904
0.684 3.352 0.893
0.656 3.358 0.883
0.627 3.354 0.871
0.6 3.36 0.86
0.573 3.365 0.849
0.544 3.36 0.838
0.518 3.374 0.828
0.489 3.369 0.816
0.461 3.363 0.805
0.433 3.368 0.794
0.406 3.371 0.783
0.379 3.374 0.772
0.35 3.363 0.761
0.322 3.363 0.75
0.297 3.39 0.74
0.289 3.66 0.737
0.26 3.672 0.725
0.23 3.674 0.714
0.2 3.676 0.702
0.167 3.593 0.689
0.132 3.402 0.675
0.103 3.361 0.663
0.075 3.348 0.652
0.048 3.338 0.642
0.021 0.174 0.631
0.021 -0.112 0.631
0.055 -4.251 0.645
0.09 -4.259 0.659
0.124 -4.254 0.673
0.159 -4.25 0.686
0.193 -4.251 0.7
0.227 -4.242 0.714
0.262 -4.248 0.728
0.305 -4.383 0.745
0.341 -4.381 0.76
0.376 -4.376 0.774
0.402 -4.269 0.784
0.439 -4.283 0.799
0.475 -4.293 0.813
0.513 -4.317 0.829
0.549 -4.325 0.843
0.586 -4.329 0.858
0.622 -4.334 0.872
0.658 -4.338 0.887
0.694 -4.332 0.901
0.729 -4.325 0.915
0.765 -4.328 0.93
0.808 -4.364 0.947
0.853 -4.405 0.965
0.891 -4.411 0.981
0.908 -4.311 0.987
0.946 -4.316 1.002
0.988 -4.342 1.02
1.036 -4.387 1.039
1.081 -4.419 1.057
1.122 -4.427 1.073
1.162 -4.434 1.089
1.201 -4.435 1.105
1.241 -4.437 1.121
1.277 -4.428 1.136
1.318 -4.434 1.152
1.359 -4.44 1.169
1.399 -4.437 1.184
1.441 -4.443 1.201
1.483 -4.448 1.218
1.525 -4.453 1.235
1.564 -4.448 1.251
1.607 -4.452 1.268
1.65 -4.456 1.285
1.693 -4.459 1.303
1.736 -4.463 1.32
1.78 -4.465 1.338
1.827 -4.477 1.357
1.867 -4.469 1.373
1.915 -4.479 1.392
1.959 -4.479 1.41
2.004 -4.48 1.428
2.052 -4.488 1.447
2.101 -4.495 1.466
2.145 -4.492 1.484
2.195 -4.5 1.504
2.24 -4.497 1.522
2.289 -4.502 1.542
2.335 -4.499 1.561
2.385 -4.503 1.581
2.437 -4.509 1.601
0 0 0
0 0 0
0 0 0
0 0 0
0 0 0
0 0 0
0 0 0
0 0 0
1.5 -2.319 1.225
1.474 -2.237 1.215
1.501 -2.236 1.225
0 0 0
3.154 -4.563 1.89
3.211 -4.563 1.913
3.276 -4.571 1.939
3.33 -4.565 1.96
3.397 -4.574 1.987
3.458 -4.574 2.012
3.525 -4.58 2.038
3.585 -4.577 2.063
3.658 -4.589 2.092
3.725 -4.592 2.119
3.795 -4.597 2.147
3.864 -4.6 2.175
3.934 -4.602 2.203
4.01 -4.61 2.233
4.08 -4.609 2.261
4.169 -4.629 2.297
4.294 -4.686 2.348
0 0 0
0 0 0
0 0 0
0 0 0
0 0 0
0 0 0
0 0 0
4.92 -4.671 2.599
5.026 -4.689 2.642
5.115 -4.688 2.677
5.206 -4.688 2.714
5.264 -4.658 2.737
5.274 -4.584 2.741
5.26 -4.491 2.735
5.275 -4.424 2.742
5.283 -4.351 2.745
5.286 -4.276 2.746
5.289 -4.201 2.747
5.292 -4.127 2.749
5.299 -4.057 2.751
5.304 -3.986 2.753
5.309 -3.917 2.755
5.299 -3.837 2.751
5.301 -3.766 2.752
5.317 -3.706 2.758
5.3 -3.624 2.751
5.321 -3.569 2.76
5.314 -3.496 2.757
5.325 -3.434 2.761
5.321 -3.364 2.76
5.337 -3.307 2.766
5.335 -3.24 2.766
5.342 -3.178 2.768
5.339 -3.112 2.767
5.35 -3.053 2.772
5.362 -2.996 2.776
5.358 -2.931 2.775
5.368 -2.873 2.779
5.36 -2.806 2.776
5.378 -2.754 2.783
5.364 -2.685 2.777
5.385 -2.635 2.786
5.389 -2.575 2.787
5.381 -2.512 2.784
5.39 -2.456 2.788
5.391 -2.397 2.788
5.392 -2.339 2.789
5.403 -2.285 2.793
5.393 -2.222 2.789
5.403 -2.168 2.793
5.409 -2.113 2.795
5.409 -2.056 2.795
5.418 -2.003 2.799
5.416 -1.945 2.798
5.421 -1.891 2.8
5.418 -1.834 2.799
5.421 -1.779 2.8
5.425 -1.725 2.802
5.433 -1.672 2.805
5.435 -1.618 2.806
5.443 -1.566 2.809
5.446 -1.512 2.81
5.456 -1.46 2.814
5.452 -1.405 2.813
5.457 -1.352 2.815
5.458 -1.299 2.815
5.458 -1.245 2.815
5.459 -1.192 2.816
5.461 -1.14 2.816
5.47 -1.088 2.82
5.47 -1.035 2.82
5.47 -0.983 2.82
5.481 -0.932 2.824
5.477 -0.879 2.823
5.476 -0.826 2.822
5.482 -0.775 2.825
5.49 -0.724 2.828
5.488 -0.671 2.827
5.492 -0.62 2.829
5.494 -0.568 2.829
5.495 -0.516 2.83
5.497 -0.464 2.831
5.499 -0.413 2.832
5.492 -0.361 2.829
5.498 -0.309 2.831
5.512 -0.258 2.837
5.509 -0.207 2.836
5.52 -0.155 2.84
5.526 -0.104 2.843
5.53 -0.052 2.844
5.531 -0 2.844
5.539 0.052 2.848
5.53 0.104 2.844
5.533 0.156 2.845
5.536 0.208 2.846
5.538 0.26 2.847
5.547 0.312 2.851
5.541 0.364 2.848
5.548 0.417 2.851
5.553 0.469 2.853
5.557 0.522 2.855
5.565 0.575 2.858
5.567 0.628 2.859
5.564 0.681 2.858
5.566 0.734 2.859
5.578 0.788 2.863
5.572 0.841 2.861
5.582 0.896 2.865
5.584 0.95 2.866
5.584 1.003 2.866
5.586 1.058 2.867
5.598 1.114 2.871
5.596 1.168 2.871
5.607 1.225 2.875
5.605 1.279 2.874
5.614 1.336 2.878
5.612 1.391 2.877
5.618 1.448 2.879
5.627 1.506 2.883
5.631 1.564 2.885
5.641 1.623 2.889
5.635 1.678 2.886
5.632 1.734 2.885
5.634 1.792 2.886
5.636 1.85 2.887
5.648 1.912 2.891
5.65 1.971 2.892
5.66 2.033 2.896
5.651 2.089 2.893
5.66 2.152 2.896
5.659 2.212 2.896
5.668 2.275 2.899
5.666 2.335 2.899
5.672 2.399 2.901
5.669 2.459 2.9
5.681 2.526 2.905
5.677 2.587 2.903
5.689 2.656 2.908
5.684 2.717 2.906
5.688 2.783 2.907
5.69 2.849 2.908
5.694 2.916 2.91
5.701 2.985 2.913
5.701 3.052 2.913
5.702 3.119 2.913
5.708 3.191 2.916
5.723 3.267 2.921
5.745 3.349 2.93
5.64 3.356 2.888
5.53 3.359 2.844
5.441 3.373 2.808
5.34 3.377 2.768
5.243 3.381 2.729
5.153 3.389 2.692
5.065 3.397 2.657
4.976 3.402 2.622
4.886 3.405 2.585
4.802 3.41 2.552
4.719 3.415 2.518
4.637 3.419 2.485
4.564 3.428 2.456
4.484 3.431 2.424
4.411 3.437 2.395
4.338 3.442 2.365
4.265 3.447 2.336
4.196 3.452 2.308
4.125 3.456 2.28
4.054 3.457 2.251
3.985 3.459 2.223
3.922 3.465 2.198
3.859 3.47 2.173
3.795 3.474 2.147
3.733 3.477 2.122
3.625 3.436 2.079
3.579 3.452 2.06
3.522 3.458 2.038
3.46 3.456 2.012
3.399 3.455 1.988
3.353 3.468 1.97
3.297 3.47 1.947
3.241 3.47 1.925
3.187 3.472 1.903
3.132 3.472 1.881
3.086 3.481 1.862
3.039 3.488 1.843
2.984 3.485 1.821
2.938 3.491 1.803
2.892 3.497 1.784
2.839 3.494 1.763
2.794 3.499 1.745
2.748 3.502 1.726
2.701 3.504 1.708
2.656 3.507 1.69
2.611 3.508 1.671
2.571 3.518 1.655
2.526 3.518 1.637
2.48 3.516 1.619
2.44 3.523 1.603
2.401 3.53 1.587
2.355 3.527 1.569
2.315 3.531 1.553
2.275 3.534 1.536
2.235 3.537 1.52
2.19 3.532 1.503
2.15 3.532 1.486
2.11 3.534 1.47
2.07 3.534 1.454
2.034 3.539 1.439
2 3.549 1.426
1.966 3.559 1.413
1.938 3.578 1.401
1.904 3.588 1.388
1.868 3.591 1.373
1.831 3.593 1.358
1.736 3.477 1.32
1.614 3.297 1.271
1.577 3.291 1.256
1.547 3.298 1.244
1.512 3.295 1.23
1.481 3.299 1.218
1.446 3.294 1.204
1.416 3.3 1.192
1.386 3.304 1.179
1.355 3.307 1.167
1.325 3.311 1.155
1.295 3.314 1.143
1.264 3.317 1.131
1.234 3.32 1.118
1.204 3.321 1.106
1.173 3.321 1.094
1.143 3.324 1.082
1.113 3.325 1.07
1.083 3.325 1.058
1.054 3.326 1.046
1.024 3.326 1.034
0.994 3.327 1.022
0.967 3.336 1.011
0.938 3.335 0.999
0.911 3.343 0.988
0.881 3.341 0.976
0.851 3.339 0.965
0.824 3.348 0.954
0.795 3.346 0.942
0.765 3.342 0.93
0.738 3.349 0.919
0.709 3.346 0.908
0.682 3.352 0.897
0.655 3.358 0.886
0.626 3.354 0.874
0.599 3.36 0.863
0.572 3.365 0.852
0.543 3.36 0.841
0.517 3.373 0.83
0.488 3.369 0.819
0.461 3.374 0.808
0.434 3.379 0.797
0.405 3.371 0.785
0.378 3.374 0.774
0.35 3.371 0.763
0.321 3.363 0.752
0.296 3.392 0.742
0.288 3.66 0.738
0.259 3.672 0.727
0.229 3.664 0.715
0.2 3.676 0.703
0.166 3.592 0.689
0.131 3.4 0.675
0.103 3.366 0.664
0.075 3.357 0.653
0.048 3.329 0.642
0.021 0.16 0.631
0.021 -0.111 0.631
0.055 -4.25 0.645
0.089 -4.259 0.659
0.124 -4.254 0.673
0.158 -4.25 0.688
0.192 -4.251 0.702
0.226 -4.242 0.716
0.261 -4.248 0.73
0.304 -4.383 0.748
0.34 -4.38 0.762
0.375 -4.377 0.777
0.401 -4.269 0.787
0.437 -4.282 0.802
0.473 -4.294 0.817
0.509 -4.303 0.832
0.547 -4.324 0.847
0.585 -4.338 0.863
0.62 -4.333 0.877
0.656 -4.338 0.892
0.691 -4.332 0.906
0.727 -4.328 0.921
0.763 -4.327 0.936
0.807 -4.37 0.954
0.85 -4.405 0.971
0.89 -4.418 0.988
0.906 -4.315 0.994
0.945 -4.326 1.01
0.992 -4.374 1.03
1.038 -4.411 1.049
1.08 -4.426 1.066
1.121 -4.437 1.083
1.159 -4.438 1.098
1.195 -4.428 1.113
1.235 -4.43 1.129
1.273 -4.428 1.145
1.314 -4.434 1.162
1.355 -4.44 1.179
1.394 -4.436 1.195
1.436 -4.443 1.212
1.478 -4.448 1.229
1.52 -4.453 1.246
1.559 -4.448 1.262
1.602 -4.452 1.28
1.645 -4.456 1.297
1.687 -4.459 1.315
1.731 -4.463 1.333
1.778 -4.475 1.352
1.818 -4.467 1.368
1.862 -4.469 1.386
1.905 -4.469 1.404
1.953 -4.479 1.424
1.998 -4.48 1.442
2.046 -4.488 1.462
2.09 -4.486 1.48
2.139 -4.493 1.5
2.183 -4.49 1.518
2.237 -4.506 1.541
2.283 -4.503 1.559
2.333 -4.509 1.58
2.378 -4.503 1.598
2.431 -4.512 1.62
0 0 0
0 0 0
0 0 0
0 0 0
0 0 0
0 0 0
0 0 0
0 0 0
0 0 0
1.475 -2.245 1.228
1.49 -2.226 1.234
0 0 0
3.146 -4.565 1.913
3.202 -4.563 1.936
3.26 -4.563 1.96
3.32 -4.565 1.985
3.381 -4.566 2.01
3.447 -4.574 2.037
3.514 -4.58 2.064
3.58 -4.585 2.091
3.647 -4.589 2.119
3.714 -4.592 2.147
3.783 -4.597 2.175
3.853 -4.6 2.203
3.922 -4.602 2.232
3.998 -4.61 2.263
4.069 -4.611 2.292
4.135 -4.605 2.319
4.224 -4.623 2.356
4.307 -4.633 2.39
4.386 -4.637 2.422
4.465 -4.639 2.455
4.551 -4.646 2.49
4.637 -4.653 2.525
4.72 -4.655 2.559
4.814 -4.665 2.598
4.895 -4.661 2.631
4.991 -4.67 2.67
5.075 -4.666 2.705
5.17 -4.67 2.744
5.269 -4.676 2.785
5.251 -4.578 2.777
5.265 -4.509 2.783
5.28 -4.441 2.789
5.274 -4.357 2.786
5.276 -4.28 2.787
5.285 -4.21 2.791
5.285 -4.134 2.791
5.295 -4.066 2.795
5.292 -3.99 2.794
5.301 -3.923 2.798
5.301 -3.85 2.798
5.298 -3.775 2.796
5.306 -3.71 2.8
5.309 -3.642 2.801
5.316 -3.576 2.804
5.317 -3.508 2.804
5.328 -3.447 2.809
5.331 -3.381 2.81
5.332 -3.314 2.81
5.337 -3.251 2.812
5.342 -3.188 2.814
5.344 -3.124 2.815
5.349 -3.062 2.817
5.35 -2.999 2.818
5.352 -2.936 2.818
5.357 -2.876 2.821
5.367 -2.819 2.825
5.361 -2.753 2.822
5.363 -2.693 2.823
5.365 -2.632 2.824
5.367 -2.573 2.825
5.366 -2.512 2.824
5.361 -2.45 2.822
5.374 -2.397 2.828
5.377 -2.339 2.829
5.387 -2.285 2.833
5.385 -2.226 2.832
5.387 -2.168 2.833
5.393 -2.113 2.835
5.393 -2.056 2.835
5.401 -2.003 2.839
5.401 -1.946 2.839
5.403 -1.89 2.839
5.41 -1.837 2.842
5.414 -1.782 2.844
5.418 -1.728 2.846
5.416 -1.672 2.845
5.421 -1.619 2.847
5.423 -1.565 2.848
5.435 -1.514 2.853
5.44 -1.46 2.855
5.436 -1.405 2.853
5.439 -1.352 2.854
5.442 -1.299 2.855
5.441 -1.245 2.855
5.452 -1.194 2.86
5.452 -1.141 2.86
5.454 -1.088 2.86
5.454 -1.035 2.86
5.461 -0.984 2.863
5.463 -0.932 2.864
5.469 -0.88 2.866
5.469 -0.828 2.867
5.475 -0.776 2.869
5.472 -0.724 2.868
5.482 -0.673 2.872
5.484 -0.621 2.873
5.478 -0.568 2.87
5.489 -0.517 2.875
5.48 -0.464 2.871
5.483 -0.413 2.872
5.479 -0.361 2.871
5.483 -0.309 2.872
5.503 -0.259 2.88
5.502 -0.207 2.88
5.503 -0.155 2.881
5.517 -0.104 2.886
5.513 -0.052 2.885
5.522 -0 2.888
5.532 0.052 2.892
5.525 0.104 2.889
5.525 0.156 2.89
5.528 0.208 2.891
5.529 0.26 2.891
5.528 0.312 2.891
5.535 0.365 2.893
5.54 0.417 2.896
5.546 0.47 2.898
5.54 0.522 2.896
5.548 0.575 2.899
5.551 0.628 2.9
5.555 0.682 2.902
5.559 0.735 2.903
5.56 0.788 2.904
5.563 0.842 2.905
5.564 0.895 2.905
5.567 0.95 2.907
5.576 1.005 2.91
5.578 1.059 2.911
5.581 1.114 2.913
5.59 1.17 2.916
5.59 1.225 2.916
5.598 1.281 2.919
5.596 1.336 2.919
5.605 1.394 2.922
5.61 1.45 2.924
5.61 1.506 2.924
5.614 1.564 2.926
5.623 1.623 2.93
5.618 1.678 2.928
5.623 1.737 2.93
5.626 1.795 2.931
5.629 1.853 2.932
5.631 1.912 2.933
5.641 1.974 2.937
5.643 2.033 2.938
5.643 2.092 2.938
5.643 2.152 2.938
5.651 2.215 2.941
5.651 2.275 2.941
5.656 2.338 2.943
5.662 2.402 2.946
5.661 2.463 2.945
5.671 2.53 2.95
5.669 2.591 2.948
5.672 2.656 2.95
5.675 2.721 2.951
5.677 2.786 2.952
5.682 2.854 2.954
5.684 2.92 2.955
5.684 2.986 2.955
5.684 3.052 2.955
5.694 3.124 2.959
5.7 3.196 2.961
5.746 3.291 2.98
5.736 3.354 2.976
5.631 3.361 2.933
5.513 3.359 2.885
5.424 3.372 2.848
5.332 3.382 2.81
5.235 3.386 2.77
5.137 3.389 2.73
5.051 3.397 2.695
4.961 3.402 2.658
4.871 3.405 2.621
4.795 3.416 2.59
4.705 3.415 2.553
4.63 3.424 2.522
4.55 3.428 2.49
4.471 3.431 2.457
4.398 3.437 2.427
4.318 3.437 2.394
4.252 3.447 2.367
4.183 3.452 2.339
4.113 3.456 2.31
4.042 3.457 2.281
3.979 3.465 2.255
3.91 3.465 2.227
3.847 3.47 2.201
3.784 3.474 2.175
3.725 3.48 2.151
3.615 3.438 2.106
3.568 3.452 2.086
3.512 3.458 2.064
3.45 3.457 2.038
3.389 3.455 2.013
3.342 3.466 1.994
3.284 3.467 1.97
3.232 3.471 1.949
3.177 3.472 1.926
3.124 3.473 1.904
3.082 3.487 1.887
3.028 3.486 1.865
2.975 3.485 1.843
2.935 3.498 1.827
2.882 3.495 1.805
2.83 3.494 1.784
2.786 3.499 1.766
2.74 3.502 1.747
2.694 3.505 1.728
2.649 3.508 1.71
2.603 3.508 1.691
2.563 3.518 1.674
2.517 3.517 1.656
2.472 3.516 1.637
2.432 3.523 1.621
2.393 3.529 1.604
2.348 3.526 1.586
2.308 3.531 1.57
2.267 3.533 1.553
2.228 3.537 1.537
2.183 3.532 1.518
2.144 3.534 1.502
2.105 3.536 1.486
2.068 3.541 1.471
2.028 3.54 1.455
1.993 3.548 1.44
1.957 3.553 1.426
1.922 3.559 1.411
1.891 3.573 1.398
1.863 3.593 1.387
1.827 3.595 1.372
1.689 3.391 1.316
1.605 3.289 1.281
1.572 3.291 1.268
1.542 3.298 1.255
1.507 3.295 1.241
1.476 3.299 1.228
1.446 3.303 1.216
1.412 3.3 1.202
1.382 3.304 1.19
1.351 3.307 1.177
1.321 3.311 1.165
1.29 3.313 1.152
1.26 3.317 1.14
1.231 3.32 1.128
1.2 3.322 1.115
1.17 3.322 1.103
1.14 3.325 1.091
1.11 3.325 1.078
1.08 3.325 1.066
1.05 3.326 1.054
1.021 3.327 1.042
0.991 3.327 1.029
0.964 3.336 1.018
0.934 3.334 1.006
0.905 3.334 0.994
0.878 3.341 0.983
0.848 3.339 0.971
0.822 3.348 0.96
0.792 3.345 0.948
0.763 3.342 0.936
0.736 3.349 0.925
0.707 3.347 0.913
0.68 3.352 0.902
0.653 3.358 0.891
0.624 3.354 0.879
0.597 3.36 0.868
0.57 3.365 0.856
0.541 3.36 0.845
0.515 3.373 0.834
0.486 3.369 0.822
0.459 3.374 0.811
0.431 3.367 0.799
0.404 3.371 0.788
0.376 3.375 0.777
0.348 3.37 0.766
0.32 3.36 0.754
0.295 3.39 0.744
0.287 3.66 0.741
0.258 3.672 0.729
0.229 3.674 0.716
0.199 3.676 0.704
0.166 3.599 0.691
0.131 3.399 0.676
0.102 3.366 0.665
0.075 3.357 0.653
0.048 3.338 0.642
0.021 0.184 0.631
0.02 -0.104 0.631
0.055 -4.25 0.646
0.089 -4.259 0.66
0.123 -4.254 0.674
0.157 -4.25 0.689
0.192 -4.251 0.703
0.225 -4.241 0.717
0.26 -4.248 0.732
0.303 -4.383 0.75
0.339 -4.381 0.765
0.374 -4.378 0.779
0.401 -4.279 0.791
0.436 -4.282 0.805
0.472 -4.293 0.82
0.509 -4.317 0.836
0.545 -4.324 0.851
0.582 -4.328 0.866
0.619 -4.342 0.882
0.654 -4.338 0.897
0.691 -4.342 0.912
0.726 -4.335 0.927
0.76 -4.327 0.941
0.805 -4.373 0.96
0.847 -4.405 0.978
0.887 -4.42 0.994
0.909 -4.347 1.004
0.943 -4.33 1.018
0.995 -4.402 1.04
1.036 -4.415 1.057
1.077 -4.427 1.074
1.115 -4.428 1.09
1.154 -4.431 1.106
1.192 -4.429 1.122
1.231 -4.431 1.138
1.269 -4.428 1.154
1.31 -4.435 1.172
1.351 -4.44 1.189
1.39 -4.436 1.205
1.431 -4.443 1.222
1.473 -4.448 1.24
1.515 -4.453 1.258
1.554 -4.448 1.274
1.597 -4.452 1.292
1.639 -4.456 1.31
1.682 -4.459 1.327
1.726 -4.463 1.346
1.769 -4.465 1.364
1.812 -4.467 1.382
1.856 -4.469 1.4
1.899 -4.47 1.418
1.946 -4.478 1.438
1.992 -4.48 1.457
2.035 -4.479 1.475
2.084 -4.486 1.496
2.132 -4.493 1.516
2.177 -4.491 1.535
2.226 -4.497 1.555
2.276 -4.503 1.576
2.32 -4.498 1.595
2.37 -4.503 1.616
2.424 -4.513 1.638
0 0 0
0 0 0
0 0 0
0 0 0
0 0 0
0 0 0
0 0 0
0 0 0
0 0 0
1.464 -2.235 1.236
1.484 -2.225 1.245
0 0 0
3.137 -4.567 1.937
3.186 -4.555 1.958
3.251 -4.564 1.985
3.31 -4.565 2.009
3.37 -4.566 2.035
3.431 -4.566 2.06
3.503 -4.58 2.09
3.569 -4.586 2.118
3.635 -4.589 2.146
3.703 -4.593 2.174
3.772 -4.597 2.203
3.841 -4.6 2.232
3.911 -4.603 2.261
3.985 -4.61 2.292
4.058 -4.613 2.323
4.128 -4.612 2.352
4.212 -4.624 2.387
4.284 -4.622 2.417
4.377 -4.642 2.457
4.444 -4.632 2.485
4.529 -4.639 2.52
4.613 -4.643 2.555
4.714 -4.663 2.598
4.789 -4.655 2.629
4.89 -4.671 2.671
4.981 -4.675 2.709
5.072 -4.678 2.748
5.166 -4.681 2.787
5.248 -4.672 2.821
5.248 -4.59 2.821
5.244 -4.505 2.82
5.254 -4.433 2.824
5.256 -4.356 2.825
5.256 -4.277 2.825
5.265 -4.208 2.829
5.268 -4.134 2.83
5.271 -4.06 2.831
5.279 -3.992 2.834
5.276 -3.916 2.833
5.284 -3.849 2.836
5.277 -3.772 2.834
5.284 -3.706 2.836
5.292 -3.641 2.84
5.295 -3.573 2.841
5.302 -3.509 2.844
5.302 -3.441 2.844
5.31 -3.378 2.847
5.311 -3.311 2.848
5.315 -3.248 2.85
5.318 -3.184 2.851
5.326 -3.123 2.854
5.333 -3.062 2.857
5.346 -3.006 2.863
5.333 -2.935 2.857
5.349 -2.88 2.864
5.347 -2.817 2.863
5.345 -2.754 2.862
5.349 -2.694 2.864
5.354 -2.635 2.866
5.351 -2.573 2.864
5.359 -2.517 2.868
5.36 -2.457 2.868
5.367 -2.401 2.871
5.369 -2.343 2.872
5.37 -2.285 2.873
5.375 -2.229 2.875
5.378 -2.172 2.876
5.377 -2.114 2.875
5.382 -2.059 2.878
5.392 -2.005 2.882
5.39 -1.948 2.881
5.393 -1.893 2.882
5.4 -1.839 2.885
5.395 -1.781 2.883
5.4 -1.728 2.885
5.404 -1.674 2.887
5.409 -1.62 2.889
5.413 -1.567 2.891
5.415 -1.513 2.891
5.431 -1.463 2.898
5.429 -1.408 2.897
5.423 -1.352 2.894
5.434 -1.301 2.899
5.435 -1.248 2.9
5.435 -1.194 2.9
5.436 -1.141 2.9
5.437 -1.088 2.901
5.447 -1.037 2.905
5.444 -0.984 2.904
5.446 -0.932 2.904
5.452 -0.88 2.907
5.451 -0.828 2.907
5.459 -0.776 2.91
5.464 -0.725 2.912
5.464 -0.672 2.912
5.467 -0.621 2.913
5.47 -0.569 2.914
5.473 -0.517 2.916
5.472 -0.465 2.915
5.467 -0.413 2.913
5.465 -0.361 2.912
5.475 -0.31 2.917
5.487 -0.259 2.922
5.485 -0.207 2.921
5.495 -0.155 2.925
5.497 -0.104 2.926
5.507 -0.052 2.93
5.504 -0 2.929
5.516 0.052 2.933
5.507 0.104 2.93
5.507 0.156 2.93
5.509 0.208 2.931
5.513 0.26 2.933
5.521 0.313 2.936
5.527 0.365 2.938
5.523 0.417 2.936
5.531 0.47 2.94
5.534 0.523 2.941
5.54 0.576 2.944
5.543 0.629 2.945
5.538 0.682 2.943
5.542 0.735 2.945
5.544 0.788 2.945
5.555 0.843 2.95
5.558 0.897 2.951
5.559 0.951 2.952
5.56 1.005 2.952
5.56 1.059 2.952
5.573 1.116 2.958
5.572 1.17 2.957
5.582 1.227 2.961
5.581 1.282 2.961
5.589 1.338 2.964
5.587 1.393 2.963
5.593 1.45 2.966
5.601 1.509 2.969
5.607 1.566 2.972
5.614 1.625 2.975
5.61 1.681 2.973
5.605 1.736 2.971
5.609 1.795 2.972
5.62 1.856 2.977
5.622 1.915 2.978
5.624 1.974 2.979
5.625 2.033 2.979
5.634 2.096 2.983
5.634 2.155 2.983
5.633 2.215 2.983
5.642 2.279 2.986
5.64 2.339 2.986
5.645 2.402 2.988
5.651 2.466 2.99
5.654 2.53 2.991
5.659 2.595 2.993
5.662 2.66 2.995
5.667 2.726 2.997
5.67 2.791 2.998
5.673 2.858 2.999
5.674 2.924 3
5.674 2.99 3
5.675 3.057 3
5.676 3.124 3.001
5.688 3.199 3.006
5.717 3.284 3.018
5.698 3.342 3.01
5.613 3.361 2.974
5.496 3.359 2.925
5.407 3.372 2.888
5.316 3.382 2.85
5.219 3.387 2.809
5.124 3.39 2.769
5.035 3.397 2.732
4.946 3.402 2.695
4.864 3.411 2.661
4.781 3.416 2.626
4.699 3.421 2.591
4.616 3.424 2.557
4.536 3.428 2.523
4.457 3.431 2.49
4.384 3.437 2.459
4.31 3.442 2.429
4.246 3.453 2.402
4.169 3.452 2.37
4.107 3.462 2.344
4.029 3.457 2.311
3.96 3.459 2.282
3.898 3.465 2.256
3.835 3.47 2.229
3.772 3.474 2.203
3.717 3.484 2.18
3.615 3.448 2.137
3.555 3.451 2.112
3.501 3.458 2.089
3.438 3.456 2.063
3.379 3.456 2.038
3.331 3.466 2.018
3.276 3.469 1.995
3.222 3.471 1.973
3.169 3.474 1.951
3.114 3.473 1.927
3.072 3.487 1.91
3.019 3.486 1.888
2.973 3.494 1.868
2.92 3.491 1.846
2.873 3.495 1.826
2.823 3.495 1.805
2.777 3.499 1.786
2.73 3.501 1.766
2.686 3.506 1.748
2.64 3.507 1.729
2.595 3.509 1.71
2.555 3.517 1.693
2.51 3.518 1.674
2.465 3.517 1.655
2.425 3.523 1.639
2.386 3.53 1.622
2.341 3.527 1.603
2.301 3.531 1.587
2.261 3.534 1.57
2.221 3.537 1.553
2.177 3.532 1.535
2.138 3.535 1.518
2.099 3.537 1.502
2.059 3.537 1.485
2.021 3.539 1.469
1.987 3.549 1.455
1.946 3.544 1.438
1.912 3.552 1.424
1.88 3.564 1.411
1.849 3.576 1.397
1.824 3.602 1.387
1.652 3.327 1.315
1.6 3.29 1.293
1.567 3.291 1.279
1.537 3.298 1.267
1.503 3.295 1.252
1.472 3.299 1.239
1.441 3.303 1.227
1.407 3.3 1.212
1.377 3.304 1.2
1.347 3.307 1.187
1.317 3.311 1.174
1.286 3.313 1.162
1.256 3.316 1.149
1.227 3.32 1.137
1.197 3.322 1.124
1.166 3.322 1.111
1.137 3.325 1.099
1.106 3.325 1.086
1.077 3.325 1.074
1.047 3.327 1.061
1.017 3.326 1.049
0.991 3.336 1.038
0.961 3.335 1.025
0.932 3.335 1.013
0.902 3.334 1.001
0.875 3.342 0.989
0.846 3.339 0.977
0.819 3.347 0.966
0.79 3.345 0.954
0.761 3.343 0.941
0.734 3.349 0.93
0.705 3.347 0.918
0.678 3.352 0.907
0.651 3.358 0.895
0.622 3.354 0.883
0.595 3.36 0.872
0.566 3.356 0.86
0.539 3.36 0.849
0.513 3.373 0.838
0.485 3.37 0.826
0.458 3.374 0.815
0.429 3.367 0.803
0.402 3.371 0.791
0.375 3.374 0.78
0.347 3.369 0.768
0.319 3.361 0.756
0.294 3.393 0.746
0.287 3.67 0.743
0.257 3.672 0.731
0.228 3.674 0.718
0.198 3.676 0.706
0.165 3.599 0.692
0.13 3.399 0.677
0.102 3.366 0.665
0.075 3.357 0.654
0.047 3.338 0.643
0.02 0.157 0.631
0.02 -0.096 0.631
0.054 -4.252 0.646
0.089 -4.26 0.661
0.123 -4.255 0.675
0.157 -4.25 0.689
0.191 -4.251 0.704
0.225 -4.241 0.718
0.259 -4.239 0.733
0.303 -4.384 0.751
0.338 -4.383 0.766
0.373 -4.379 0.781
0.4 -4.279 0.793
0.435 -4.282 0.807
0.472 -4.303 0.823
0.507 -4.307 0.838
0.544 -4.324 0.854
0.582 -4.338 0.87
0.618 -4.343 0.885
0.653 -4.338 0.9
0.689 -4.341 0.915
0.724 -4.335 0.93
0.76 -4.337 0.946
0.802 -4.371 0.964
0.848 -4.418 0.983
0.884 -4.412 0.998
0.913 -4.375 1.011
0.95 -4.373 1.026
0.996 -4.414 1.046
1.035 -4.42 1.062
1.074 -4.428 1.079
1.113 -4.432 1.096
1.15 -4.424 1.111
1.188 -4.423 1.127
1.229 -4.432 1.145
1.267 -4.43 1.161
1.308 -4.436 1.178
1.349 -4.441 1.196
1.387 -4.438 1.212
1.429 -4.444 1.23
1.471 -4.45 1.247
1.509 -4.445 1.264
1.552 -4.45 1.282
1.594 -4.453 1.3
1.636 -4.457 1.318
1.679 -4.46 1.336
1.722 -4.464 1.354
1.765 -4.465 1.372
1.812 -4.478 1.393
1.852 -4.469 1.409
1.896 -4.471 1.428
1.943 -4.479 1.448
1.988 -4.481 1.467
2.035 -4.489 1.487
2.08 -4.487 1.506
2.128 -4.493 1.526
2.173 -4.492 1.545
2.222 -4.498 1.566
2.266 -4.494 1.585
2.316 -4.5 1.606
2.366 -4.505 1.628
2.419 -4.515 1.65
0 0 0
0 0 0
0 0 0
0 0 0
0 0 0
0 0 0
0 0 0
0 0 0
0 0 0
1.467 -2.245 1.246
1.482 -2.227 1.252
0 0 0
3.126 -4.56 1.95
3.18 -4.555 1.973
3.244 -4.564 2
3.304 -4.566 2.026
3.364 -4.567 2.051
3.43 -4.574 2.079
3.496 -4.58 2.107
3.555 -4.577 2.133
3.623 -4.582 2.161
3.689 -4.586 2.19
3.764 -4.598 2.222
3.833 -4.601 2.251
3.902 -4.603 2.28
3.978 -4.61 2.312
4.052 -4.616 2.344
4.122 -4.615 2.373
4.207 -4.629 2.41
4.279 -4.627 2.44
4.361 -4.634 2.475
4.441 -4.638 2.509
4.52 -4.639 2.542
4.612 -4.652 2.581
4.693 -4.652 2.616
4.78 -4.656 2.653
4.873 -4.665 2.692
4.964 -4.669 2.731
5.053 -4.67 2.769
5.146 -4.673 2.808
5.233 -4.669 2.845
5.236 -4.588 2.846
5.238 -4.509 2.847
5.242 -4.432 2.849
5.251 -4.361 2.853
5.246 -4.278 2.851
5.249 -4.204 2.852
5.26 -4.136 2.856
5.262 -4.062 2.857
5.263 -3.989 2.858
5.273 -3.922 2.862
5.275 -3.851 2.863
5.276 -3.779 2.863
5.274 -3.707 2.863
5.283 -3.642 2.866
5.289 -3.577 2.869
5.294 -3.511 2.871
5.299 -3.446 2.873
5.303 -3.381 2.875
5.306 -3.315 2.876
5.309 -3.251 2.878
5.316 -3.189 2.88
5.318 -3.125 2.881
5.328 -3.066 2.886
5.337 -3.007 2.889
5.33 -2.939 2.886
5.339 -2.881 2.89
5.341 -2.819 2.891
5.341 -2.757 2.891
5.338 -2.694 2.89
5.342 -2.635 2.892
5.348 -2.577 2.894
5.349 -2.517 2.894
5.356 -2.461 2.898
5.356 -2.401 2.897
5.364 -2.346 2.901
5.368 -2.288 2.902
5.365 -2.229 2.901
5.375 -2.175 2.906
5.373 -2.117 2.905
5.381 -2.062 2.908
5.38 -2.005 2.908
5.388 -1.951 2.911
5.393 -1.896 2.913
5.388 -1.839 2.911
5.393 -1.785 2.913
5.397 -1.73 2.915
5.394 -1.674 2.913
5.408 -1.623 2.919
5.402 -1.567 2.917
5.412 -1.515 2.921
5.419 -1.462 2.924
5.418 -1.408 2.924
5.421 -1.355 2.925
5.423 -1.301 2.926
5.424 -1.248 2.926
5.435 -1.197 2.931
5.433 -1.143 2.93
5.435 -1.09 2.931
5.436 -1.038 2.932
5.444 -0.986 2.935
5.443 -0.933 2.934
5.45 -0.882 2.937
5.45 -0.829 2.937
5.456 -0.778 2.94
5.453 -0.725 2.939
5.463 -0.674 2.943
5.466 -0.622 2.944
5.468 -0.57 2.945
5.471 -0.518 2.946
5.462 -0.465 2.942
5.466 -0.414 2.944
5.465 -0.362 2.944
5.467 -0.31 2.945
5.485 -0.259 2.952
5.483 -0.207 2.951
5.495 -0.156 2.956
5.496 -0.104 2.957
5.496 -0.052 2.957
5.502 -0 2.96
5.506 0.052 2.961
5.503 0.104 2.96
5.505 0.156 2.961
5.506 0.208 2.961
5.502 0.26 2.959
5.51 0.313 2.963
5.517 0.365 2.966
5.52 0.418 2.967
5.53 0.471 2.971
5.523 0.523 2.968
5.529 0.576 2.971
5.533 0.629 2.973
5.536 0.683 2.974
5.54 0.736 2.976
5.55 0.791 2.98
5.544 0.843 2.977
5.546 0.897 2.978
5.557 0.953 2.983
5.561 1.007 2.984
5.561 1.062 2.985
5.562 1.116 2.985
5.571 1.172 2.989
5.57 1.227 2.988
5.58 1.284 2.992
5.577 1.338 2.991
5.585 1.396 2.995
5.583 1.451 2.994
5.59 1.509 2.997
5.597 1.567 3
5.604 1.625 3.003
5.599 1.681 3.001
5.604 1.74 3.003
5.607 1.798 3.004
5.608 1.856 3.004
5.62 1.918 3.01
5.612 1.974 3.006
5.623 2.037 3.011
5.622 2.096 3.011
5.632 2.159 3.015
5.63 2.218 3.014
5.63 2.279 3.014
5.637 2.342 3.017
5.643 2.406 3.019
5.648 2.47 3.021
5.652 2.535 3.023
5.656 2.599 3.025
5.651 2.66 3.023
5.654 2.725 3.024
5.658 2.791 3.026
5.661 2.858 3.027
5.671 2.928 3.031
5.662 2.99 3.028
5.672 3.061 3.032
5.673 3.129 3.032
5.673 3.197 3.032
5.677 3.268 3.034
5.67 3.333 3.031
5.602 3.362 3.002
5.486 3.36 2.953
5.405 3.378 2.918
5.305 3.382 2.876
5.208 3.386 2.834
5.113 3.39 2.794
5.025 3.397 2.757
4.936 3.402 2.719
4.854 3.411 2.684
4.771 3.416 2.649
4.689 3.421 2.614
4.607 3.424 2.579
4.528 3.429 2.546
4.448 3.431 2.512
4.375 3.437 2.481
4.303 3.443 2.45
4.23 3.447 2.419
4.161 3.452 2.39
4.099 3.462 2.363
4.021 3.457 2.33
3.96 3.466 2.304
3.89 3.465 2.275
3.828 3.471 2.248
3.764 3.474 2.221
3.706 3.481 2.197
3.604 3.444 2.153
3.556 3.459 2.133
3.498 3.462 2.108
3.44 3.465 2.084
3.381 3.464 2.059
3.327 3.469 2.036
3.272 3.472 2.012
3.217 3.473 1.989
3.165 3.477 1.967
3.111 3.477 1.944
3.069 3.49 1.926
3.008 3.481 1.9
2.964 3.49 1.882
2.916 3.494 1.861
2.871 3.501 1.842
2.817 3.496 1.819
2.774 3.503 1.801
2.728 3.505 1.781
2.683 3.509 1.762
2.637 3.51 1.743
2.593 3.514 1.724
2.552 3.52 1.706
2.508 3.522 1.688
2.462 3.52 1.668
2.422 3.527 1.651
2.381 3.531 1.634
2.339 3.532 1.616
2.298 3.534 1.599
2.258 3.537 1.582
2.219 3.541 1.565
2.18 3.546 1.549
2.135 3.538 1.529
2.097 3.542 1.514
2.057 3.541 1.496
2.021 3.548 1.481
1.983 3.55 1.465
1.944 3.548 1.448
1.909 3.553 1.433
1.871 3.555 1.418
1.841 3.569 1.405
1.807 3.575 1.39
1.635 3.299 1.317
1.597 3.291 1.301
1.564 3.292 1.287
1.534 3.298 1.274
1.5 3.295 1.26
1.469 3.299 1.247
1.438 3.303 1.234
1.404 3.3 1.219
1.374 3.304 1.207
1.344 3.307 1.194
1.314 3.311 1.181
1.283 3.313 1.168
1.254 3.317 1.155
1.224 3.32 1.143
1.194 3.321 1.13
1.164 3.323 1.117
1.134 3.325 1.104
1.104 3.326 1.092
1.074 3.325 1.079
1.045 3.327 1.067
1.015 3.327 1.054
0.989 3.336 1.043
0.959 3.336 1.03
0.93 3.335 1.018
0.902 3.342 1.006
0.873 3.342 0.994
0.844 3.34 0.981
0.817 3.348 0.97
0.788 3.346 0.958
0.761 3.353 0.946
0.732 3.35 0.934
0.703 3.347 0.921
0.676 3.352 0.91
0.649 3.359 0.899
0.62 3.354 0.886
0.594 3.361 0.875
0.565 3.356 0.863
0.538 3.361 0.851
0.512 3.374 0.84
0.484 3.37 0.828
0.457 3.375 0.817
0.428 3.368 0.805
0.401 3.372 0.793
0.374 3.375 0.782
0.346 3.371 0.77
0.319 3.364 0.758
0.294 3.393 0.747
0.286 3.664 0.744
0.257 3.672 0.732
0.227 3.674 0.719
0.198 3.676 0.707
0.165 3.598 0.693
0.13 3.399 0.678
0.101 3.366 0.666
0.074 3.357 0.654
0.047 3.339 0.643
0.02 0.137 0.631
0.02 -0.112 0.632
0.054 -4.252 0.646
0.088 -4.259 0.661
0.122 -4.254 0.676
0.156 -4.25 0.69
0.191 -4.252 0.705
0.224 -4.241 0.719
0.258 -4.241 0.734
0.301 -4.378 0.753
0.337 -4.383 0.768
0.372 -4.38 0.783
0.399 -4.279 0.795
0.434 -4.283 0.81
0.47 -4.303 0.825
0.507 -4.317 0.841
0.544 -4.333 0.857
0.58 -4.338 0.873
0.616 -4.344 0.888
0.651 -4.337 0.903
0.687 -4.341 0.919
0.722 -4.335 0.934
0.758 -4.336 0.949
0.804 -4.388 0.969
0.846 -4.418 0.987
0.882 -4.414 1.003
0.915 -4.394 1.017
0.952 -4.396 1.033
0.996 -4.427 1.052
1.035 -4.43 1.068
1.073 -4.432 1.085
1.109 -4.424 1.1
1.148 -4.426 1.117
1.185 -4.425 1.133
1.226 -4.432 1.151
1.264 -4.43 1.167
1.305 -4.436 1.185
1.346 -4.441 1.202
1.384 -4.438 1.219
1.426 -4.445 1.237
1.468 -4.45 1.255
1.509 -4.455 1.273
1.548 -4.45 1.29
1.594 -4.463 1.309
1.633 -4.458 1.326
1.675 -4.461 1.344
1.719 -4.464 1.363
1.762 -4.467 1.382
1.805 -4.47 1.4
1.848 -4.471 1.419
1.892 -4.472 1.438
1.935 -4.472 1.456
1.984 -4.482 1.477
2.027 -4.48 1.496
2.075 -4.488 1.517
2.123 -4.494 1.537
2.168 -4.492 1.556
2.217 -4.499 1.578
2.261 -4.494 1.597
2.311 -4.5 1.618
2.361 -4.505 1.64
2.416 -4.518 1.663
0 0 0
0 0 0
0 0 0
0 0 0
0 0 0
0 0 0
0 0 0
0 0 0
0 0 0
1.466 -2.249 1.254
1.486 -2.237 1.263
3.069 -4.569 1.944
3.121 -4.563 1.967
3.179 -4.563 1.992
3.237 -4.564 2.017
3.296 -4.565 2.042
3.356 -4.567 2.068
3.422 -4.574 2.097
3.483 -4.573 2.123
3.548 -4.578 2.151
3.615 -4.582 2.179
3.688 -4.594 2.211
3.75 -4.59 2.238
3.825 -4.601 2.27
3.894 -4.603 2.3
3.97 -4.611 2.332
4.037 -4.609 2.361
4.116 -4.617 2.395
4.189 -4.619 2.427
4.272 -4.629 2.463
4.35 -4.632 2.496
4.428 -4.634 2.53
4.508 -4.637 2.564
4.595 -4.645 2.602
4.678 -4.647 2.637
4.768 -4.654 2.676
4.856 -4.658 2.714
4.949 -4.665 2.754
5.039 -4.667 2.793
5.134 -4.672 2.834
5.224 -4.671 2.873
5.236 -4.598 2.878
5.239 -4.52 2.879
5.239 -4.44 2.879
5.241 -4.362 2.88
5.249 -4.29 2.883
5.246 -4.21 2.882
5.249 -4.136 2.883
5.259 -4.068 2.887
5.26 -3.995 2.888
5.263 -3.923 2.889
5.266 -3.852 2.89
5.273 -3.786 2.894
5.271 -3.713 2.893
5.278 -3.647 2.896
5.286 -3.582 2.899
5.291 -3.516 2.901
5.296 -3.451 2.903
5.3 -3.386 2.905
5.304 -3.321 2.907
5.308 -3.257 2.909
5.314 -3.195 2.911
5.316 -3.131 2.912
5.32 -3.068 2.914
5.326 -3.007 2.916
5.328 -2.945 2.917
5.334 -2.885 2.92
5.337 -2.824 2.921
5.33 -2.757 2.918
5.334 -2.698 2.92
5.338 -2.639 2.922
5.346 -2.582 2.925
5.346 -2.521 2.925
5.346 -2.461 2.925
5.352 -2.404 2.927
5.354 -2.347 2.929
5.359 -2.29 2.93
5.363 -2.233 2.932
5.363 -2.175 2.933
5.371 -2.121 2.936
5.37 -2.063 2.935
5.369 -2.005 2.935
5.377 -1.951 2.938
5.381 -1.896 2.94
5.386 -1.842 2.942
5.392 -1.788 2.945
5.387 -1.731 2.943
5.392 -1.677 2.945
5.394 -1.623 2.946
5.4 -1.569 2.948
5.4 -1.515 2.948
5.416 -1.465 2.955
5.415 -1.41 2.955
5.409 -1.355 2.952
5.42 -1.303 2.957
5.422 -1.25 2.958
5.423 -1.197 2.958
5.423 -1.144 2.958
5.432 -1.092 2.962
5.433 -1.039 2.962
5.432 -0.986 2.962
5.433 -0.933 2.963
5.439 -0.882 2.965
5.447 -0.83 2.969
5.446 -0.778 2.968
5.452 -0.726 2.97
5.452 -0.674 2.971
5.454 -0.622 2.972
5.456 -0.57 2.972
5.461 -0.518 2.974
5.457 -0.466 2.973
5.455 -0.414 2.972
5.464 -0.363 2.976
5.466 -0.311 2.976
5.483 -0.26 2.984
5.479 -0.208 2.982
5.483 -0.156 2.984
5.482 -0.104 2.984
5.495 -0.052 2.989
5.491 -0 2.987
5.503 0.052 2.993
5.5 0.104 2.991
5.492 0.156 2.988
5.504 0.208 2.993
5.501 0.261 2.992
5.506 0.313 2.994
5.505 0.365 2.993
5.508 0.418 2.995
5.518 0.471 2.999
5.521 0.524 3
5.526 0.577 3.002
5.532 0.631 3.005
5.533 0.684 3.005
5.537 0.738 3.007
5.538 0.791 3.007
5.542 0.845 3.009
5.544 0.899 3.01
5.545 0.953 3.011
5.559 1.009 3.017
5.558 1.063 3.016
5.56 1.118 3.017
5.56 1.172 3.017
5.568 1.229 3.021
5.569 1.284 3.021
5.574 1.341 3.023
5.573 1.396 3.023
5.581 1.453 3.026
5.586 1.511 3.029
5.593 1.569 3.031
5.601 1.628 3.035
5.596 1.684 3.033
5.592 1.74 3.031
5.604 1.801 3.036
5.605 1.859 3.037
5.608 1.918 3.038
5.61 1.977 3.039
5.61 2.036 3.039
5.611 2.096 3.039
5.619 2.159 3.043
5.628 2.222 3.046
5.627 2.282 3.046
5.625 2.342 3.045
5.639 2.41 3.051
5.636 2.471 3.05
5.64 2.535 3.052
5.644 2.599 3.053
5.647 2.664 3.055
5.651 2.73 3.056
5.654 2.795 3.058
5.658 2.862 3.059
5.658 2.928 3.059
5.658 2.994 3.06
5.66 3.061 3.06
5.668 3.133 3.064
5.669 3.202 3.064
5.659 3.264 3.06
5.666 3.338 3.063
5.591 3.362 3.031
5.474 3.36 2.98
5.392 3.377 2.945
5.301 3.387 2.906
5.197 3.387 2.861
5.11 3.396 2.824
5.014 3.398 2.782
4.925 3.402 2.744
4.844 3.411 2.709
4.76 3.416 2.673
4.679 3.422 2.638
4.597 3.424 2.602
4.517 3.428 2.568
4.439 3.431 2.534
4.366 3.438 2.503
4.294 3.443 2.472
4.222 3.447 2.441
4.152 3.452 2.411
4.083 3.456 2.381
4.013 3.458 2.351
3.951 3.466 2.324
3.882 3.466 2.295
3.82 3.471 2.268
3.756 3.474 2.24
3.698 3.481 2.215
3.605 3.453 2.175
3.544 3.455 2.149
3.49 3.462 2.126
3.435 3.467 2.102
3.373 3.464 2.075
3.321 3.471 2.053
3.265 3.472 2.029
3.211 3.474 2.006
3.158 3.477 1.983
3.105 3.478 1.96
3.064 3.492 1.942
3.012 3.493 1.92
2.958 3.49 1.896
2.919 3.505 1.88
2.865 3.501 1.856
2.814 3.499 1.834
2.768 3.503 1.815
2.723 3.508 1.796
2.678 3.511 1.776
2.633 3.513 1.757
2.593 3.522 1.74
2.548 3.522 1.72
2.503 3.523 1.701
2.458 3.523 1.681
2.419 3.529 1.664
2.379 3.535 1.647
2.334 3.532 1.628
2.295 3.537 1.611
2.255 3.54 1.594
2.215 3.543 1.577
2.177 3.547 1.56
2.132 3.541 1.541
2.093 3.542 1.524
2.055 3.545 1.508
2.017 3.548 1.491
1.977 3.546 1.474
1.939 3.547 1.458
1.906 3.556 1.444
1.865 3.55 1.426
1.829 3.553 1.41
1.802 3.573 1.399
1.628 3.293 1.324
1.594 3.292 1.309
1.561 3.292 1.295
1.531 3.299 1.282
1.497 3.296 1.267
1.466 3.3 1.254
1.435 3.304 1.241
1.401 3.3 1.226
1.372 3.305 1.214
1.341 3.308 1.2
1.311 3.311 1.187
1.281 3.313 1.174
1.251 3.317 1.162
1.221 3.32 1.149
1.191 3.321 1.136
1.161 3.323 1.123
1.132 3.325 1.11
1.102 3.326 1.097
1.072 3.326 1.085
1.043 3.327 1.072
1.013 3.328 1.059
0.984 3.327 1.046
0.957 3.337 1.035
0.927 3.335 1.022
0.901 3.343 1.011
0.871 3.342 0.998
0.842 3.34 0.986
0.815 3.348 0.974
0.786 3.346 0.961
0.759 3.353 0.95
0.731 3.351 0.938
0.702 3.347 0.925
0.675 3.353 0.913
0.648 3.359 0.902
0.619 3.354 0.889
0.592 3.361 0.878
0.565 3.366 0.866
0.537 3.361 0.854
0.511 3.375 0.843
0.483 3.37 0.831
0.456 3.376 0.819
0.427 3.368 0.807
0.4 3.372 0.795
0.373 3.375 0.784
0.346 3.371 0.772
0.318 3.366 0.76
0.293 3.398 0.749
0.285 3.664 0.746
0.256 3.674 0.733
0.227 3.676 0.72
0.197 3.678 0.708
0.164 3.58 0.693
0.129 3.4 0.679
0.101 3.367 0.666
0.074 3.357 0.655
0.047 3.339 0.643
0.02 0.158 0.632
0.02 -0.107 0.632
0.054 -4.252 0.647
0.088 -4.259 0.662
0.122 -4.264 0.677
0.156 -4.25 0.691
0.19 -4.251 0.706
0.224 -4.252 0.721
0.258 -4.25 0.736
0.3 -4.376 0.755
0.336 -4.381 0.77
0.371 -4.38 0.786
0.397 -4.279 0.797
0.433 -4.292 0.813
0.469 -4.304 0.829
0.505 -4.315 0.845
0.542 -4.333 0.861
0.578 -4.339 0.877
0.614 -4.343 0.893
0.65 -4.347 0.909
0.685 -4.341 0.924
0.721 -4.343 0.94
0.756 -4.335 0.955
0.802 -4.394 0.975
0.84 -4.405 0.992
0.879 -4.416 1.009
0.914 -4.403 1.024
0.952 -4.41 1.041
0.993 -4.428 1.059
1.031 -4.43 1.076
1.068 -4.424 1.092
1.106 -4.426 1.109
1.144 -4.426 1.125
1.182 -4.427 1.142
1.222 -4.432 1.16
1.26 -4.43 1.176
1.3 -4.435 1.194
1.341 -4.441 1.212
1.383 -4.45 1.23
1.421 -4.445 1.247
1.462 -4.449 1.265
1.505 -4.455 1.284
1.543 -4.45 1.301
1.585 -4.454 1.319
1.627 -4.457 1.338
1.67 -4.461 1.356
1.713 -4.463 1.375
1.756 -4.467 1.394
1.799 -4.469 1.413
1.842 -4.47 1.432
1.885 -4.471 1.451
1.933 -4.481 1.472
1.977 -4.481 1.491
2.025 -4.489 1.512
2.068 -4.486 1.531
2.117 -4.495 1.553
2.16 -4.491 1.572
2.21 -4.499 1.594
2.254 -4.494 1.613
2.304 -4.501 1.635
2.353 -4.504 1.656
2.405 -4.511 1.679
0 0 0
0 0 0
0 0 0
0 0 0
0 0 0
0 0 0
0 0 0
0 0 0
0 0 0
1.461 -2.248 1.265
1.481 -2.237 1.273
3.05 -4.556 1.963
3.107 -4.557 1.988
3.169 -4.564 2.015
3.225 -4.562 2.039
3.29 -4.571 2.068
3.346 -4.567 2.092
3.411 -4.574 2.121
3.471 -4.573 2.148
3.537 -4.578 2.176
3.603 -4.582 2.205
3.676 -4.594 2.238
3.744 -4.597 2.267
3.813 -4.602 2.298
3.882 -4.603 2.328
3.957 -4.611 2.361
4.024 -4.609 2.391
4.099 -4.613 2.423
4.173 -4.615 2.456
4.253 -4.623 2.491
4.334 -4.63 2.526
4.409 -4.629 2.559
4.491 -4.634 2.595
4.575 -4.639 2.632
4.659 -4.643 2.669
4.751 -4.652 2.71
4.843 -4.66 2.75
4.929 -4.661 2.788
5.023 -4.667 2.829
5.118 -4.672 2.871
5.208 -4.671 2.91
5.223 -4.602 2.917
5.22 -4.518 2.916
5.231 -4.446 2.92
5.232 -4.368 2.921
5.233 -4.291 2.922
5.237 -4.217 2.923
5.241 -4.143 2.925
5.242 -4.068 2.925
5.244 -3.996 2.926
5.254 -3.929 2.93
5.256 -3.857 2.931
5.257 -3.786 2.932
5.255 -3.713 2.931
5.269 -3.653 2.937
5.27 -3.583 2.938
5.275 -3.517 2.94
5.28 -3.452 2.942
5.283 -3.386 2.943
5.287 -3.321 2.945
5.291 -3.257 2.947
5.297 -3.195 2.95
5.306 -3.135 2.954
5.31 -3.072 2.955
5.317 -3.012 2.958
5.311 -2.945 2.956
5.317 -2.885 2.958
5.32 -2.824 2.96
5.319 -2.76 2.959
5.318 -2.698 2.959
5.33 -2.643 2.964
5.335 -2.585 2.966
5.328 -2.521 2.963
5.336 -2.465 2.967
5.335 -2.405 2.966
5.345 -2.35 2.971
5.348 -2.292 2.972
5.347 -2.233 2.971
5.355 -2.179 2.975
5.357 -2.122 2.976
5.363 -2.067 2.979
5.362 -2.009 2.978
5.36 -1.951 2.977
5.374 -1.9 2.983
5.379 -1.845 2.985
5.378 -1.789 2.985
5.381 -1.734 2.986
5.382 -1.679 2.987
5.385 -1.625 2.988
5.392 -1.572 2.991
5.391 -1.517 2.991
5.398 -1.465 2.994
5.408 -1.413 2.998
5.401 -1.357 2.995
5.403 -1.303 2.996
5.405 -1.25 2.997
5.414 -1.199 3.001
5.406 -1.144 2.997
5.414 -1.092 3.001
5.425 -1.041 3.006
5.423 -0.987 3.005
5.426 -0.935 3.006
5.431 -0.883 3.008
5.429 -0.83 3.008
5.436 -0.779 3.011
5.434 -0.726 3.01
5.444 -0.675 3.014
5.447 -0.623 3.015
5.447 -0.571 3.015
5.453 -0.519 3.018
5.448 -0.467 3.016
5.44 -0.414 3.012
5.445 -0.362 3.014
5.449 -0.311 3.016
5.466 -0.26 3.024
5.469 -0.208 3.025
5.477 -0.156 3.028
5.474 -0.104 3.027
5.477 -0.052 3.029
5.482 -0 3.031
5.486 0.052 3.032
5.491 0.104 3.035
5.486 0.156 3.032
5.485 0.208 3.032
5.493 0.261 3.035
5.498 0.314 3.038
5.497 0.366 3.037
5.502 0.419 3.039
5.508 0.472 3.042
5.503 0.524 3.04
5.516 0.578 3.046
5.513 0.631 3.045
5.514 0.684 3.045
5.519 0.737 3.047
5.521 0.791 3.048
5.524 0.845 3.049
5.526 0.899 3.05
5.527 0.953 3.051
5.542 1.009 3.057
5.541 1.063 3.057
5.551 1.12 3.061
5.552 1.174 3.061
5.559 1.231 3.065
5.56 1.286 3.065
5.566 1.343 3.067
5.564 1.398 3.067
5.573 1.456 3.071
5.569 1.511 3.069
5.576 1.569 3.072
5.584 1.628 3.076
5.586 1.686 3.077
5.583 1.742 3.075
5.594 1.803 3.08
5.589 1.859 3.078
5.598 1.921 3.082
5.601 1.98 3.083
5.601 2.04 3.083
5.601 2.099 3.083
5.61 2.162 3.087
5.611 2.222 3.087
5.617 2.285 3.09
5.614 2.346 3.089
5.62 2.409 3.091
5.627 2.474 3.094
5.63 2.538 3.096
5.634 2.603 3.097
5.638 2.668 3.099
5.633 2.73 3.097
5.636 2.795 3.098
5.64 2.862 3.1
5.64 2.928 3.1
5.649 2.998 3.104
5.65 3.066 3.104
5.65 3.133 3.105
5.659 3.206 3.108
5.648 3.268 3.104
5.664 3.347 3.111
5.574 3.363 3.071
5.457 3.36 3.02
5.375 3.377 2.984
5.283 3.386 2.944
5.181 3.387 2.898
5.093 3.396 2.86
5.006 3.403 2.822
4.917 3.408 2.783
4.829 3.411 2.744
4.746 3.416 2.707
4.664 3.421 2.671
4.582 3.424 2.635
4.503 3.429 2.601
4.424 3.431 2.566
4.36 3.444 2.538
4.286 3.448 2.506
4.216 3.453 2.475
4.146 3.458 2.444
4.077 3.462 2.414
4.007 3.464 2.383
3.938 3.466 2.353
3.877 3.472 2.326
3.807 3.47 2.295
3.744 3.474 2.267
3.68 3.475 2.239
3.593 3.453 2.201
3.534 3.456 2.175
3.477 3.46 2.15
3.424 3.467 2.127
3.361 3.463 2.099
3.31 3.471 2.077
3.261 3.479 2.055
3.201 3.475 2.029
3.153 3.482 2.008
3.103 3.487 1.986
3.052 3.49 1.963
3.002 3.493 1.942
