# .PCD v0.7 - Point Cloud Data file format
VERSION 0.7
FIELDS x y z
SIZE 4 4 4
TYPE F F F
COUNT 1 1 1
WIDTH 2589
HEIGHT 1
VIEWPOINT 0 0 0 1 0 0 0
POINTS 2589
DATA ascii
0.477 0.471 1.069
0.463 0.462 1.062
0.458 0.464 1.059
0.444 0.455 1.052
0.435 0.452 1.047
0.432 0.456 1.046
0.422 0.452 1.041
0.414 0.449 1.037
0.4 0.438 1.03
0.396 0.44 1.028
0.388 0.436 1.024
0.384 0.438 1.022
0.372 0.429 1.016
0.363 0.424 1.011
0.356 0.421 1.008
0.353 0.425 1.006
0.345 0.419 1.002
0.338 0.416 0.999
0.334 0.417 0.997
0.326 0.411 0.992
0.322 0.413 0.99
0.318 0.414 0.989
0.311 0.409 0.985
0.303 0.403 0.981
0.299 0.404 0.979
0.295 0.405 0.977
0.287 0.398 0.973
0.284 0.4 0.971
0.277 0.393 0.968
0.273 0.394 0.966
0.27 0.396 0.964
0.263 0.39 0.961
0.259 0.39 0.959
0.252 0.383 0.955
0.249 0.384 0.954
0.244 0.38 0.951
0.242 0.386 0.95
0.236 0.381 0.947
0.233 0.382 0.946
0.229 0.379 0.943
0.223 0.374 0.941
0.22 0.376 0.939
0.217 0.375 0.937
0.21 0.367 0.934
0.207 0.367 0.932
0.203 0.364 0.93
0.2 0.365 0.929
0.196 0.365 0.927
0.192 0.359 0.925
0.191 0.368 0.924
0.187 0.365 0.922
0.182 0.359 0.92
0.179 0.361 0.919
0.176 0.361 0.917
0.174 0.364 0.916
0.17 0.358 0.914
0.167 0.358 0.912
0.165 0.362 0.911
0.164 0.372 0.911
0.161 0.372 0.909
0.158 0.375 0.908
0.156 0.38 0.907
0.153 0.38 0.905
0.154 0.398 0.906
0.151 0.401 0.904
0.151 0.418 0.904
0.146 0.413 0.902
0.142 0.407 0.9
0.138 0.401 0.898
0.135 0.406 0.896
0.132 0.406 0.895
0.129 0.406 0.893
0.125 0.399 0.891
0.122 0.405 0.89
0.118 0.395 0.888
0.116 0.401 0.886
0.112 0.396 0.885
0.109 0.4 0.883
0.106 0.398 0.881
0.102 0.378 0.879
0.099 0.378 0.878
0.096 0.38 0.876
0.093 0.379 0.875
0.09 0.38 0.873
0.087 0.376 0.872
0.084 0.382 0.87
0.081 0.386 0.869
0.078 0.384 0.867
0.078 -0.487 0.868
0.082 -0.485 0.87
0.085 -0.481 0.871
0.089 -0.48 0.873
0.093 -0.481 0.875
0.097 -0.484 0.877
0.1 -0.476 0.879
0.104 -0.479 0.881
0.107 -0.473 0.883
0.111 -0.473 0.885
0.115 -0.476 0.887
0.118 -0.474 0.888
0.123 -0.48 0.891
0.126 -0.478 0.892
0.13 -0.48 0.894
0.134 -0.478 0.896
0.138 -0.478 0.898
0.141 -0.475 0.9
0.145 -0.474 0.902
0.148 -0.47 0.903
0.153 -0.478 0.906
0.155 -0.467 0.907
0.16 -0.473 0.909
0.164 -0.476 0.912
0.168 -0.476 0.914
0.171 -0.47 0.915
0.175 -0.474 0.917
0.177 -0.466 0.918
0.181 -0.465 0.92
0.187 -0.474 0.923
0.194 -0.486 0.927
0.197 -0.482 0.928
0.202 -0.487 0.931
0.206 -0.485 0.933
0.209 -0.483 0.935
0.212 -0.477 0.936
0.217 -0.482 0.939
0.221 -0.481 0.941
0.226 -0.483 0.943
0.231 -0.485 0.946
0.237 -0.49 0.949
0.24 -0.488 0.951
0.243 -0.485 0.952
0.245 -0.477 0.953
2.813 -7.597 2.261
2.878 -7.587 2.294
2.941 -7.569 2.326
3.009 -7.567 2.361
0.686 -1.534 1.178
0.69 -1.509 1.18
0.703 -1.504 1.186
3.28 -7.536 2.499
1.313 -2.842 1.497
1.351 -2.866 1.517
1.081 -2.211 1.379
0.958 -1.898 1.316
3.424 -7.064 2.573
3.411 -6.889 2.566
3.489 -6.906 2.606
3.559 -6.906 2.642
3.625 -6.895 2.675
3.728 -6.955 2.728
3.787 -6.928 2.758
3.9 -7 2.815
4.056 -7.146 2.895
4.118 -7.117 2.926
4.199 -7.122 2.967
4.208 -7.003 2.972
4.179 -6.825 2.958
4.305 -6.904 3.022
4.684 -7.384 3.215
4.76 -7.368 3.254
4.843 -7.36 3.295
4.92 -7.345 3.335
5.005 -7.339 3.378
5.089 -7.33 3.421
5.175 -7.322 3.465
5.257 -7.307 3.506
5.346 -7.301 3.552
5.428 -7.285 3.594
5.523 -7.283 3.642
5.607 -7.266 3.685
5.701 -7.26 3.733
1.413 -1.693 1.548
1.425 -1.679 1.554
1.434 -1.661 1.559
1.449 -1.65 1.566
1.488 -1.668 1.586
1.499 -1.652 1.592
1.514 -1.64 1.599
1.538 -1.638 1.611
1.55 -1.623 1.618
1.579 -1.627 1.633
1.592 -1.613 1.639
1.62 -1.614 1.653
1.664 -1.631 1.676
1.7 -1.639 1.694
1.737 -1.647 1.713
1.789 -1.67 1.74
6.229 -5.896 4.002
6.204 -5.77 3.989
6.211 -5.674 3.993
6.2 -5.564 3.987
6.175 -5.443 3.974
6.159 -5.332 3.966
6.156 -5.235 3.965
6.137 -5.124 3.955
6.136 -5.031 3.954
6.123 -4.93 3.948
6.119 -4.836 3.946
6.114 -4.743 3.943
6.106 -4.65 3.939
6.092 -4.553 3.932
6.083 -4.461 3.927
6.078 -4.373 3.925
6.08 -4.291 3.926
6.139 -4.25 3.956
6.218 -4.223 3.996
0 0 0
0 0 0
0 0 0
0 0 0
0 0 0
0 0 0
4.324 -2.534 3.031
4.348 -2.495 3.043
4.338 -2.436 3.038
4.373 -2.404 3.056
4.414 -2.374 3.077
4.5 -2.367 3.121
0 0 0
0 0 0
0 0 0
0 0 0
5.917 -2.782 3.843
5.99 -2.748 3.88
0 0 0
6.166 -2.692 3.97
0 0 0
0 0 0
0 0 0
0 0 0
0 0 0
0 0 0
0 0 0
0 0 0
2.202 -0.729 1.95
2.162 -0.693 1.93
2.18 -0.676 1.939
2.173 -0.652 1.935
2.17 -0.629 1.934
2.177 -0.609 1.937
2.173 -0.586 1.935
2.178 -0.566 1.938
2.209 -0.552 1.954
2.227 -0.535 1.963
2.218 -0.511 1.958
2.206 -0.486 1.952
2.244 -0.473 1.972
5.739 -1.178 3.752
5.729 -1.118 3.747
5.731 -1.062 3.748
5.718 -1.003 3.741
5.717 -0.946 3.741
5.719 -0.89 3.742
5.711 -0.832 3.738
5.698 -0.774 3.731
5.696 -0.718 3.73
5.692 -0.662 3.728
5.694 -0.607 3.729
5.686 -0.551 3.725
5.688 -0.496 3.726
5.684 -0.44 3.724
2.722 -0.181 2.215
2.699 -0.154 2.203
2.697 -0.128 2.202
2.719 -0.104 2.213
2.746 -0.078 2.227
2.743 -0.052 2.226
2.728 -0.026 2.218
2.75 -0 2.229
2.762 0.026 2.235
2.795 0.053 2.252
2.849 0.081 2.28
5.625 0.217 3.694
5.642 0.273 3.703
5.604 0.325 3.684
5.601 0.379 3.682
5.602 0.434 3.682
5.595 0.487 3.679
5.588 0.541 3.675
5.582 0.595 3.672
5.577 0.649 3.67
5.582 0.704 3.672
5.571 0.757 3.666
5.568 0.811 3.665
5.561 0.865 3.661
5.551 0.918 3.656
5.549 0.973 3.655
3.496 0.642 2.609
3.475 0.672 2.599
2.731 0.552 2.219
2.735 0.58 2.222
2.73 0.606 2.219
2.728 0.632 2.218
2.722 0.658 2.215
2.718 0.684 2.213
2.72 0.712 2.214
2.709 0.736 2.208
2.709 0.764 2.208
2.705 0.79 2.206
2.707 0.818 2.207
1.996 0.617 1.845
1.903 0.607 1.798
1.744 0.572 1.716
1.683 0.568 1.686
1.674 0.582 1.681
1.676 0.6 1.682
1.672 0.616 1.68
1.679 0.636 1.683
1.683 0.656 1.685
1.67 0.668 1.679
1.672 0.687 1.68
1.573 0.661 1.63
1.428 0.612 1.555
1.42 0.624 1.552
1.415 0.637 1.549
1.408 0.649 1.545
1.425 0.673 1.554
1.414 0.683 1.548
1.476 0.732 1.58
1.47 0.745 1.577
1.474 0.765 1.579
1.492 0.791 1.588
1.467 0.794 1.576
1.488 0.824 1.586
1.368 0.77 1.525
1.331 0.763 1.506
1.307 0.765 1.494
1.263 0.753 1.472
1.176 0.712 1.427
1.153 0.711 1.416
1.144 0.719 1.411
1.142 0.732 1.41
1.139 0.745 1.409
1.14 0.76 1.409
1.141 0.775 1.409
1.142 0.79 1.41
1.134 0.8 1.406
0.997 0.709 1.336
0.889 0.637 1.281
0.866 0.631 1.269
0.842 0.623 1.257
0.803 0.602 1.237
0.78 0.594 1.226
0.751 0.58 1.211
0.734 0.575 1.202
0.708 0.563 1.189
0.691 0.557 1.18
0.665 0.543 1.167
0.644 0.533 1.156
0.633 0.533 1.151
0.613 0.522 1.14
0.603 0.521 1.135
0.587 0.515 1.127
0.568 0.504 1.117
0.558 0.503 1.112
0.535 0.487 1.101
0.533 0.494 1.1
0.519 0.486 1.092
0.504 0.478 1.085
0.495 0.476 1.08
0.486 0.475 1.076
0.47 0.464 1.068
0.459 0.459 1.062
0.451 0.457 1.058
0.443 0.456 1.054
0.434 0.452 1.049
0.426 0.449 1.045
0.416 0.445 1.04
0.413 0.448 1.038
0.398 0.436 1.031
0.395 0.44 1.029
0.387 0.436 1.025
0.378 0.432 1.021
0.371 0.429 1.017
0.364 0.426 1.013
0.361 0.429 1.012
0.353 0.425 1.008
0.344 0.419 1.003
0.337 0.416 1
0.333 0.417 0.998
0.324 0.41 0.993
0.321 0.413 0.992
0.313 0.406 0.987
0.309 0.408 0.986
0.302 0.402 0.982
0.298 0.403 0.98
0.294 0.405 0.978
0.287 0.398 0.974
0.284 0.4 0.973
0.276 0.393 0.969
0.269 0.387 0.965
0.269 0.395 0.965
0.262 0.388 0.961
0.259 0.39 0.96
0.251 0.382 0.956
0.249 0.386 0.955
0.244 0.382 0.952
0.238 0.378 0.95
0.236 0.382 0.948
0.233 0.381 0.947
0.225 0.371 0.943
0.223 0.375 0.942
0.22 0.376 0.94
0.216 0.375 0.938
0.214 0.377 0.937
0.206 0.367 0.933
0.204 0.37 0.932
0.199 0.365 0.93
0.195 0.363 0.928
0.193 0.367 0.927
0.188 0.36 0.924
0.185 0.358 0.922
0.182 0.359 0.921
0.179 0.361 0.919
0.176 0.36 0.918
0.173 0.361 0.916
0.17 0.36 0.915
0.167 0.36 0.913
0.162 0.354 0.911
0.162 0.365 0.911
0.161 0.373 0.91
0.158 0.375 0.909
0.156 0.38 0.908
0.154 0.388 0.907
0.151 0.389 0.905
0.15 0.401 0.905
0.15 0.417 0.904
0.146 0.412 0.902
0.142 0.407 0.9
0.138 0.402 0.898
0.135 0.408 0.897
0.131 0.399 0.895
0.129 0.407 0.894
0.125 0.399 0.891
0.122 0.408 0.89
0.118 0.397 0.888
0.116 0.404 0.887
0.112 0.395 0.885
0.109 0.401 0.884
0.105 0.395 0.882
0.102 0.388 0.88
0.099 0.388 0.878
0.095 0.377 0.877
0.092 0.378 0.875
0.089 0.371 0.874
0.086 0.373 0.872
0.084 0.382 0.871
0.081 0.387 0.869
0.078 0.385 0.868
0.077 -0.485 0.868
0.081 -0.485 0.87
0.085 -0.488 0.872
0.088 -0.481 0.874
0.092 -0.481 0.876
0.096 -0.484 0.878
0.099 -0.475 0.88
0.103 -0.478 0.882
0.107 -0.472 0.883
0.11 -0.475 0.885
0.114 -0.475 0.887
0.119 -0.483 0.89
0.122 -0.479 0.891
0.126 -0.478 0.893
0.13 -0.479 0.895
0.133 -0.477 0.897
0.137 -0.476 0.899
0.14 -0.474 0.901
0.144 -0.472 0.903
0.148 -0.478 0.905
0.15 -0.468 0.906
0.155 -0.475 0.909
0.157 -0.463 0.91
0.163 -0.474 0.913
0.165 -0.466 0.914
0.169 -0.469 0.916
0.174 -0.472 0.918
0.176 -0.464 0.92
0.182 -0.472 0.922
0.188 -0.482 0.926
0.192 -0.484 0.928
0.196 -0.483 0.93
0.199 -0.479 0.931
0.205 -0.485 0.934
0.208 -0.48 0.936
0.21 -0.476 0.937
0.217 -0.483 0.941
0.22 -0.482 0.942
0.227 -0.49 0.946
0.23 -0.486 0.948
0.235 -0.488 0.95
0.239 -0.488 0.952
0.243 -0.487 0.954
0.241 -0.469 0.953
2.802 -7.596 2.282
2.867 -7.587 2.315
2.933 -7.579 2.35
3.001 -7.575 2.385
0.676 -1.515 1.179
0.689 -1.511 1.185
0.704 -1.515 1.194
3.27 -7.541 2.525
1.31 -2.848 1.508
1.347 -2.87 1.527
1.376 -2.871 1.542
3.48 -7.364 2.633
3.416 -7.074 2.6
3.407 -6.909 2.596
3.457 -6.869 2.622
3.542 -6.898 2.665
3.609 -6.892 2.701
3.737 -6.999 2.767
3.793 -6.967 2.796
3.942 -7.104 2.873
4.041 -7.146 2.924
4.108 -7.128 2.959
4.187 -7.13 3
4.202 -7.02 3.008
4.176 -6.846 2.995
4.27 -6.873 3.043
4.664 -7.379 3.247
4.745 -7.373 3.29
4.823 -7.358 3.33
4.904 -7.349 3.372
4.985 -7.336 3.414
5.068 -7.327 3.457
5.152 -7.317 3.501
5.241 -7.313 3.547
5.324 -7.299 3.59
5.414 -7.293 3.636
5.502 -7.283 3.682
5.586 -7.266 3.726
1.403 -1.718 1.556
1.406 -1.692 1.558
1.415 -1.674 1.562
1.432 -1.666 1.571
1.446 -1.654 1.578
1.481 -1.667 1.597
1.494 -1.652 1.603
1.505 -1.637 1.609
1.525 -1.631 1.619
1.536 -1.615 1.625
1.557 -1.61 1.636
1.584 -1.611 1.65
1.61 -1.61 1.663
1.656 -1.63 1.687
1.691 -1.637 1.706
1.735 -1.653 1.728
1.782 -1.669 1.752
6.214 -5.904 4.052
6.186 -5.774 4.037
6.186 -5.673 4.037
6.182 -5.569 4.035
6.158 -5.449 4.023
6.143 -5.338 4.015
6.132 -5.234 4.009
6.122 -5.131 4.004
6.115 -5.033 4.001
6.105 -4.934 3.995
6.109 -4.847 3.997
6.094 -4.746 3.99
6.085 -4.652 3.985
6.077 -4.559 3.981
6.065 -4.465 3.974
6.061 -4.378 3.972
6.063 -4.296 3.974
6.113 -4.249 3.999
6.186 -4.217 4.037
0 0 0
0 0 0
0 0 0
0 0 0
0 0 0
0 0 0
0 0 0
0 0 0
4.331 -2.442 3.075
4.39 -2.422 3.106
4.429 -2.391 3.126
4.466 -2.358 3.145
0 0 0
0 0 0
0 0 0
0 0 0
5.89 -2.78 3.884
5.968 -2.749 3.924
6.078 -2.731 3.981
6.141 -2.691 4.014
0 0 0
0 0 0
0 0 0
0 0 0
0 0 0
0 0 0
0 0 0
0 0 0
2.231 -0.742 1.985
2.161 -0.695 1.949
2.166 -0.675 1.952
2.173 -0.655 1.955
2.166 -0.63 1.952
2.177 -0.612 1.957
2.168 -0.587 1.953
2.173 -0.567 1.955
2.207 -0.554 1.973
2.208 -0.532 1.974
2.199 -0.508 1.969
2.19 -0.484 1.964
2.212 -0.467 1.976
5.714 -1.177 3.792
5.717 -1.12 3.794
5.713 -1.062 3.792
5.707 -1.004 3.789
5.706 -0.948 3.788
5.697 -0.89 3.783
5.689 -0.832 3.78
5.682 -0.775 3.776
5.685 -0.72 3.777
5.671 -0.662 3.77
5.682 -0.608 3.776
5.669 -0.551 3.769
5.674 -0.496 3.771
5.663 -0.44 3.766
5.661 -0.385 3.765
2.683 -0.154 2.22
2.671 -0.128 2.214
2.69 -0.103 2.224
2.729 -0.078 2.244
2.746 -0.052 2.253
2.726 -0.026 2.242
2.728 -0 2.243
2.753 0.026 2.257
2.79 0.053 2.275
2.85 0.082 2.307
5.611 0.218 3.739
5.621 0.273 3.744
5.587 0.325 3.726
5.589 0.38 3.728
5.581 0.434 3.723
5.579 0.488 3.722
5.573 0.542 3.719
5.574 0.596 3.72
5.569 0.65 3.717
5.559 0.704 3.712
5.558 0.758 3.712
5.547 0.811 3.706
5.543 0.865 3.704
5.534 0.919 3.699
5.534 0.974 3.699
3.493 0.644 2.64
3.48 0.676 2.633
2.728 0.553 2.243
2.724 0.58 2.241
2.72 0.606 2.239
2.716 0.632 2.237
2.71 0.658 2.234
2.707 0.684 2.233
2.709 0.712 2.233
2.703 0.738 2.231
2.699 0.764 2.228
2.701 0.792 2.229
2.702 0.82 2.23
2.698 0.846 2.228
2.691 0.872 2.224
1.754 0.577 1.738
1.675 0.567 1.697
1.662 0.58 1.69
1.667 0.599 1.693
1.659 0.613 1.689
1.67 0.635 1.694
1.669 0.653 1.694
1.676 0.673 1.698
1.669 0.688 1.694
1.582 0.668 1.649
1.415 0.609 1.562
1.403 0.618 1.556
1.402 0.633 1.555
1.384 0.64 1.546
1.389 0.658 1.548
1.416 0.688 1.563
1.475 0.734 1.593
1.467 0.747 1.589
1.477 0.769 1.594
1.525 0.813 1.62
1.464 0.796 1.587
1.462 0.812 1.587
1.358 0.767 1.533
1.337 0.771 1.522
1.307 0.768 1.506
1.269 0.76 1.487
1.173 0.713 1.437
1.143 0.708 1.421
1.146 0.723 1.422
1.138 0.733 1.419
1.134 0.744 1.417
1.136 0.76 1.417
1.137 0.776 1.418
1.136 0.79 1.418
1.13 0.8 1.414
0.963 0.686 1.328
0.879 0.632 1.284
0.861 0.629 1.275
0.839 0.624 1.264
0.806 0.607 1.246
0.782 0.598 1.234
0.752 0.583 1.218
0.729 0.574 1.206
0.705 0.563 1.194
0.687 0.556 1.185
0.662 0.543 1.171
0.64 0.532 1.16
0.626 0.528 1.153
0.61 0.522 1.145
0.594 0.516 1.137
0.585 0.515 1.132
0.565 0.503 1.121
0.55 0.496 1.113
0.54 0.494 1.108
0.531 0.493 1.103
0.516 0.486 1.096
0.501 0.477 1.088
0.493 0.476 1.084
0.484 0.475 1.079
0.474 0.471 1.074
0.46 0.463 1.067
0.449 0.457 1.061
0.441 0.455 1.057
0.431 0.451 1.052
0.423 0.448 1.048
0.414 0.444 1.043
0.405 0.44 1.038
0.401 0.443 1.036
0.393 0.44 1.032
0.384 0.435 1.028
0.376 0.431 1.023
0.368 0.427 1.019
0.363 0.426 1.016
0.358 0.428 1.014
0.351 0.425 1.01
0.343 0.419 1.006
0.335 0.414 1.002
0.33 0.415 0.999
0.323 0.411 0.996
0.319 0.412 0.994
0.312 0.407 0.99
0.308 0.407 0.988
0.304 0.41 0.986
0.296 0.402 0.982
0.288 0.396 0.978
0.285 0.397 0.976
0.281 0.398 0.974
0.275 0.394 0.971
0.271 0.394 0.969
0.264 0.388 0.965
0.261 0.388 0.963
0.254 0.381 0.96
0.254 0.39 0.96
0.247 0.384 0.956
0.242 0.381 0.954
0.237 0.376 0.951
0.233 0.375 0.949
0.228 0.373 0.947
0.227 0.379 0.946
0.222 0.374 0.943
0.219 0.377 0.942
0.215 0.375 0.94
0.208 0.365 0.936
0.204 0.364 0.934
0.201 0.363 0.932
0.198 0.363 0.931
0.194 0.363 0.929
0.193 0.367 0.928
0.187 0.36 0.925
0.184 0.358 0.923
0.181 0.36 0.922
0.178 0.361 0.921
0.176 0.364 0.92
0.171 0.356 0.917
0.168 0.356 0.915
0.164 0.352 0.913
0.161 0.354 0.912
0.161 0.364 0.912
0.16 0.373 0.911
0.157 0.375 0.91
0.154 0.372 0.908
0.154 0.388 0.908
0.152 0.397 0.907
0.15 0.402 0.906
0.149 0.418 0.906
0.145 0.411 0.903
0.141 0.405 0.901
0.137 0.404 0.899
0.135 0.408 0.898
0.13 0.401 0.896
0.128 0.407 0.895
0.124 0.4 0.892
0.122 0.407 0.891
0.118 0.398 0.889
0.115 0.404 0.888
0.111 0.395 0.886
0.108 0.398 0.884
0.105 0.397 0.883
0.101 0.388 0.881
0.098 0.388 0.879
0.095 0.389 0.878
0.092 0.376 0.876
0.089 0.377 0.874
0.086 0.382 0.873
0.083 0.381 0.871
0.08 0.38 0.87
0.077 0.382 0.868
0.077 -0.486 0.869
0.08 -0.485 0.871
0.084 -0.488 0.873
0.088 -0.48 0.875
0.092 -0.48 0.877
0.095 -0.484 0.879
0.099 -0.475 0.88
0.103 -0.478 0.882
0.107 -0.482 0.885
0.11 -0.475 0.886
0.114 -0.475 0.888
0.117 -0.475 0.89
0.121 -0.471 0.892
0.125 -0.479 0.894
0.129 -0.478 0.896
0.132 -0.475 0.898
0.136 -0.475 0.9
0.139 -0.474 0.902
0.143 -0.472 0.904
0.146 -0.468 0.905
0.15 -0.468 0.907
0.155 -0.476 0.91
0.158 -0.471 0.912
0.162 -0.473 0.914
0.166 -0.472 0.916
0.169 -0.469 0.917
0.173 -0.473 0.92
0.177 -0.472 0.922
0.181 -0.473 0.924
0.187 -0.48 0.927
0.191 -0.484 0.929
0.195 -0.483 0.931
0.198 -0.479 0.933
0.202 -0.477 0.935
0.206 -0.478 0.937
0.212 -0.484 0.94
0.216 -0.483 0.942
0.219 -0.482 0.944
0.225 -0.486 0.947
0.23 -0.488 0.95
0.234 -0.488 0.952
0.238 -0.488 0.954
0.24 -0.482 0.955
0.243 -0.477 0.957
2.789 -7.591 2.301
2.855 -7.586 2.336
2.922 -7.579 2.371
2.987 -7.569 2.406
3.056 -7.568 2.442
0 0 0
0.694 -1.496 1.195
3.258 -7.543 2.549
3.326 -7.533 2.584
1.337 -2.858 1.534
1.359 -2.845 1.546
3.472 -7.376 2.662
3.41 -7.089 2.629
3.398 -6.917 2.623
3.435 -6.851 2.642
3.543 -6.928 2.699
3.612 -6.925 2.736
3.758 -7.067 2.813
3.819 -7.042 2.845
3.95 -7.149 2.914
4.024 -7.143 2.953
4.094 -7.131 2.99
4.171 -7.13 3.031
4.189 -7.025 3.04
4.172 -6.866 3.031
4.244 -6.858 3.07
4.647 -7.381 3.282
4.724 -7.369 3.323
4.805 -7.359 3.365
4.884 -7.346 3.407
4.964 -7.334 3.449
5.045 -7.323 3.493
5.131 -7.315 3.538
5.217 -7.307 3.583
5.302 -7.297 3.628
5.391 -7.29 3.675
5.481 -7.283 3.722
5.57 -7.273 3.77
1.427 -1.757 1.582
1.4 -1.692 1.568
1.411 -1.676 1.573
1.428 -1.668 1.582
1.444 -1.658 1.591
1.469 -1.659 1.604
1.482 -1.645 1.611
1.502 -1.64 1.622
1.517 -1.629 1.63
1.54 -1.626 1.641
1.555 -1.614 1.649
1.578 -1.611 1.662
1.608 -1.615 1.678
1.65 -1.63 1.7
1.689 -1.641 1.72
1.724 -1.648 1.739
1.78 -1.674 1.768
6.19 -5.904 4.097
6.166 -5.778 4.084
6.171 -5.681 4.087
6.166 -5.576 4.084
6.14 -5.454 4.071
6.127 -5.346 4.064
6.126 -5.249 4.063
6.101 -5.133 4.05
6.101 -5.041 4.05
6.094 -4.944 4.046
6.089 -4.85 4.044
6.074 -4.749 4.036
6.069 -4.657 4.033
6.065 -4.568 4.031
6.05 -4.471 4.023
6.053 -4.389 4.025
6.047 -4.301 4.021
6.099 -4.256 4.049
6.179 -4.229 4.091
0 0 0
0 0 0
0 0 0
0 0 0
0 0 0
0 0 0
0 0 0
0 0 0
4.375 -2.477 3.138
4.382 -2.427 3.142
4.415 -2.393 3.16
4.447 -2.357 3.177
4.501 -2.333 3.205
0 0 0
0 0 0
0 0 0
5.88 -2.786 3.934
5.956 -2.754 3.973
6.043 -2.726 4.019
6.12 -2.692 4.06
0 0 0
0 0 0
0 0 0
0 0 0
0 0 0
0 0 0
0 0 0
0 0 0
2.248 -0.751 2.016
2.163 -0.699 1.971
2.156 -0.674 1.967
2.148 -0.65 1.963
2.169 -0.634 1.973
2.169 -0.612 1.974
2.172 -0.591 1.975
2.189 -0.573 1.984
2.193 -0.552 1.986
2.192 -0.53 1.986
2.18 -0.506 1.98
2.166 -0.481 1.972
2.198 -0.466 1.989
5.703 -1.179 3.84
5.694 -1.12 3.835
5.699 -1.064 3.838
5.687 -1.005 3.832
5.692 -0.949 3.834
5.689 -0.892 3.832
5.682 -0.834 3.829
5.674 -0.777 3.824
5.672 -0.721 3.823
5.66 -0.664 3.817
5.663 -0.608 3.818
5.656 -0.552 3.815
5.652 -0.496 3.813
5.641 -0.44 3.807
2.921 -0.197 2.371
2.673 -0.154 2.24
2.658 -0.127 2.232
2.669 -0.102 2.238
2.709 -0.078 2.259
2.741 -0.053 2.276
2.724 -0.026 2.267
2.716 -0 2.263
2.744 0.026 2.277
2.786 0.053 2.299
2.841 0.082 2.328
5.59 0.218 3.78
5.613 0.273 3.792
5.567 0.325 3.768
5.571 0.38 3.77
5.564 0.434 3.767
5.561 0.488 3.765
5.552 0.542 3.76
5.547 0.596 3.758
5.548 0.65 3.758
5.547 0.705 3.757
5.537 0.758 3.752
5.54 0.813 3.754
5.528 0.866 3.747
5.526 0.921 3.746
5.519 0.975 3.743
3.483 0.645 2.668
3.463 0.675 2.657
2.718 0.554 2.264
2.713 0.579 2.261
2.708 0.605 2.258
2.713 0.634 2.261
2.707 0.659 2.258
2.705 0.686 2.257
2.704 0.713 2.256
2.694 0.738 2.251
2.696 0.766 2.252
2.69 0.792 2.249
2.693 0.82 2.25
2.686 0.846 2.247
2.683 0.873 2.245
1.798 0.595 1.778
1.709 0.582 1.731
1.665 0.584 1.708
1.866 0.677 1.814
1.662 0.617 1.706
1.678 0.641 1.714
1.665 0.654 1.707
1.795 0.726 1.776
1.668 0.691 1.709
1.673 0.711 1.712
1.491 0.646 1.616
1.48 0.657 1.61
1.378 0.625 1.556
1.382 0.642 1.558
1.379 0.656 1.556
1.404 0.684 1.569
1.461 0.73 1.6
1.449 0.74 1.593
1.468 0.768 1.604
1.567 0.84 1.656
1.495 0.817 1.618
1.37 0.761 1.552
1.353 0.768 1.543
1.32 0.763 1.525
1.308 0.772 1.519
1.257 0.755 1.492
1.166 0.711 1.444
1.14 0.709 1.43
1.135 0.719 1.428
1.133 0.732 1.427
1.136 0.749 1.428
1.131 0.76 1.426
1.132 0.775 1.426
1.132 0.79 1.426
1.124 0.799 1.422
0.945 0.675 1.327
0.875 0.632 1.29
0.857 0.629 1.281
0.829 0.618 1.266
0.803 0.608 1.252
0.774 0.594 1.237
0.751 0.585 1.225
0.726 0.574 1.212
0.696 0.557 1.196
0.685 0.557 1.19
0.659 0.543 1.177
0.644 0.539 1.169
0.622 0.527 1.157
0.607 0.521 1.149
0.593 0.517 1.142
0.577 0.509 1.133
0.562 0.503 1.125
0.547 0.496 1.117
0.538 0.495 1.112
0.523 0.487 1.104
0.508 0.479 1.096
0.499 0.478 1.092
0.491 0.476 1.087
0.475 0.467 1.079
0.466 0.464 1.075
0.458 0.462 1.07
0.447 0.456 1.064
0.438 0.454 1.06
0.429 0.45 1.055
0.422 0.449 1.051
0.418 0.452 1.049
0.403 0.44 1.041
0.393 0.434 1.036
0.392 0.44 1.035
0.383 0.435 1.03
0.375 0.431 1.026
0.367 0.428 1.022
0.365 0.432 1.021
0.352 0.42 1.014
0.349 0.423 1.012
0.341 0.418 1.008
0.338 0.422 1.007
0.33 0.416 1.002
0.322 0.411 0.998
0.317 0.411 0.996
0.314 0.413 0.994
0.306 0.407 0.99
0.299 0.402 0.986
0.295 0.402 0.984
0.292 0.405 0.982
0.284 0.397 0.978
0.281 0.399 0.976
0.274 0.394 0.973
0.27 0.394 0.971
0.263 0.388 0.967
0.259 0.388 0.965
0.256 0.389 0.963
0.253 0.391 0.962
0.246 0.383 0.958
0.241 0.38 0.955
0.236 0.376 0.953
0.234 0.382 0.952
0.23 0.379 0.95
0.225 0.377 0.947
0.221 0.374 0.945
0.217 0.375 0.943
0.213 0.373 0.941
0.208 0.367 0.938
0.204 0.365 0.936
0.203 0.371 0.935
0.196 0.362 0.932
0.193 0.363 0.93
0.192 0.367 0.929
0.188 0.367 0.928
0.183 0.358 0.925
0.18 0.359 0.923
0.177 0.36 0.922
0.172 0.353 0.919
0.17 0.356 0.918
0.167 0.357 0.917
0.164 0.358 0.915
0.161 0.354 0.913
0.16 0.365 0.913
0.159 0.374 0.912
0.156 0.375 0.911
0.155 0.381 0.91
0.151 0.38 0.908
0.152 0.398 0.908
0.149 0.404 0.907
0.149 0.419 0.907
0.145 0.414 0.905
0.14 0.405 0.902
0.137 0.404 0.9
0.134 0.406 0.899
0.13 0.402 0.897
0.126 0.398 0.895
0.123 0.399 0.893
0.121 0.405 0.892
0.117 0.397 0.89
0.114 0.399 0.888
0.11 0.395 0.887
0.108 0.398 0.885
0.104 0.395 0.883
0.1 0.376 0.881
0.097 0.377 0.88
0.094 0.376 0.878
0.091 0.379 0.877
0.088 0.378 0.875
0.086 0.38 0.873
0.083 0.382 0.872
0.08 0.382 0.87
0.077 0.382 0.869
0.076 -0.487 0.869
0.08 -0.485 0.871
0.084 -0.479 0.873
0.087 -0.48 0.875
0.091 -0.481 0.877
0.094 -0.475 0.879
0.098 -0.476 0.881
0.102 -0.478 0.883
0.106 -0.481 0.885
0.109 -0.475 0.887
0.113 -0.476 0.889
0.117 -0.475 0.891
0.12 -0.472 0.893
0.124 -0.472 0.895
0.128 -0.477 0.897
0.131 -0.474 0.899
0.135 -0.474 0.901
0.139 -0.474 0.903
0.142 -0.473 0.905
0.146 -0.476 0.907
0.149 -0.468 0.908
0.154 -0.475 0.911
0.157 -0.472 0.913
0.161 -0.472 0.915
0.165 -0.473 0.917
0.168 -0.469 0.919
0.172 -0.473 0.921
0.176 -0.473 0.923
0.18 -0.472 0.925
0.185 -0.477 0.928
0.19 -0.482 0.931
0.194 -0.482 0.933
0.199 -0.487 0.936
0.203 -0.485 0.937
0.207 -0.486 0.94
0.21 -0.483 0.941
0.215 -0.483 0.944
0.218 -0.482 0.946
0.224 -0.486 0.949
0.228 -0.486 0.951
0.232 -0.487 0.953
0.237 -0.488 0.956
0.239 -0.483 0.957
0.245 -0.488 0.96
2.779 -7.594 2.322
2.844 -7.586 2.357
2.911 -7.58 2.393
2.976 -7.57 2.428
3.042 -7.563 2.463
3.109 -7.555 2.499
3.181 -7.559 2.538
3.246 -7.544 2.573
3.314 -7.537 2.61
3.381 -7.526 2.646
3.453 -7.524 2.684
3.467 -7.394 2.692
3.404 -7.104 2.658
3.387 -6.922 2.649
3.422 -6.852 2.667
3.549 -6.969 2.736
3.61 -6.949 2.769
3.79 -7.158 2.865
3.855 -7.139 2.9
3.939 -7.156 2.945
4.009 -7.146 2.983
4.078 -7.131 3.02
4.153 -7.126 3.06
4.181 -7.041 3.076
4.165 -6.882 3.067
4.223 -6.849 3.098
4.627 -7.379 3.315
4.706 -7.369 3.358
4.787 -7.361 3.401
4.863 -7.344 3.442
4.946 -7.336 3.486
5.03 -7.33 3.532
5.114 -7.32 3.577
5.2 -7.313 3.623
5.288 -7.307 3.67
5.372 -7.293 3.715
5.459 -7.283 3.762
5.545 -7.269 3.809
5.639 -7.265 3.859
1.395 -1.693 1.578
1.403 -1.673 1.582
1.424 -1.67 1.594
1.437 -1.657 1.601
1.458 -1.653 1.612
1.479 -1.649 1.623
1.497 -1.641 1.633
1.516 -1.635 1.643
1.53 -1.622 1.651
1.55 -1.616 1.661
1.578 -1.618 1.676
1.602 -1.615 1.689
1.643 -1.63 1.711
1.683 -1.642 1.733
1.72 -1.651 1.753
6.19 -6.033 4.155
6.175 -5.913 4.147
6.146 -5.782 4.131
6.164 -5.697 4.141
6.145 -5.58 4.131
6.125 -5.463 4.12
6.116 -5.357 4.116
6.106 -5.252 4.11
6.092 -5.147 4.103
6.093 -5.055 4.103
6.079 -4.952 4.096
6.072 -4.855 4.092
6.064 -4.76 4.087
6.059 -4.668 4.085
6.044 -4.57 4.077
6.039 -4.481 4.074
6.029 -4.389 4.069
6.03 -4.306 4.069
6.073 -4.254 4.092
6.17 -4.24 4.145
0 0 0
0 0 0
0 0 0
0 0 0
0 0 0
0 0 0
0 0 0
0 0 0
0 0 0
4.377 -2.434 3.181
4.383 -2.385 3.184
4.424 -2.354 3.206
4.48 -2.331 3.236
0 0 0
0 0 0
0 0 0
5.866 -2.79 3.981
5.936 -2.755 4.018
6.021 -2.727 4.064
6.096 -2.692 4.105
0 0 0
0 0 0
0 0 0
0 0 0
0 0 0
0 0 0
0 0 0
0 0 0
2.241 -0.751 2.033
2.16 -0.701 1.989
2.153 -0.676 1.986
2.153 -0.654 1.986
2.16 -0.634 1.989
2.16 -0.612 1.99
2.169 -0.592 1.994
2.167 -0.57 1.993
2.193 -0.555 2.007
2.181 -0.53 2
2.159 -0.503 1.989
2.155 -0.48 1.986
2.167 -0.461 1.993
2.183 -0.443 2.002
5.688 -1.123 3.885
5.679 -1.064 3.88
5.673 -1.006 3.877
5.673 -0.95 3.877
5.661 -0.891 3.871
5.667 -0.836 3.874
5.654 -0.778 3.867
5.657 -0.722 3.869
5.648 -0.665 3.864
5.643 -0.609 3.861
5.645 -0.553 3.862
5.646 -0.498 3.863
5.631 -0.441 3.854
2.909 -0.197 2.392
2.67 -0.154 2.264
2.647 -0.127 2.251
2.656 -0.102 2.256
2.673 -0.077 2.265
2.72 -0.052 2.29
2.712 -0.026 2.286
2.706 -0 2.283
2.742 0.026 2.302
2.771 0.053 2.318
2.84 0.082 2.355
5.571 0.218 3.823
5.572 0.272 3.823
5.552 0.326 3.812
5.56 0.381 3.816
5.546 0.434 3.809
5.551 0.489 3.811
5.539 0.543 3.805
5.537 0.597 3.804
5.539 0.652 3.805
5.527 0.705 3.799
5.527 0.76 3.799
5.518 0.813 3.794
5.511 0.867 3.79
5.512 0.922 3.791
5.506 0.976 3.788
3.464 0.644 2.69
3.445 0.674 2.68
2.707 0.554 2.283
2.71 0.581 2.285
2.705 0.607 2.282
2.702 0.634 2.28
2.697 0.66 2.278
2.693 0.686 2.276
2.694 0.713 2.276
2.691 0.74 2.274
2.693 0.768 2.276
2.687 0.794 2.273
2.681 0.82 2.269
2.677 0.846 2.267
2.683 0.876 2.27
2.677 0.903 2.267
1.883 0.647 1.841
1.747 0.616 1.767
1.955 0.714 1.879
1.76 0.658 1.774
1.773 0.682 1.781
1.702 0.672 1.743
1.801 0.732 1.796
1.746 0.727 1.767
1.748 0.748 1.768
1.595 0.697 1.686
1.594 0.714 1.685
1.434 0.654 1.599
1.459 0.683 1.613
1.389 0.663 1.575
1.436 0.704 1.6
1.441 0.722 1.603
1.441 0.739 1.603
1.437 0.754 1.601
1.578 0.85 1.676
1.493 0.819 1.631
1.362 0.76 1.56
1.366 0.778 1.562
1.327 0.771 1.542
1.297 0.768 1.525
1.241 0.748 1.495
1.16 0.711 1.452
1.137 0.71 1.44
1.136 0.723 1.439
1.131 0.734 1.436
1.133 0.749 1.437
1.127 0.76 1.434
1.127 0.775 1.434
1.128 0.79 1.435
1.124 0.802 1.433
0.931 0.667 1.329
0.871 0.632 1.297
0.85 0.627 1.285
0.824 0.617 1.271
0.79 0.6 1.253
0.764 0.589 1.239
0.748 0.585 1.23
0.714 0.566 1.212
0.7 0.563 1.205
0.675 0.551 1.191
0.656 0.543 1.181
0.64 0.537 1.173
0.619 0.527 1.161
0.605 0.522 1.153
0.591 0.517 1.146
0.576 0.511 1.138
0.56 0.503 1.129
0.545 0.496 1.121
0.536 0.495 1.116
0.52 0.486 1.108
0.512 0.486 1.104
0.497 0.477 1.095
0.488 0.476 1.091
0.479 0.474 1.086
0.47 0.471 1.081
0.457 0.463 1.074
0.451 0.464 1.071
0.442 0.461 1.066
0.428 0.452 1.059
0.419 0.448 1.054
0.41 0.444 1.049
0.402 0.441 1.045
0.399 0.444 1.043
0.39 0.44 1.038
0.382 0.436 1.034
0.372 0.43 1.028
0.371 0.436 1.028
0.358 0.424 1.021
0.354 0.427 1.019
0.347 0.422 1.015
0.34 0.419 1.011
0.335 0.419 1.008
0.328 0.415 1.005
0.32 0.41 1
0.316 0.412 0.998
0.308 0.406 0.994
0.305 0.408 0.992
0.298 0.402 0.988
0.293 0.402 0.986
0.29 0.405 0.984
0.282 0.396 0.98
0.279 0.399 0.978
0.272 0.393 0.975
0.269 0.394 0.973
0.262 0.388 0.969
0.258 0.388 0.967
0.255 0.389 0.965
0.248 0.383 0.962
0.245 0.385 0.96
0.24 0.38 0.957
0.234 0.376 0.954
0.23 0.375 0.952
0.228 0.379 0.951
0.224 0.377 0.949
0.222 0.38 0.948
0.217 0.376 0.945
0.21 0.367 0.941
0.207 0.367 0.94
0.203 0.367 0.938
0.201 0.369 0.936
0.198 0.369 0.935
0.193 0.365 0.932
0.191 0.367 0.931
0.186 0.362 0.928
0.182 0.358 0.926
0.179 0.359 0.925
0.176 0.359 0.923
0.171 0.353 0.92
0.169 0.356 0.919
0.166 0.357 0.918
0.162 0.351 0.915
0.159 0.353 0.914
0.159 0.364 0.914
0.156 0.364 0.912
0.156 0.375 0.912
0.154 0.38 0.911
0.152 0.388 0.91
0.149 0.389 0.909
0.148 0.401 0.908
0.148 0.419 0.908
0.144 0.412 0.906
0.139 0.404 0.903
0.136 0.404 0.901
0.133 0.405 0.9
0.129 0.402 0.898
0.126 0.398 0.896
0.123 0.4 0.894
0.119 0.398 0.892
0.116 0.398 0.891
0.113 0.398 0.889
0.111 0.405 0.888
0.107 0.398 0.886
0.104 0.394 0.884
0.099 0.374 0.882
0.097 0.379 0.88
0.094 0.376 0.879
0.091 0.379 0.877
0.088 0.368 0.875
0.085 0.38 0.874
0.082 0.382 0.873
0.079 0.387 0.871
0.076 0.385 0.869
0.076 -0.487 0.87
0.08 -0.479 0.872
0.083 -0.48 0.874
0.087 -0.481 0.876
0.091 -0.483 0.878
0.094 -0.475 0.88
0.098 -0.476 0.882
0.102 -0.478 0.884
0.106 -0.481 0.886
0.109 -0.474 0.887
0.112 -0.466 0.889
0.116 -0.474 0.891
0.12 -0.473 0.893
0.124 -0.48 0.896
0.128 -0.477 0.898
0.131 -0.474 0.899
0.134 -0.473 0.901
0.138 -0.474 0.903
0.142 -0.473 0.905
0.146 -0.477 0.908
0.15 -0.476 0.91
0.153 -0.474 0.912
0.157 -0.472 0.913
0.161 -0.473 0.916
0.164 -0.472 0.918
0.167 -0.468 0.919
0.171 -0.466 0.921
0.175 -0.471 0.924
0.18 -0.473 0.926
0.184 -0.477 0.928
0.19 -0.483 0.931
0.194 -0.483 0.933
0.199 -0.487 0.936
0.202 -0.483 0.938
0.204 -0.478 0.939
0.21 -0.484 0.942
0.213 -0.481 0.944
0.215 -0.473 0.945
0.223 -0.485 0.949
0.227 -0.486 0.952
0.232 -0.487 0.954
0.237 -0.49 0.957
0.237 -0.476 0.957
0.24 -0.474 0.959
2.772 -7.591 2.332
2.839 -7.587 2.368
2.904 -7.58 2.404
2.97 -7.57 2.439
3.034 -7.559 2.474
3.102 -7.553 2.511
3.169 -7.546 2.547
3.239 -7.543 2.585
3.308 -7.538 2.622
3.372 -7.521 2.657
3.444 -7.519 2.696
3.467 -7.411 2.709
3.401 -7.113 2.673
3.387 -6.937 2.665
3.416 -6.854 2.681
3.551 -6.988 2.754
3.666 -7.075 2.817
3.789 -7.17 2.883
3.861 -7.167 2.923
3.923 -7.142 2.956
4 -7.143 2.997
4.069 -7.131 3.035
4.149 -7.135 3.078
4.179 -7.052 3.095
4.164 -6.895 3.087
4.203 -6.83 3.108
4.619 -7.381 3.334
4.699 -7.373 3.377
4.78 -7.365 3.421
4.858 -7.351 3.463
4.937 -7.339 3.506
5.02 -7.33 3.551
5.107 -7.325 3.598
5.188 -7.31 3.642
5.277 -7.307 3.69
5.36 -7.293 3.735
5.448 -7.283 3.783
5.537 -7.273 3.831
5.627 -7.265 3.88
1.398 -1.699 1.586
1.408 -1.682 1.592
1.427 -1.677 1.602
1.442 -1.667 1.611
1.46 -1.66 1.62
1.476 -1.649 1.629
1.493 -1.64 1.638
1.515 -1.637 1.65
1.531 -1.627 1.659
1.551 -1.62 1.669
1.574 -1.617 1.682
1.601 -1.618 1.697
1.639 -1.63 1.717
1.683 -1.646 1.741
1.717 -1.651 1.759
6.188 -6.044 4.184
6.17 -5.921 4.175
6.14 -5.788 4.158
6.158 -5.704 4.168
6.142 -5.588 4.159
6.12 -5.469 4.148
6.115 -5.367 4.145
6.102 -5.26 4.138
6.096 -5.161 4.134
6.088 -5.061 4.13
6.071 -4.955 4.121
6.07 -4.863 4.12
6.058 -4.765 4.114
6.053 -4.673 4.111
6.043 -4.579 4.106
6.038 -4.489 4.103
6.027 -4.396 4.097
6.029 -4.314 4.098
6.061 -4.254 4.115
6.164 -4.244 4.171
0 0 0
0 0 0
0 0 0
0 0 0
0 0 0
0 0 0
0 0 0
0 0 0
4.36 -2.483 3.193
4.353 -2.426 3.189
4.374 -2.385 3.201
4.406 -2.35 3.218
4.449 -2.32 3.241
0 0 0
0 0 0
0 0 0
5.869 -2.797 4.011
5.928 -2.758 4.043
5.997 -2.722 4.081
6.092 -2.696 4.132
0 0 0
0 0 0
0 0 0
0 0 0
0 0 0
0 0 0
0 0 0
0 0 0
2.239 -0.752 2.043
2.158 -0.702 1.999
2.15 -0.677 1.995
2.15 -0.654 1.994
2.148 -0.632 1.993
2.155 -0.612 1.997
2.169 -0.594 2.005
2.163 -0.57 2.002
2.178 -0.552 2.01
2.173 -0.529 2.007
2.15 -0.501 1.994
2.149 -0.48 1.994
2.155 -0.46 1.997
2.176 -0.443 2.009
5.682 -1.125 3.91
5.676 -1.066 3.907
5.67 -1.008 3.903
5.669 -0.951 3.903
5.665 -0.894 3.901
5.664 -0.837 3.9
5.659 -0.78 3.897
5.651 -0.723 3.893
5.641 -0.665 3.887
5.642 -0.61 3.888
5.636 -0.553 3.885
5.629 -0.497 3.881
5.624 -0.441 3.879
2.888 -0.196 2.395
2.731 -0.158 2.309
2.644 -0.128 2.262
2.643 -0.102 2.262
2.657 -0.077 2.269
2.722 -0.053 2.304
2.71 -0.026 2.298
2.703 -0 2.294
2.736 0.026 2.312
2.77 0.053 2.331
2.844 0.082 2.371
5.565 0.218 3.846
5.591 0.274 3.861
5.554 0.327 3.84
5.551 0.381 3.839
5.548 0.435 3.837
5.548 0.49 3.837
5.538 0.544 3.832
5.537 0.598 3.831
5.527 0.652 3.826
5.535 0.708 3.83
5.516 0.76 3.82
5.523 0.816 3.824
5.511 0.869 3.817
5.513 0.924 3.818
5.494 0.976 3.808
3.469 0.646 2.709
3.422 0.671 2.684
2.709 0.555 2.297
2.704 0.581 2.295
2.7 0.607 2.293
2.696 0.634 2.29
2.698 0.661 2.292
2.695 0.688 2.29
2.69 0.714 2.287
2.684 0.74 2.284
2.687 0.768 2.286
2.683 0.795 2.283
2.683 0.823 2.284
2.677 0.848 2.28
2.671 0.874 2.277
2.672 0.903 2.277
2.672 0.931 2.277
2.679 0.962 2.282
2.647 0.979 2.264
2.643 1.005 2.262
2.64 1.033 2.26
2.635 1.06 2.257
2.639 1.09 2.26
2.076 0.873 1.954
2.629 1.144 2.254
2.633 1.175 2.256
2.633 1.205 2.256
1.368 0.624 1.57
2.374 1.137 2.116
1.497 0.72 1.64
1.479 0.727 1.631
1.445 0.726 1.612
1.432 0.736 1.605
1.441 0.758 1.61
1.52 0.819 1.653
1.483 0.815 1.633
1.359 0.76 1.565
1.392 0.796 1.583
1.327 0.773 1.548
1.305 0.775 1.536
1.224 0.739 1.492
1.152 0.707 1.453
1.135 0.71 1.444
1.134 0.723 1.443
1.128 0.734 1.44
1.13 0.749 1.441
1.132 0.765 1.442
1.125 0.775 1.439
1.126 0.791 1.439
1.12 0.801 1.436
0.917 0.658 1.326
0.873 0.635 1.302
0.855 0.632 1.292
0.822 0.617 1.274
0.795 0.606 1.26
0.769 0.594 1.245
0.738 0.578 1.229
0.713 0.566 1.215
0.691 0.557 1.203
0.674 0.551 1.194
0.655 0.543 1.184
0.633 0.532 1.172
0.617 0.526 1.163
0.603 0.522 1.156
0.59 0.517 1.148
0.573 0.509 1.139
0.559 0.504 1.132
0.543 0.496 1.123
0.529 0.489 1.116
0.52 0.488 1.11
0.51 0.486 1.105
0.496 0.477 1.097
0.487 0.476 1.093
0.479 0.475 1.088
0.463 0.464 1.08
0.455 0.462 1.075
0.444 0.457 1.069
0.441 0.461 1.067
0.426 0.45 1.059
0.418 0.448 1.055
0.411 0.446 1.051
0.407 0.448 1.049
0.397 0.443 1.044
0.389 0.439 1.039
0.381 0.436 1.035
0.372 0.431 1.03
0.365 0.428 1.026
0.357 0.424 1.022
0.349 0.42 1.018
0.346 0.422 1.016
0.337 0.417 1.011
0.331 0.414 1.008
0.327 0.415 1.006
0.319 0.41 1.001
0.316 0.412 1
0.308 0.406 0.995
0.304 0.407 0.993
0.297 0.402 0.989
0.293 0.403 0.987
0.285 0.396 0.983
0.282 0.397 0.981
0.279 0.399 0.98
0.272 0.393 0.976
0.268 0.394 0.974
0.265 0.395 0.972
0.258 0.388 0.968
0.254 0.389 0.966
0.247 0.382 0.962
0.247 0.391 0.963
0.239 0.38 0.958
0.235 0.378 0.956
0.232 0.381 0.954
0.224 0.369 0.95
0.224 0.377 0.95
0.218 0.372 0.947
0.216 0.376 0.946
0.209 0.366 0.942
0.206 0.366 0.94
0.203 0.368 0.939
0.198 0.362 0.936
0.194 0.36 0.934
0.192 0.364 0.933
0.189 0.364 0.931
0.185 0.36 0.929
0.181 0.358 0.927
0.178 0.358 0.925
0.175 0.359 0.924
0.171 0.353 0.921
0.169 0.356 0.92
0.166 0.356 0.918
0.164 0.359 0.917
0.161 0.361 0.916
0.161 0.372 0.915
0.158 0.373 0.914
0.155 0.375 0.913
0.153 0.381 0.912
0.152 0.389 0.911
0.15 0.397 0.91
0.148 0.403 0.909
0.146 0.411 0.908
0.143 0.413 0.906
0.139 0.405 0.904
0.135 0.404 0.902
0.132 0.404 0.9
0.128 0.4 0.898
0.126 0.407 0.897
0.122 0.4 0.895
0.119 0.401 0.893
0.116 0.4 0.891
0.113 0.398 0.89
0.11 0.396 0.888
0.107 0.399 0.886
0.103 0.394 0.884
0.1 0.384 0.882
0.096 0.379 0.881
0.093 0.378 0.879
0.091 0.379 0.878
0.088 0.386 0.876
0.085 0.379 0.874
0.082 0.384 0.873
0.079 0.387 0.871
0.076 0.383 0.87
0.075 -0.479 0.87
0.079 -0.487 0.872
0.083 -0.481 0.874
0.087 -0.481 0.876
0.09 -0.483 0.878
0.094 -0.482 0.88
0.098 -0.483 0.882
0.101 -0.477 0.884
0.105 -0.48 0.886
0.108 -0.475 0.888
0.112 -0.475 0.89
0.115 -0.472 0.892
0.119 -0.472 0.894
0.122 -0.47 0.896
0.127 -0.478 0.899
0.13 -0.474 0.9
0.134 -0.474 0.902
0.139 -0.482 0.905
0.141 -0.472 0.906
0.145 -0.477 0.909
0.149 -0.476 0.911
0.152 -0.474 0.913
0.156 -0.473 0.915
0.16 -0.475 0.917
0.163 -0.472 0.919
0.168 -0.474 0.921
0.172 -0.475 0.923
0.175 -0.473 0.925
0.178 -0.472 0.927
0.183 -0.476 0.93
0.189 -0.482 0.933
0.192 -0.482 0.935
0.198 -0.487 0.938
0.201 -0.482 0.939
0.204 -0.479 0.941
0.209 -0.485 0.944
0.213 -0.482 0.946
0.217 -0.482 0.948
0.221 -0.484 0.951
0.226 -0.486 0.953
0.233 -0.493 0.957
0.236 -0.491 0.959
0.239 -0.486 0.96
0.239 -0.475 0.961
2.762 -7.595 2.353
2.827 -7.586 2.388
2.893 -7.58 2.425
2.957 -7.569 2.46
3.022 -7.559 2.496
3.089 -7.554 2.533
3.158 -7.55 2.571
3.226 -7.543 2.608
3.294 -7.537 2.646
3.363 -7.531 2.684
3.429 -7.517 2.721
3.457 -7.419 2.736
3.389 -7.118 2.699
3.375 -6.941 2.691
3.397 -6.844 2.703
3.553 -7.019 2.789
3.706 -7.183 2.874
3.772 -7.168 2.91
3.844 -7.164 2.95
3.911 -7.149 2.987
3.985 -7.146 3.027
4.05 -7.125 3.063
4.131 -7.132 3.108
4.171 -7.067 3.13
4.154 -6.906 3.121
4.163 -6.793 3.126
4.599 -7.379 3.366
4.678 -7.37 3.41
4.758 -7.361 3.454
4.842 -7.358 3.501
4.921 -7.344 3.544
5.005 -7.338 3.59
5.086 -7.325 3.635
5.168 -7.313 3.68
5.256 -7.307 3.729
5.346 -7.303 3.779
5.426 -7.283 3.823
5.521 -7.282 3.875
5.603 -7.263 3.92
1.395 -1.703 1.598
1.405 -1.686 1.604
1.421 -1.677 1.612
1.437 -1.667 1.621
1.459 -1.665 1.634
1.469 -1.649 1.639
1.492 -1.647 1.652
1.509 -1.638 1.661
1.524 -1.626 1.67
1.545 -1.621 1.681
1.574 -1.625 1.697
1.594 -1.618 1.708
1.632 -1.63 1.729
1.671 -1.641 1.751
1.714 -1.656 1.774
6.167 -6.048 4.232
6.154 -5.929 4.224
6.132 -5.804 4.212
6.135 -5.705 4.214
6.125 -5.595 4.208
6.107 -5.479 4.198
6.086 -5.363 4.187
6.092 -5.272 4.19
6.076 -5.164 4.181
6.066 -5.063 4.176
6.058 -4.964 4.171
6.059 -4.875 4.172
6.04 -4.77 4.162
6.038 -4.68 4.16
6.019 -4.579 4.15
6.019 -4.493 4.15
6.008 -4.4 4.144
6.012 -4.319 4.146
6.031 -4.25 4.157
6.136 -4.242 4.214
0 0 0
0 0 0
0 0 0
0 0 0
0 0 0
0 0 0
0 0 0
0 0 0
4.347 -2.486 3.227
4.336 -2.426 3.221
4.364 -2.389 3.236
4.386 -2.348 3.249
4.42 -2.314 3.268
0 0 0
0 0 0
0 0 0
5.856 -2.802 4.06
5.905 -2.758 4.087
5.97 -2.72 4.123
6.067 -2.696 4.176
0 0 0
0 0 0
0 0 0
0 0 0
0 0 0
0 0 0
0 0 0
0 0 0
2.243 -0.757 2.066
2.189 -0.715 2.037
2.14 -0.676 2.009
2.14 -0.654 2.009
2.138 -0.631 2.008
2.15 -0.613 2.015
2.159 -0.593 2.02
2.167 -0.574 2.024
2.172 -0.553 2.027
2.168 -0.53 2.025
2.141 -0.501 2.01
2.141 -0.48 2.01
2.147 -0.46 2.013
2.167 -0.443 2.025
5.661 -1.125 3.952
5.662 -1.068 3.953
5.652 -1.009 3.948
5.649 -0.951 3.946
5.649 -0.895 3.946
5.647 -0.838 3.944
5.642 -0.781 3.942
5.646 -0.725 3.944
5.631 -0.667 3.936
5.628 -0.611 3.934
5.616 -0.554 3.927
5.62 -0.498 3.93
5.616 -0.442 3.927
2.9 -0.197 2.429
2.775 -0.162 2.36
2.633 -0.128 2.282
2.639 -0.102 2.285
2.645 -0.077 2.288
2.703 -0.052 2.32
2.699 -0.026 2.318
2.696 -0 2.316
2.734 0.026 2.337
2.758 0.053 2.35
5.567 0.164 3.9
5.559 0.219 3.896
5.566 0.274 3.9
5.54 0.327 3.886
5.541 0.382 3.886
5.526 0.435 3.878
5.529 0.49 3.879
5.518 0.544 3.873
5.52 0.599 3.874
5.515 0.653 3.872
5.516 0.708 3.872
5.51 0.762 3.869
5.501 0.816 3.864
5.487 0.869 3.856
5.488 0.924 3.857
5.48 0.978 3.853
3.459 0.647 2.737
3.155 0.62 2.569
2.698 0.555 2.317
2.693 0.581 2.314
2.691 0.608 2.314
2.693 0.635 2.314
2.687 0.661 2.311
2.683 0.687 2.309
2.687 0.716 2.311
2.681 0.742 2.308
2.677 0.768 2.306
2.671 0.794 2.302
2.672 0.823 2.303
2.667 0.849 2.3
2.669 0.877 2.301
2.669 0.906 2.302
2.667 0.933 2.3
2.663 0.96 2.298
2.644 0.982 2.288
2.637 1.007 2.284
2.636 1.036 2.283
2.628 1.061 2.279
2.636 1.093 2.283
2.627 1.119 2.278
2.627 1.148 2.278
2.625 1.177 2.277
2.624 1.205 2.276
2.616 1.232 2.272
2.44 1.174 2.175
1.539 0.744 1.678
1.48 0.731 1.645
1.44 0.726 1.623
1.437 0.742 1.622
1.436 0.758 1.621
0 0 0
1.377 0.758 1.589
1.334 0.748 1.565
1.348 0.773 1.572
1.278 0.746 1.534
1.248 0.742 1.517
1.194 0.723 1.487
1.142 0.703 1.458
1.137 0.714 1.456
1.129 0.723 1.452
1.131 0.739 1.453
1.125 0.749 1.45
1.127 0.765 1.45
1.12 0.775 1.447
1.128 0.796 1.451
1.108 0.795 1.44
0.9 0.647 1.325
0.876 0.64 1.312
0.846 0.628 1.295
0.821 0.618 1.281
0.792 0.606 1.266
0.766 0.594 1.251
0.735 0.578 1.234
0.71 0.566 1.22
0.695 0.563 1.212
0.669 0.549 1.198
0.645 0.536 1.184
0.629 0.531 1.176
0.615 0.526 1.168
0.6 0.521 1.16
0.587 0.517 1.152
0.573 0.511 1.145
0.557 0.504 1.136
0.545 0.5 1.129
0.526 0.489 1.119
0.517 0.487 1.114
0.509 0.486 1.109
0.493 0.477 1.101
0.485 0.476 1.096
0.476 0.473 1.091
0.467 0.471 1.086
0.453 0.462 1.078
0.442 0.457 1.073
0.433 0.454 1.068
0.425 0.452 1.063
0.416 0.447 1.058
0.408 0.444 1.053
0.405 0.449 1.052
0.391 0.437 1.044
0.387 0.44 1.042
0.379 0.436 1.038
0.37 0.431 1.033
0.363 0.428 1.029
0.355 0.423 1.024
0.353 0.428 1.023
0.344 0.422 1.018
0.336 0.417 1.014
0.329 0.413 1.01
0.326 0.417 1.009
0.322 0.417 1.006
0.314 0.412 1.002
0.311 0.413 1
0.303 0.407 0.996
0.295 0.401 0.991
0.291 0.402 0.989
0.284 0.396 0.985
0.28 0.397 0.983
0.273 0.391 0.979
0.271 0.394 0.978
0.266 0.393 0.975
0.26 0.388 0.972
0.256 0.388 0.97
0.253 0.389 0.968
0.246 0.382 0.964
0.243 0.383 0.962
0.237 0.379 0.96
0.233 0.376 0.957
0.231 0.381 0.956
0.226 0.378 0.953
0.223 0.377 0.951
0.217 0.372 0.948
0.215 0.375 0.947
0.208 0.366 0.943
0.205 0.365 0.942
0.201 0.365 0.94
0.197 0.362 0.937
0.196 0.367 0.937
0.192 0.365 0.934
0.189 0.366 0.933
0.184 0.358 0.93
0.181 0.359 0.928
0.177 0.358 0.926
0.174 0.359 0.925
0.172 0.36 0.923
0.168 0.356 0.921
0.165 0.356 0.919
0.163 0.359 0.918
0.159 0.355 0.916
0.157 0.362 0.915
0.157 0.373 0.915
0.155 0.377 0.914
0.152 0.381 0.913
0.151 0.389 0.912
0.148 0.387 0.91
0.147 0.404 0.91
0.145 0.41 0.909
0.143 0.414 0.907
0.138 0.407 0.905
0.135 0.405 0.903
0.132 0.406 0.901
0.128 0.401 0.899
0.126 0.407 0.898
0.122 0.402 0.896
0.118 0.394 0.894
0.115 0.399 0.892
0.112 0.397 0.89
0.109 0.397 0.889
0.106 0.402 0.887
0.103 0.393 0.885
0.099 0.382 0.883
0.096 0.381 0.881
0.093 0.388 0.88
0.09 0.377 0.878
0.087 0.377 0.877
0.084 0.382 0.875
0.081 0.381 0.873
0.078 0.38 0.872
0.075 0.383 0.87
0.075 -0.488 0.871
0.079 -0.487 0.873
0.082 -0.489 0.875
0.086 -0.483 0.877
0.09 -0.482 0.879
0.093 -0.483 0.881
0.097 -0.483 0.883
0.1 -0.477 0.885
0.104 -0.479 0.887
0.107 -0.474 0.889
0.111 -0.475 0.891
0.115 -0.482 0.893
0.119 -0.48 0.895
0.123 -0.479 0.897
0.126 -0.476 0.899
0.13 -0.483 0.902
0.133 -0.473 0.903
0.137 -0.474 0.905
0.14 -0.471 0.907
0.145 -0.478 0.91
0.148 -0.477 0.912
0.152 -0.474 0.914
0.155 -0.472 0.916
0.158 -0.468 0.917
0.163 -0.472 0.92
0.167 -0.475 0.922
0.169 -0.467 0.923
0.174 -0.472 0.926
0.176 -0.465 0.927
0.182 -0.476 0.931
0.188 -0.483 0.934
0.191 -0.482 0.936
0.195 -0.479 0.938
0.2 -0.482 0.941
0.204 -0.486 0.943
0.208 -0.485 0.946
0.212 -0.482 0.947
0.216 -0.482 0.95
0.221 -0.486 0.953
0.225 -0.487 0.955
0.229 -0.486 0.957
0.235 -0.491 0.961
0.241 -0.495 0.964
0.245 -0.494 0.966
2.749 -7.589 2.372
2.815 -7.586 2.409
2.88 -7.579 2.446
2.946 -7.571 2.482
3.012 -7.566 2.52
3.077 -7.555 2.556
3.145 -7.55 2.594
3.212 -7.543 2.632
3.281 -7.537 2.67
3.348 -7.529 2.708
3.419 -7.527 2.748
3.448 -7.43 2.764
3.388 -7.146 2.731
3.37 -6.96 2.721
3.368 -6.813 2.719
3.551 -7.046 2.822
3.687 -7.175 2.899
3.762 -7.179 2.941
3.829 -7.164 2.978
3.893 -7.145 3.014
3.969 -7.146 3.056
4.04 -7.137 3.096
4.115 -7.135 3.139
4.071 -6.923 3.114
4.084 -6.816 3.121
4.131 -6.769 3.148
4.58 -7.379 3.4
4.661 -7.373 3.445
4.737 -7.359 3.488
4.82 -7.354 3.534
4.899 -7.342 3.579
4.985 -7.338 3.627
5.066 -7.325 3.672
5.154 -7.322 3.722
5.233 -7.304 3.766
5.321 -7.298 3.816
5.409 -7.29 3.865
5.493 -7.276 3.913
5.589 -7.275 3.966
1.391 -1.706 1.61
1.401 -1.688 1.615
1.419 -1.682 1.625
1.436 -1.673 1.635
1.461 -1.675 1.649
1.466 -1.652 1.651
1.487 -1.648 1.664
1.504 -1.638 1.673
1.522 -1.631 1.683
1.545 -1.628 1.696
1.568 -1.625 1.709
1.595 -1.625 1.724
1.635 -1.639 1.746
1.665 -1.642 1.763
1.71 -1.659 1.789
6.156 -6.062 4.284
6.143 -5.944 4.277
6.126 -5.822 4.267
6.125 -5.72 4.267
6.106 -5.601 4.257
6.094 -5.491 4.25
6.073 -5.374 4.238
6.076 -5.28 4.239
6.064 -5.176 4.233
6.053 -5.073 4.227
6.043 -4.973 4.221
6.04 -4.879 4.219
6.023 -4.776 4.21
6.02 -4.685 4.208
6.008 -4.589 4.201
6.001 -4.498 4.198
5.996 -4.41 4.195
5.994 -4.325 4.194
6.006 -4.25 4.201
6.116 -4.245 4.262
0 0 0
0 0 0
0 0 0
0 0 0
0 0 0
0 0 0
0 0 0
0 0 0
0 0 0
4.36 -2.45 3.276
4.351 -2.392 3.271
4.372 -2.351 3.283
4.407 -2.317 3.303
0 0 0
0 0 0
0 0 0
5.837 -2.805 4.106
5.893 -2.764 4.137
5.944 -2.719 4.165
6.037 -2.693 4.218
0 0 0
0 0 0
0 0 0
0 0 0
0 0 0
0 0 0
0 0 0
0 0 0
2.214 -0.75 2.071
2.207 -0.724 2.068
2.136 -0.678 2.028
2.135 -0.655 2.027
2.144 -0.636 2.032
2.149 -0.615 2.035
2.146 -0.592 2.033
2.159 -0.574 2.041
2.16 -0.552 2.041
2.176 -0.534 2.05
2.127 -0.5 2.023
2.134 -0.48 2.027
2.134 -0.459 2.027
2.162 -0.444 2.042
5.657 -1.129 4.004
5.647 -1.069 3.999
5.646 -1.012 3.998
5.643 -0.954 3.996
5.636 -0.896 3.993
5.64 -0.84 3.995
5.627 -0.782 3.988
5.622 -0.725 3.984
5.619 -0.668 3.983
5.621 -0.612 3.984
5.609 -0.555 3.978
5.609 -0.499 3.977
5.598 -0.443 3.971
5.593 -0.387 3.968
2.763 -0.162 2.38
2.64 -0.128 2.311
2.627 -0.102 2.304
2.63 -0.077 2.305
2.694 -0.052 2.341
2.698 -0.026 2.343
2.683 -0 2.335
2.72 0.026 2.356
2.747 0.053 2.371
5.554 0.165 3.947
5.54 0.219 3.939
5.551 0.274 3.945
5.524 0.328 3.93
5.518 0.382 3.926
5.515 0.436 3.925
5.512 0.491 3.923
5.505 0.545 3.919
5.507 0.6 3.92
5.506 0.655 3.92
5.493 0.708 3.912
5.484 0.762 3.907
5.485 0.817 3.908
5.481 0.871 3.906
5.475 0.925 3.902
5.461 0.978 3.894
3.447 0.647 2.764
3.021 0.596 2.525
2.693 0.556 2.34
2.688 0.583 2.338
2.69 0.61 2.339
2.68 0.635 2.333
2.683 0.663 2.335
2.671 0.687 2.328
2.675 0.716 2.33
2.671 0.742 2.328
2.673 0.771 2.329
2.668 0.797 2.326
2.67 0.825 2.327
2.664 0.851 2.324
2.664 0.88 2.324
2.658 0.906 2.321
2.661 0.935 2.322
2.65 0.959 2.316
2.633 0.982 2.307
2.626 1.007 2.303
2.626 1.036 2.303
2.625 1.064 2.302
2.625 1.093 2.302
2.625 1.122 2.302
2.623 1.151 2.301
2.614 1.177 2.296
2.62 1.209 2.299
2.612 1.235 2.295
2.534 1.226 2.251
1.542 0.749 1.694
1.483 0.736 1.661
1.438 0.729 1.636
1.432 0.742 1.632
1.429 0.758 1.631
0 0 0
1.369 0.756 1.597
1.321 0.744 1.57
1.295 0.744 1.556
1.263 0.74 1.538
1.252 0.748 1.531
1.186 0.721 1.494
1.14 0.705 1.468
1.132 0.714 1.464
1.124 0.723 1.46
1.128 0.74 1.462
1.121 0.75 1.458
1.122 0.765 1.459
1.116 0.776 1.455
1.123 0.795 1.459
1.102 0.795 1.447
0.893 0.645 1.33
0.874 0.641 1.319
0.843 0.628 1.302
0.816 0.618 1.287
0.784 0.601 1.269
0.76 0.592 1.255
0.734 0.58 1.24
0.706 0.566 1.225
0.685 0.557 1.213
0.668 0.551 1.204
0.648 0.542 1.193
0.627 0.531 1.18
0.613 0.527 1.173
0.597 0.521 1.164
0.578 0.51 1.153
0.571 0.512 1.149
0.555 0.504 1.14
0.541 0.498 1.132
0.522 0.486 1.121
0.515 0.487 1.118
0.5 0.479 1.11
0.491 0.477 1.104
0.482 0.475 1.099
0.474 0.474 1.095
0.459 0.464 1.086
0.451 0.462 1.082
0.441 0.458 1.076
0.432 0.455 1.071
0.423 0.451 1.066
0.419 0.454 1.064
0.406 0.445 1.057
0.397 0.44 1.051
0.388 0.436 1.047
0.386 0.44 1.045
0.377 0.436 1.04
0.369 0.431 1.036
0.361 0.427 1.031
0.354 0.424 1.027
0.351 0.428 1.026
0.343 0.423 1.021
0.334 0.417 1.016
0.327 0.413 1.012
0.325 0.417 1.011
0.316 0.41 1.006
0.313 0.412 1.004
0.305 0.406 1
0.301 0.407 0.998
0.294 0.401 0.993
0.29 0.402 0.991
0.282 0.396 0.987
0.279 0.398 0.986
0.276 0.398 0.983
0.272 0.4 0.982
0.266 0.394 0.978
0.258 0.388 0.974
0.258 0.395 0.973
0.251 0.389 0.97
0.245 0.382 0.966
0.242 0.384 0.964
0.236 0.378 0.961
0.232 0.377 0.959
0.23 0.381 0.958
0.225 0.379 0.955
0.222 0.378 0.953
0.216 0.373 0.95
0.21 0.365 0.947
0.21 0.375 0.947
0.204 0.365 0.943
0.203 0.374 0.943
0.196 0.361 0.939
0.195 0.367 0.938
0.19 0.363 0.935
0.188 0.366 0.934
0.184 0.363 0.932
0.18 0.358 0.929
0.176 0.358 0.928
0.174 0.359 0.926
0.169 0.351 0.923
0.166 0.353 0.922
0.164 0.358 0.921
0.161 0.358 0.919
0.159 0.361 0.918
0.157 0.362 0.917
0.156 0.374 0.916
0.154 0.377 0.915
0.152 0.381 0.914
