# .PCD v0.7 - Point Cloud Data file format
VERSION 0.7
FIELDS x y z
SIZE 4 4 4
TYPE F F F
COUNT 1 1 1
WIDTH 2515
HEIGHT 1
VIEWPOINT 0 0 0 1 0 0 0
POINTS 2515
DATA ascii
5.335 0.463 1.617
4.399 0.419 1.478
4.352 0.452 1.471
4.347 0.49 1.47
4.577 0.556 1.504
5.561 0.727 1.65
5.358 0.748 1.62
5.376 0.798 1.623
5.398 0.849 1.626
3.484 0.573 1.342
3.587 0.622 1.357
3.312 0.603 1.317
2.996 0.57 1.27
2.99 0.595 1.269
2.991 0.622 1.269
2.985 0.648 1.268
2.986 0.675 1.268
2.736 0.641 1.231
2.698 0.656 1.226
2.715 0.685 1.228
2.67 0.698 1.221
2.67 0.722 1.221
2.628 0.734 1.215
2.676 0.773 1.222
2.657 0.792 1.219
2.056 0.625 1.13
1.784 0.555 1.09
1.78 0.57 1.089
1.783 0.587 1.09
1.777 0.602 1.089
1.773 0.617 1.088
1.707 0.609 1.079
1.629 0.595 1.067
1.581 0.592 1.06
1.51 0.578 1.049
1.461 0.572 1.042
1.418 0.568 1.036
0 0 0
0 0 0
0 0 0
0 0 0
1.16 0.514 0.997
1.163 0.526 0.998
1.166 0.539 0.998
1.154 0.545 0.996
1.164 0.562 0.998
1.148 0.566 0.996
1.168 0.589 0.999
1.176 0.606 1
1.175 0.617 1
1.169 0.627 0.999
1.179 0.645 1
1.181 0.659 1
1.172 0.667 0.999
1.165 0.676 0.998
1.141 0.674 0.995
1.15 0.692 0.996
1.14 0.699 0.994
1.153 0.721 0.996
1.143 0.728 0.995
1.058 0.681 0.982
0.985 0.642 0.971
0.959 0.634 0.967
0.923 0.619 0.962
0.888 0.604 0.957
0.86 0.594 0.953
0.833 0.582 0.949
0.805 0.571 0.945
0.78 0.561 0.941
0.761 0.555 0.938
0.74 0.547 0.935
0.716 0.536 0.931
0.695 0.527 0.928
0.682 0.525 0.926
0.668 0.521 0.924
0.652 0.515 0.922
0.633 0.507 0.919
0.615 0.498 0.916
0.6 0.493 0.914
0.59 0.491 0.913
0.574 0.484 0.91
0.565 0.483 0.909
0.555 0.481 0.908
0.539 0.473 0.905
0.524 0.464 0.903
0.518 0.466 0.902
0.508 0.463 0.901
0.499 0.461 0.899
0.49 0.459 0.898
0.479 0.454 0.896
0.47 0.452 0.895
0.461 0.449 0.894
0.451 0.444 0.892
0.441 0.439 0.891
0.431 0.434 0.889
0.428 0.439 0.889
0.415 0.429 0.887
0.411 0.432 0.886
0.401 0.426 0.885
0.398 0.429 0.884
0.389 0.424 0.883
0.376 0.413 0.881
0.376 0.42 0.881
0.367 0.414 0.88
0.363 0.417 0.879
0.355 0.412 0.878
0.345 0.405 0.876
0.342 0.407 0.876
0.338 0.408 0.875
0.329 0.402 0.874
0.322 0.397 0.873
0.317 0.397 0.872
0.313 0.398 0.872
0.306 0.393 0.871
0.301 0.391 0.87
0.296 0.389 0.869
0.293 0.393 0.869
0.288 0.391 0.868
0.281 0.386 0.867
0.274 0.378 0.866
0.27 0.38 0.865
0.267 0.381 0.865
0.259 0.373 0.864
0.256 0.374 0.863
0.253 0.376 0.863
0.246 0.368 0.862
0.246 0.378 0.862
0.239 0.369 0.861
0.234 0.365 0.86
0.232 0.37 0.86
0.227 0.365 0.859
0.222 0.363 0.858
0.217 0.356 0.857
0.214 0.359 0.857
0.21 0.357 0.856
0.208 0.362 0.856
0.202 0.354 0.855
0.2 0.358 0.855
0.195 0.351 0.854
0.193 0.358 0.854
0.192 0.364 0.854
0.19 0.371 0.853
0.185 0.365 0.853
0.186 0.384 0.853
0.183 0.386 0.852
0.184 0.406 0.853
0.183 0.418 0.852
0.178 0.414 0.852
0.174 0.407 0.851
0.169 0.403 0.85
0.167 0.411 0.85
0.161 0.396 0.849
0.158 0.402 0.849
0.154 0.401 0.848
0.151 0.399 0.848
0.147 0.398 0.847
0.144 0.403 0.847
0.14 0.397 0.846
0.136 0.396 0.846
0.133 0.392 0.845
0.128 0.38 0.844
0.125 0.383 0.844
0.122 0.387 0.843
0.119 0.385 0.843
0.116 0.391 0.842
0.112 0.388 0.842
0.109 0.384 0.841
0.105 0.376 0.841
0.102 0.376 0.84
0.099 0.378 0.84
0.095 0.384 0.839
0.095 -0.489 0.84
0.099 -0.483 0.841
0.103 -0.485 0.841
0.107 -0.477 0.842
0.111 -0.479 0.843
0.116 -0.48 0.843
0.119 -0.472 0.844
0.124 -0.475 0.845
0.128 -0.475 0.845
0.132 -0.476 0.846
0.136 -0.47 0.846
0.14 -0.469 0.847
0.144 -0.468 0.848
0.148 -0.468 0.848
0.151 -0.466 0.849
0.156 -0.466 0.85
0.16 -0.466 0.85
0.164 -0.465 0.851
0.168 -0.465 0.851
0.171 -0.463 0.852
0.177 -0.469 0.853
0.181 -0.471 0.854
0.185 -0.47 0.854
0.19 -0.473 0.855
0.194 -0.471 0.856
0.2 -0.477 0.856
0.203 -0.475 0.857
0.207 -0.473 0.858
0.212 -0.474 0.858
0.215 -0.47 0.859
0.223 -0.485 0.86
0.228 -0.485 0.861
0.232 -0.483 0.861
0.236 -0.481 0.862
0.243 -0.489 0.863
0.246 -0.485 0.864
0.252 -0.488 0.865
0.253 -0.478 0.865
0.261 -0.487 0.866
0.267 -0.491 0.867
0.271 -0.489 0.867
0.276 -0.489 0.868
0.28 -0.488 0.869
0.336 -0.62 0.878
0.555 -1.152 0.912
0.583 -1.193 0.916
0.603 -1.211 0.919
0.615 -1.21 0.921
0.627 -1.209 0.923
0.64 -1.211 0.925
0.653 -1.211 0.927
0.665 -1.209 0.929
0.678 -1.21 0.931
0.687 -1.202 0.932
0.701 -1.205 0.935
0.716 -1.207 0.937
0.723 -1.195 0.938
0.737 -1.197 0.94
0.743 -1.182 0.941
0.76 -1.19 0.944
0.768 -1.18 0.945
0.782 -1.181 0.947
0.797 -1.183 0.95
0.811 -1.182 0.952
3.962 -6.264 1.443
4.037 -6.262 1.454
4.107 -6.252 1.465
4.181 -6.248 1.477
4.33 -6.355 1.5
5.071 -7.327 1.615
4.519 -6.395 1.529
5.26 -7.328 1.645
5.356 -7.328 1.66
4.767 -6.39 1.568
5.517 -7.283 1.685
5.494 -7.121 1.681
5.491 -6.99 1.681
5.59 -6.992 1.696
5.602 -6.882 1.698
5.431 -6.551 1.671
5.741 -6.81 1.72
5.741 -6.691 1.72
5.835 -6.683 1.734
5.982 -6.735 1.757
6.226 -6.892 1.795
6.202 -6.745 1.792
6.28 -6.712 1.804
6.299 -6.616 1.807
5.064 -5.207 1.614
5.054 -5.108 1.613
5.045 -5.01 1.611
5.031 -4.909 1.609
5.022 -4.815 1.608
5.013 -4.723 1.606
6.586 -6.126 1.851
6.572 -6.007 1.849
6.559 -5.89 1.847
6.548 -5.778 1.846
6.537 -5.668 1.844
2.344 -1.944 1.19
2.22 -1.805 1.171
2.185 -1.743 1.166
2.196 -1.722 1.167
2.214 -1.706 1.17
2.243 -1.699 1.175
6.163 -4.712 1.786
6.159 -4.624 1.785
6.155 -4.538 1.784
6.308 -4.568 1.808
6.411 -4.56 1.824
6.415 -4.479 1.825
6.409 -4.392 1.824
6.405 -4.307 1.823
6.39 -4.217 1.821
6.031 -3.901 1.765
6.365 -4.043 1.817
4.292 -2.654 1.494
4.301 -2.608 1.495
4.339 -2.581 1.501
6.102 -3.581 1.776
6.322 -3.638 1.81
6.319 -3.564 1.81
4.279 -2.347 1.492
4.293 -2.307 1.494
4.328 -2.278 1.5
6.286 -3.262 1.805
6.279 -3.189 1.804
6.27 -3.116 1.802
6.264 -3.045 1.801
6.25 -2.971 1.799
6.251 -2.905 1.799
5.683 -2.577 1.711
5.52 -2.444 1.685
5.556 -2.403 1.691
5.592 -2.362 1.697
5.184 -2.133 1.633
5.145 -2.065 1.627
5.134 -2.009 1.625
5.117 -1.951 1.623
5.107 -1.897 1.621
5.104 -1.845 1.621
5.087 -1.789 1.618
5.075 -1.736 1.616
5.121 -1.702 1.623
5.209 -1.682 1.637
5.294 -1.659 1.65
5.372 -1.633 1.662
5.221 -1.537 1.639
5.072 -1.444 1.616
4.518 -1.241 1.529
4.522 -1.201 1.53
4.517 -1.158 1.529
4.508 -1.114 1.528
4.511 -1.073 1.528
4.502 -1.03 1.527
4.495 -0.987 1.526
4.495 -0.947 1.526
4.485 -0.904 1.524
4.476 -0.862 1.523
4.475 -0.822 1.522
4.474 -0.781 1.522
4.463 -0.74 1.521
4.676 -0.734 1.554
5.632 -0.837 1.703
5.618 -0.786 1.701
5.617 -0.736 1.7
5.605 -0.685 1.699
5.611 -0.636 1.7
5.597 -0.585 1.697
5.76 -0.552 1.723
5.933 -0.517 1.75
4.986 -0.39 1.602
5.981 -0.417 1.757
5.978 -0.364 1.757
5.731 -0.299 1.718
3.133 -0.134 1.314
3.122 -0.107 1.312
3.11 -0.08 1.31
3.121 -0.053 1.312
3.253 -0.028 1.332
3.35 -0 1.347
3.363 0.029 1.349
5.928 0.103 1.749
5.188 0.135 1.634
4.543 0.157 1.533
4.442 0.192 1.517
5.66 0.295 1.707
5.6 0.341 1.698
5.287 0.367 1.649
5.274 0.413 1.647
5.256 0.457 1.644
4.558 0.435 1.536
4.347 0.452 1.503
4.356 0.491 1.504
5.115 0.624 1.622
5.219 0.683 1.639
5.397 0.754 1.666
5.417 0.805 1.669
5.441 0.857 1.673
3.487 0.575 1.369
3.529 0.613 1.375
3.159 0.575 1.318
2.993 0.57 1.292
2.987 0.596 1.291
2.981 0.621 1.29
2.982 0.648 1.29
2.982 0.675 1.29
2.857 0.671 1.27
2.724 0.663 1.25
2.755 0.696 1.255
2.703 0.707 1.247
2.742 0.743 1.253
2.648 0.741 1.238
2.7 0.781 1.246
2.667 0.796 1.241
1.986 0.604 1.135
1.782 0.555 1.103
1.778 0.57 1.102
1.779 0.587 1.103
1.775 0.602 1.102
1.772 0.618 1.101
1.707 0.61 1.091
1.635 0.598 1.08
1.57 0.588 1.07
1.512 0.58 1.061
1.459 0.572 1.053
1.423 0.57 1.047
0 0 0
0 0 0
0 0 0
0 0 0
0 0 0
1.152 0.522 1.005
1.162 0.539 1.006
1.15 0.544 1.004
1.14 0.55 1.003
1.145 0.565 1.004
1.169 0.59 1.007
1.167 0.601 1.007
1.166 0.614 1.007
1.173 0.63 1.008
1.166 0.638 1.007
1.182 0.661 1.01
1.171 0.667 1.008
1.161 0.674 1.006
1.148 0.679 1.004
1.15 0.693 1.004
1.149 0.706 1.004
1.138 0.712 1.003
1.141 0.727 1.003
1.064 0.687 0.991
0.985 0.643 0.979
0.95 0.629 0.973
0.922 0.619 0.969
0.886 0.604 0.963
0.859 0.594 0.959
0.838 0.587 0.956
0.804 0.571 0.951
0.787 0.567 0.948
0.761 0.555 0.944
0.739 0.547 0.94
0.714 0.535 0.937
0.701 0.533 0.935
0.68 0.524 0.931
0.667 0.521 0.929
0.65 0.515 0.927
0.633 0.508 0.924
0.615 0.5 0.921
0.605 0.499 0.92
0.59 0.493 0.917
0.58 0.491 0.916
0.564 0.483 0.913
0.556 0.483 0.912
0.537 0.471 0.909
0.53 0.472 0.908
0.517 0.466 0.906
0.508 0.464 0.904
0.498 0.461 0.903
0.488 0.458 0.901
0.478 0.454 0.9
0.47 0.452 0.898
0.461 0.449 0.897
0.45 0.444 0.895
0.446 0.447 0.895
0.437 0.443 0.893
0.428 0.44 0.892
0.42 0.436 0.891
0.411 0.432 0.889
0.401 0.426 0.888
0.392 0.422 0.886
0.389 0.424 0.886
0.38 0.42 0.885
0.371 0.415 0.883
0.367 0.415 0.882
0.363 0.418 0.882
0.354 0.412 0.88
0.345 0.405 0.879
0.341 0.407 0.878
0.333 0.401 0.877
0.329 0.402 0.877
0.325 0.404 0.876
0.318 0.399 0.875
0.314 0.4 0.874
0.306 0.393 0.873
0.301 0.392 0.872
0.294 0.388 0.871
0.288 0.383 0.87
0.286 0.388 0.87
0.281 0.386 0.869
0.276 0.385 0.868
0.27 0.38 0.867
0.267 0.381 0.867
0.263 0.382 0.866
0.259 0.381 0.866
0.249 0.368 0.864
0.246 0.37 0.864
0.242 0.369 0.863
0.239 0.37 0.863
0.234 0.367 0.862
0.23 0.366 0.861
0.226 0.365 0.861
0.223 0.366 0.86
0.219 0.364 0.859
0.213 0.358 0.859
0.209 0.357 0.858
0.207 0.361 0.858
0.203 0.357 0.857
0.199 0.357 0.856
0.195 0.353 0.856
0.193 0.358 0.855
0.192 0.365 0.855
0.188 0.366 0.855
0.187 0.373 0.854
0.187 0.389 0.854
0.182 0.383 0.854
0.182 0.399 0.854
0.182 0.415 0.854
0.178 0.415 0.853
0.174 0.412 0.852
0.169 0.403 0.852
0.165 0.403 0.851
0.162 0.405 0.851
0.157 0.398 0.85
0.154 0.401 0.849
0.151 0.401 0.849
0.147 0.398 0.848
0.144 0.404 0.848
0.14 0.398 0.847
0.137 0.403 0.847
0.132 0.394 0.846
0.128 0.388 0.845
0.125 0.381 0.845
0.121 0.377 0.844
0.118 0.379 0.844
0.114 0.376 0.843
0.112 0.385 0.843
0.108 0.382 0.842
0.105 0.385 0.842
0.102 0.386 0.841
0.098 0.377 0.841
0.095 0.383 0.84
0.095 -0.488 0.841
0.099 -0.483 0.841
0.103 -0.478 0.842
0.107 -0.478 0.843
0.111 -0.479 0.843
0.115 -0.475 0.844
0.119 -0.474 0.845
0.123 -0.475 0.845
0.128 -0.476 0.846
0.132 -0.475 0.847
0.135 -0.468 0.847
0.139 -0.469 0.848
0.143 -0.468 0.849
0.147 -0.468 0.849
0.151 -0.464 0.85
0.155 -0.467 0.851
0.159 -0.467 0.851
0.163 -0.466 0.852
0.169 -0.474 0.853
0.171 -0.463 0.853
0.176 -0.469 0.854
0.181 -0.471 0.855
0.185 -0.47 0.856
0.188 -0.466 0.856
0.194 -0.471 0.857
0.197 -0.468 0.857
0.203 -0.475 0.858
0.206 -0.472 0.859
0.211 -0.474 0.86
0.215 -0.471 0.86
0.223 -0.485 0.862
0.225 -0.476 0.862
0.231 -0.482 0.863
0.235 -0.481 0.864
0.24 -0.48 0.864
0.245 -0.484 0.865
0.249 -0.481 0.866
0.256 -0.488 0.867
0.259 -0.485 0.868
0.266 -0.49 0.869
0.27 -0.489 0.869
0.275 -0.488 0.87
0.281 -0.492 0.871
0.343 -0.638 0.881
0.558 -1.162 0.916
0.581 -1.19 0.92
0.601 -1.209 0.923
0.615 -1.211 0.926
0.626 -1.21 0.928
0.641 -1.215 0.93
0.649 -1.204 0.931
0.662 -1.206 0.933
0.676 -1.208 0.936
0.684 -1.198 0.937
0.699 -1.201 0.939
0.712 -1.201 0.942
0.722 -1.195 0.943
0.737 -1.2 0.946
0.749 -1.196 0.948
0.761 -1.193 0.95
0.77 -1.185 0.951
0.783 -1.185 0.953
0.8 -1.189 0.956
0.814 -1.189 0.958
3.957 -6.263 1.471
4.032 -6.263 1.484
4.101 -6.251 1.495
4.176 -6.248 1.507
4.33 -6.362 1.532
5.038 -7.288 1.648
4.517 -6.4 1.563
5.222 -7.283 1.678
5.334 -7.306 1.696
5.401 -7.266 1.707
5.526 -7.303 1.728
5.528 -7.175 1.728
5.524 -7.041 1.727
5.639 -7.062 1.746
5.694 -7.007 1.755
5.352 -6.462 1.699
5.724 -6.797 1.76
5.743 -6.701 1.763
5.828 -6.683 1.777
5.982 -6.742 1.802
6.219 -6.892 1.841
6.202 -6.753 1.838
6.283 -6.724 1.851
6.328 -6.655 1.859
5.061 -5.211 1.652
5.045 -5.104 1.649
5.032 -5.003 1.647
5.025 -4.909 1.646
5.016 -4.815 1.644
5.001 -4.717 1.642
6.578 -6.126 1.899
6.564 -6.007 1.897
6.547 -5.886 1.894
6.542 -5.78 1.894
6.529 -5.668 1.892
2.342 -1.944 1.208
2.201 -1.791 1.185
2.184 -1.745 1.182
2.193 -1.722 1.183
2.209 -1.704 1.186
2.254 -1.709 1.193
6.151 -4.709 1.83
6.151 -4.624 1.83
6.147 -4.538 1.829
6.346 -4.602 1.862
6.414 -4.567 1.873
6.409 -4.48 1.872
6.401 -4.392 1.871
6.385 -4.299 1.868
6.376 -4.212 1.866
6.37 -4.129 1.865
6.053 -3.846 1.814
4.287 -2.654 1.525
4.297 -2.609 1.527
4.343 -2.587 1.535
6.039 -3.548 1.811
6.298 -3.629 1.854
6.305 -3.56 1.855
4.272 -2.346 1.523
4.273 -2.299 1.523
4.316 -2.274 1.53
6.279 -3.262 1.851
6.268 -3.187 1.849
6.262 -3.116 1.848
6.249 -3.041 1.846
6.242 -2.971 1.845
6.243 -2.905 1.845
5.653 -2.567 1.748
5.513 -2.444 1.726
5.55 -2.403 1.732
5.579 -2.359 1.736
5.169 -2.13 1.669
5.139 -2.065 1.665
5.126 -2.008 1.662
5.111 -1.951 1.66
5.101 -1.897 1.658
5.086 -1.841 1.656
5.074 -1.787 1.654
5.069 -1.736 1.653
5.118 -1.703 1.661
5.195 -1.679 1.674
5.279 -1.656 1.687
5.357 -1.63 1.7
5.358 -1.58 1.7
5.143 -1.467 1.665
4.515 -1.242 1.563
4.509 -1.199 1.562
4.514 -1.158 1.562
4.504 -1.114 1.561
4.496 -1.071 1.559
4.497 -1.03 1.56
4.49 -0.987 1.559
4.49 -0.947 1.559
4.481 -0.904 1.557
4.479 -0.864 1.557
4.47 -0.822 1.555
4.468 -0.781 1.555
4.457 -0.74 1.553
4.688 -0.737 1.591
5.624 -0.837 1.744
5.621 -0.787 1.743
5.609 -0.736 1.741
5.607 -0.686 1.741
5.596 -0.635 1.739
5.591 -0.585 1.738
5.753 -0.552 1.765
5.974 -0.521 1.801
4.996 -0.391 1.641
5.984 -0.417 1.803
5.967 -0.364 1.8
5.913 -0.309 1.791
3.133 -0.134 1.337
3.111 -0.107 1.333
3.098 -0.08 1.331
3.11 -0.053 1.333
3.216 -0.028 1.351
3.33 -0 1.369
3.343 0.029 1.371
5.928 0.103 1.793
5.215 0.136 1.677
4.479 0.155 1.557
4.436 0.192 1.55
5.666 0.296 1.751
5.894 0.359 1.788
5.34 0.372 1.697
5.286 0.414 1.688
5.245 0.457 1.682
4.455 0.425 1.553
4.346 0.453 1.535
4.368 0.493 1.539
5.111 0.624 1.66
5.129 0.672 1.663
5.351 0.748 1.699
5.693 0.848 1.755
5.686 0.897 1.754
3.488 0.575 1.395
3.494 0.607 1.396
3.169 0.577 1.343
2.99 0.57 1.314
2.985 0.596 1.313
2.978 0.621 1.312
2.979 0.648 1.312
2.972 0.673 1.311
2.882 0.678 1.296
2.767 0.675 1.277
2.747 0.695 1.274
2.762 0.724 1.276
2.78 0.755 1.279
2.743 0.77 1.273
2.8 0.812 1.283
2.738 0.819 1.272
2.073 0.632 1.164
1.779 0.555 1.116
1.776 0.57 1.115
1.77 0.584 1.114
1.774 0.603 1.115
1.763 0.615 1.113
1.705 0.61 1.104
1.633 0.598 1.092
1.577 0.592 1.083
1.511 0.58 1.072
1.457 0.572 1.063
1.424 0.572 1.058
0 0 0
0 0 0
0 0 0
0 0 0
0 0 0
1.161 0.527 1.015
1.15 0.533 1.013
1.156 0.548 1.014
1.143 0.553 1.012
1.146 0.567 1.013
1.16 0.586 1.015
1.17 0.604 1.016
1.172 0.617 1.017
1.169 0.629 1.016
1.17 0.642 1.016
1.181 0.661 1.018
1.172 0.669 1.017
1.159 0.674 1.015
1.153 0.683 1.014
1.146 0.692 1.012
1.148 0.706 1.013
1.146 0.719 1.012
1.139 0.727 1.011
1.061 0.685 0.999
0.983 0.642 0.986
0.949 0.629 0.98
0.921 0.619 0.976
0.886 0.604 0.97
0.857 0.593 0.965
0.83 0.582 0.961
0.804 0.572 0.957
0.778 0.561 0.952
0.759 0.555 0.949
0.738 0.547 0.946
0.713 0.535 0.942
0.701 0.534 0.94
0.681 0.525 0.937
0.666 0.521 0.934
0.649 0.515 0.931
0.632 0.507 0.928
0.613 0.498 0.925
0.599 0.493 0.923
0.59 0.493 0.922
0.573 0.484 0.919
0.563 0.483 0.917
0.555 0.483 0.916
0.538 0.473 0.913
0.529 0.472 0.912
0.516 0.466 0.91
0.506 0.463 0.908
0.498 0.461 0.907
0.482 0.451 0.904
0.478 0.455 0.903
0.469 0.452 0.902
0.46 0.449 0.9
0.449 0.444 0.899
0.446 0.448 0.898
0.436 0.443 0.897
0.427 0.439 0.895
0.418 0.435 0.894
0.405 0.424 0.891
0.4 0.426 0.891
0.397 0.429 0.89
0.388 0.424 0.889
0.38 0.42 0.887
0.376 0.422 0.887
0.366 0.416 0.885
0.363 0.418 0.885
0.354 0.412 0.883
0.345 0.405 0.882
0.341 0.407 0.881
0.332 0.4 0.88
0.328 0.402 0.879
0.325 0.404 0.878
0.317 0.399 0.877
0.314 0.401 0.877
0.305 0.392 0.875
0.301 0.393 0.874
0.295 0.389 0.873
0.291 0.391 0.873
0.286 0.389 0.872
0.277 0.379 0.871
0.275 0.383 0.87
0.269 0.378 0.869
0.266 0.38 0.869
0.262 0.382 0.868
0.255 0.373 0.867
0.253 0.378 0.867
0.249 0.377 0.866
0.241 0.368 0.865
0.239 0.372 0.864
0.236 0.372 0.864
0.229 0.364 0.863
0.225 0.362 0.862
0.221 0.361 0.861
0.217 0.36 0.861
0.213 0.359 0.86
0.209 0.357 0.859
0.206 0.358 0.859
0.204 0.363 0.859
0.198 0.354 0.858
0.196 0.358 0.857
0.192 0.355 0.857
0.189 0.358 0.856
0.189 0.368 0.856
0.186 0.373 0.856
0.184 0.375 0.855
0.182 0.383 0.855
0.182 0.397 0.855
0.182 0.419 0.855
0.178 0.415 0.854
0.174 0.412 0.854
0.168 0.4 0.853
0.165 0.405 0.852
0.161 0.404 0.852
0.157 0.4 0.851
0.154 0.403 0.85
0.151 0.403 0.85
0.147 0.4 0.849
0.143 0.402 0.849
0.14 0.399 0.848
0.136 0.403 0.848
0.132 0.396 0.847
0.128 0.385 0.846
0.124 0.384 0.846
0.121 0.388 0.845
0.118 0.381 0.845
0.115 0.387 0.844
0.111 0.379 0.843
0.108 0.383 0.843
0.104 0.375 0.842
0.101 0.385 0.842
0.098 0.382 0.841
0.095 0.382 0.841
0.095 -0.48 0.841
0.099 -0.484 0.842
0.103 -0.485 0.843
0.107 -0.477 0.843
0.111 -0.48 0.844
0.115 -0.48 0.845
0.119 -0.474 0.845
0.123 -0.475 0.846
0.127 -0.466 0.847
0.131 -0.467 0.847
0.135 -0.47 0.848
0.139 -0.47 0.849
0.143 -0.47 0.849
0.147 -0.468 0.85
0.151 -0.464 0.851
0.155 -0.468 0.851
0.159 -0.468 0.852
0.163 -0.464 0.853
0.168 -0.473 0.854
0.171 -0.462 0.854
0.176 -0.468 0.855
0.181 -0.472 0.856
0.184 -0.469 0.856
0.188 -0.465 0.857
0.193 -0.471 0.858
0.197 -0.469 0.858
0.202 -0.474 0.859
0.206 -0.471 0.86
0.21 -0.472 0.861
0.215 -0.471 0.861
0.22 -0.476 0.862
0.225 -0.476 0.863
0.231 -0.482 0.864
0.235 -0.481 0.865
0.239 -0.48 0.865
0.245 -0.484 0.866
0.251 -0.488 0.867
0.253 -0.48 0.868
0.259 -0.483 0.869
0.264 -0.486 0.87
0.272 -0.494 0.871
0.275 -0.489 0.871
0.28 -0.49 0.872
0.346 -0.649 0.883
0.563 -1.176 0.919
0.593 -1.22 0.924
0.597 -1.201 0.925
0.614 -1.211 0.928
0.624 -1.207 0.93
0.634 -1.201 0.931
0.651 -1.21 0.934
0.661 -1.205 0.936
0.673 -1.203 0.938
0.684 -1.198 0.94
0.699 -1.202 0.942
0.714 -1.207 0.945
0.724 -1.2 0.946
0.734 -1.194 0.948
0.747 -1.193 0.95
0.758 -1.19 0.952
0.777 -1.199 0.955
0.789 -1.195 0.957
0.801 -1.191 0.959
0.814 -1.19 0.961
3.961 -6.273 1.487
4.029 -6.262 1.499
4.099 -6.251 1.511
4.168 -6.24 1.522
4.332 -6.369 1.55
5.035 -7.288 1.667
5.115 -7.269 1.68
5.207 -7.268 1.696
5.295 -7.257 1.71
5.38 -7.242 1.725
5.487 -7.256 1.743
5.563 -7.226 1.755
5.628 -7.18 1.766
5.737 -7.191 1.784
5.729 -7.054 1.783
5.271 -6.367 1.707
5.72 -6.797 1.782
5.735 -6.696 1.784
5.828 -6.687 1.8
6.007 -6.776 1.83
6.215 -6.892 1.864
6.19 -6.744 1.86
6.279 -6.724 1.875
6.367 -6.702 1.89
5.054 -5.207 1.67
5.045 -5.108 1.669
5.029 -5.003 1.666
5.016 -4.904 1.664
5.006 -4.809 1.662
5 -4.719 1.661
6.569 -6.121 1.923
6.556 -6.003 1.921
6.538 -5.882 1.918
6.529 -5.772 1.917
6.523 -5.666 1.916
2.3 -1.909 1.21
2.192 -1.784 1.192
2.182 -1.745 1.19
2.192 -1.722 1.192
2.207 -1.704 1.194
2.249 -1.707 1.201
6.153 -4.714 1.854
6.139 -4.618 1.852
6.149 -4.542 1.853
6.334 -4.596 1.884
6.411 -4.568 1.897
6.405 -4.48 1.896
6.397 -4.392 1.895
6.381 -4.299 1.892
6.378 -4.217 1.892
6.187 -4.011 1.86
5.896 -3.747 1.811
4.287 -2.656 1.542
4.287 -2.605 1.542
4.334 -2.583 1.55
5.907 -3.471 1.813
6.264 -3.611 1.873
6.302 -3.561 1.879
4.252 -2.337 1.536
4.263 -2.295 1.538
4.31 -2.273 1.546
6.275 -3.262 1.874
6.265 -3.187 1.873
6.251 -3.112 1.87
6.245 -3.041 1.869
6.24 -2.972 1.868
6.233 -2.902 1.867
5.634 -2.559 1.767
5.511 -2.445 1.747
5.545 -2.403 1.752
5.581 -2.361 1.758
5.156 -2.125 1.687
5.14 -2.067 1.685
5.116 -2.005 1.681
5.107 -1.951 1.679
5.089 -1.893 1.676
5.083 -1.841 1.675
5.07 -1.787 1.673
5.058 -1.733 1.671
5.111 -1.702 1.68
5.199 -1.682 1.695
5.279 -1.657 1.708
5.355 -1.631 1.721
5.36 -1.581 1.721
5.437 -1.553 1.734
4.511 -1.242 1.579
4.507 -1.199 1.579
4.5 -1.155 1.578
4.501 -1.114 1.578
4.494 -1.071 1.577
4.495 -1.03 1.577
4.485 -0.987 1.575
4.476 -0.944 1.574
4.469 -0.902 1.572
4.467 -0.862 1.572
4.468 -0.822 1.572
4.456 -0.78 1.57
4.455 -0.74 1.57
4.712 -0.741 1.613
5.621 -0.837 1.765
5.609 -0.786 1.763
5.607 -0.736 1.763
5.603 -0.686 1.762
5.593 -0.635 1.76
5.588 -0.585 1.759
5.746 -0.552 1.786
5.983 -0.522 1.826
4.992 -0.391 1.66
5.98 -0.417 1.825
5.955 -0.363 1.821
5.958 -0.312 1.821
3.117 -0.134 1.346
3.106 -0.107 1.345
3.089 -0.079 1.342
3.107 -0.053 1.345
3.184 -0.027 1.358
3.323 -0 1.381
3.326 0.029 1.381
5.917 0.103 1.814
4.886 0.127 1.642
4.423 0.153 1.565
4.424 0.192 1.565
5.701 0.298 1.778
5.6 0.341 1.761
5.384 0.375 1.725
5.311 0.416 1.713
5.253 0.458 1.703
4.358 0.416 1.554
4.34 0.452 1.551
4.386 0.496 1.559
5.121 0.626 1.682
5.128 0.672 1.683
5.259 0.736 1.705
5.776 0.861 1.791
5.832 0.921 1.8
3.505 0.579 1.411
3.489 0.607 1.409
3.252 0.593 1.369
2.981 0.569 1.324
2.977 0.595 1.323
2.977 0.621 1.323
2.971 0.647 1.322
2.971 0.673 1.322
2.795 0.657 1.293
2.797 0.683 1.293
2.865 0.726 1.304
2.764 0.725 1.287
2.895 0.788 1.309
2.796 0.785 1.293
2.828 0.821 1.298
2.776 0.831 1.289
2.076 0.634 1.172
1.779 0.555 1.123
1.774 0.57 1.122
1.776 0.587 1.122
1.773 0.603 1.122
1.764 0.616 1.12
1.705 0.61 1.11
1.634 0.599 1.099
1.568 0.589 1.088
1.509 0.58 1.078
1.455 0.571 1.069
1.412 0.567 1.061
0 0 0
0 0 0
0 0 0
0 0 0
1.143 0.507 1.016
1.144 0.519 1.017
1.156 0.537 1.019
1.151 0.546 1.018
1.157 0.561 1.019
1.14 0.563 1.016
1.159 0.586 1.019
1.164 0.601 1.02
1.164 0.614 1.02
1.161 0.624 1.019
1.164 0.638 1.02
1.177 0.659 1.022
1.168 0.667 1.021
1.166 0.679 1.02
1.148 0.681 1.017
1.148 0.693 1.017
1.155 0.711 1.018
1.148 0.72 1.017
1.132 0.723 1.015
1.06 0.685 1.003
0.976 0.638 0.989
0.956 0.635 0.985
0.921 0.62 0.979
0.892 0.61 0.975
0.864 0.598 0.97
0.83 0.582 0.964
0.802 0.571 0.959
0.777 0.561 0.955
0.758 0.555 0.952
0.737 0.547 0.949
0.713 0.535 0.944
0.7 0.533 0.942
0.68 0.525 0.939
0.665 0.521 0.936
0.649 0.515 0.934
0.633 0.509 0.931
0.612 0.498 0.928
0.598 0.493 0.925
0.588 0.492 0.924
0.578 0.49 0.922
0.561 0.481 0.919
0.554 0.483 0.918
0.537 0.473 0.915
0.527 0.47 0.913
0.516 0.467 0.912
0.506 0.463 0.91
0.496 0.461 0.908
0.487 0.458 0.907
0.478 0.455 0.905
0.467 0.45 0.903
0.453 0.441 0.901
0.449 0.444 0.9
0.445 0.447 0.9
0.43 0.436 0.897
0.421 0.431 0.896
0.419 0.436 0.895
0.405 0.425 0.893
0.4 0.426 0.892
0.391 0.422 0.891
0.389 0.426 0.89
0.379 0.42 0.889
0.371 0.415 0.887
0.367 0.417 0.887
0.361 0.417 0.886
0.353 0.411 0.884
0.344 0.405 0.883
0.34 0.407 0.882
0.335 0.406 0.881
0.327 0.401 0.88
0.325 0.404 0.88
0.317 0.399 0.878
0.309 0.392 0.877
0.309 0.401 0.877
0.301 0.394 0.876
0.295 0.391 0.875
0.291 0.391 0.874
0.283 0.383 0.873
0.277 0.38 0.872
0.275 0.384 0.871
0.272 0.385 0.871
0.265 0.38 0.87
0.259 0.375 0.869
0.255 0.375 0.868
0.253 0.377 0.868
0.248 0.376 0.867
0.242 0.369 0.866
0.239 0.373 0.865
0.233 0.366 0.864
0.232 0.372 0.864
0.225 0.363 0.863
0.221 0.363 0.862
0.219 0.367 0.862
0.213 0.359 0.861
0.209 0.358 0.86
0.206 0.359 0.86
0.2 0.35 0.859
0.198 0.354 0.858
0.193 0.349 0.858
0.192 0.356 0.857
0.189 0.357 0.857
0.188 0.368 0.857
0.185 0.37 0.856
0.183 0.373 0.856
0.182 0.383 0.856
0.181 0.397 0.856
0.182 0.416 0.856
0.178 0.415 0.855
0.173 0.411 0.854
0.169 0.408 0.854
0.165 0.406 0.853
0.162 0.406 0.852
0.157 0.4 0.852
0.153 0.4 0.851
0.15 0.402 0.85
0.147 0.401 0.85
0.143 0.401 0.849
0.139 0.398 0.849
0.136 0.401 0.848
0.132 0.395 0.847
0.128 0.385 0.847
0.124 0.384 0.846
0.121 0.385 0.846
0.117 0.38 0.845
0.114 0.376 0.844
0.111 0.38 0.844
0.108 0.383 0.843
0.104 0.375 0.843
0.101 0.376 0.842
0.098 0.384 0.842
0.095 0.382 0.841
0.094 -0.481 0.842
0.098 -0.482 0.843
0.102 -0.477 0.843
0.107 -0.477 0.844
0.111 -0.482 0.845
0.115 -0.474 0.845
0.119 -0.473 0.846
0.123 -0.475 0.847
0.126 -0.467 0.847
0.13 -0.468 0.848
0.135 -0.472 0.849
0.139 -0.472 0.85
0.143 -0.472 0.85
0.147 -0.47 0.851
0.15 -0.459 0.852
0.155 -0.47 0.852
0.159 -0.467 0.853
0.163 -0.47 0.854
0.167 -0.466 0.855
0.17 -0.463 0.855
0.175 -0.466 0.856
0.18 -0.471 0.857
0.184 -0.468 0.857
0.189 -0.473 0.858
0.193 -0.471 0.859
0.197 -0.469 0.86
0.202 -0.474 0.861
0.205 -0.469 0.861
0.21 -0.47 0.862
0.214 -0.47 0.863
0.22 -0.476 0.864
0.227 -0.485 0.865
0.231 -0.483 0.866
0.235 -0.481 0.866
0.238 -0.479 0.867
0.245 -0.484 0.868
0.25 -0.487 0.869
0.255 -0.486 0.87
0.256 -0.478 0.87
0.264 -0.486 0.871
0.268 -0.485 0.872
0.274 -0.488 0.873
0.283 -0.499 0.875
0.354 -0.669 0.887
0.584 -1.229 0.927
0.615 -1.277 0.933
0.614 -1.244 0.933
0.635 -1.263 0.936
0.636 -1.236 0.937
0.652 -1.242 0.939
0.65 -1.209 0.939
0.667 -1.219 0.942
0.671 -1.201 0.943
0.688 -1.21 0.946
0.701 -1.209 0.948
0.717 -1.215 0.951
0.724 -1.203 0.952
0.733 -1.193 0.953
0.75 -1.201 0.956
0.757 -1.19 0.958
0.773 -1.194 0.96
0.783 -1.187 0.962
0.803 -1.197 0.966
0.813 -1.191 0.967
0.825 -1.187 0.97
4.035 -6.279 1.53
4.099 -6.26 1.541
4.168 -6.248 1.554
4.336 -6.384 1.583
5.027 -7.285 1.703
5.112 -7.274 1.718
5.198 -7.264 1.733
5.291 -7.262 1.75
0 0 0
5.456 -7.224 1.779
4.872 -6.321 1.676
4.939 -6.295 1.688
5.021 -6.288 1.703
5.741 -7.078 1.828
5.261 -6.363 1.744
5.713 -6.797 1.823
5.729 -6.698 1.826
5.813 -6.678 1.841
5.997 -6.773 1.873
6.201 -6.885 1.909
6.178 -6.739 1.905
6.267 -6.72 1.92
6.365 -6.708 1.937
5.047 -5.207 1.707
5.032 -5.101 1.704
5.024 -5.005 1.703
5.01 -4.904 1.701
5 -4.809 1.699
4.986 -4.712 1.696
6.556 -6.117 1.971
5.122 -4.677 1.72
6.532 -5.884 1.966
6.521 -5.772 1.965
2.206 -1.864 1.211
2.245 -1.865 1.218
2.191 -1.786 1.208
2.179 -1.745 1.206
2.19 -1.723 1.208
2.206 -1.705 1.211
2.246 -1.707 1.218
6.136 -4.706 1.897
6.134 -4.62 1.897
6.15 -4.549 1.9
6.334 -4.602 1.932
6.403 -4.568 1.944
6.393 -4.477 1.942
6.381 -4.386 1.94
6.373 -4.299 1.939
6.346 -4.201 1.934
5.969 -3.873 1.868
5.826 -3.707 1.843
4.281 -2.656 1.573
4.274 -2.6 1.572
4.311 -2.572 1.578
5.98 -3.52 1.87
6.175 -3.564 1.904
6.292 -3.56 1.925
4.244 -2.335 1.567
4.251 -2.291 1.568
4.302 -2.271 1.577
6.26 -3.258 1.919
6.256 -3.187 1.918
6.243 -3.112 1.916
6.228 -3.037 1.913
6.23 -2.971 1.914
6.217 -2.898 1.911
5.609 -2.551 1.805
5.503 -2.444 1.787
5.538 -2.403 1.793
5.575 -2.362 1.799
5.146 -2.124 1.724
5.133 -2.067 1.722
5.11 -2.005 1.718
5.101 -1.951 1.716
5.082 -1.893 1.713
5.08 -1.842 1.713
5.055 -1.783 1.708
5.053 -1.733 1.708
5.111 -1.704 1.718
5.192 -1.681 1.732
5.275 -1.658 1.747
5.32 -1.622 1.755
5.323 -1.572 1.755
5.357 -1.532 1.761
4.507 -1.242 1.613
4.501 -1.199 1.612
4.496 -1.156 1.611
4.497 -1.114 1.611
4.487 -1.071 1.609
4.49 -1.03 1.61
4.479 -0.987 1.608
4.473 -0.945 1.607
4.463 -0.902 1.605
4.462 -0.862 1.605
4.462 -0.822 1.605
4.45 -0.78 1.603
4.449 -0.74 1.603
4.727 -0.745 1.651
5.605 -0.836 1.804
5.602 -0.786 1.804
5.59 -0.734 1.802
5.587 -0.685 1.801
5.586 -0.635 1.801
5.581 -0.585 1.8
5.728 -0.551 1.826
5.973 -0.522 1.869
4.995 -0.392 1.698
5.973 -0.417 1.869
5.945 -0.363 1.864
5.944 -0.311 1.864
3.104 -0.133 1.368
3.088 -0.106 1.365
3.085 -0.079 1.364
3.091 -0.053 1.365
3.153 -0.027 1.376
3.302 -0 1.402
3.313 0.029 1.404
5.907 0.103 1.857
4.484 0.117 1.609
4.402 0.153 1.594
4.422 0.192 1.598
5.725 0.3 1.825
5.405 0.33 1.77
5.436 0.379 1.775
5.323 0.418 1.755
5.264 0.459 1.745
4.346 0.416 1.585
4.333 0.452 1.582
4.433 0.502 1.6
5.141 0.629 1.724
5.156 0.677 1.726
5.229 0.733 1.739
5.594 0.834 1.803
5.825 0.921 1.843
5.053 0.842 1.708
3.492 0.608 1.435
3.195 0.583 1.383
2.981 0.57 1.346
2.976 0.595 1.345
2.975 0.622 1.345
2.969 0.647 1.344
2.961 0.672 1.343
2.819 0.664 1.318
2.857 0.699 1.324
2.89 0.734 1.33
2.866 0.754 1.326
2.894 0.788 1.331
2.836 0.798 1.321
2.762 0.802 1.308
2.772 0.831 1.31
2.092 0.639 1.191
1.777 0.555 1.136
1.772 0.57 1.135
1.766 0.584 1.134
1.77 0.603 1.135
1.761 0.616 1.133
1.704 0.611 1.123
1.631 0.599 1.11
1.566 0.589 1.099
1.507 0.58 1.089
1.453 0.571 1.079
1.413 0.568 1.072
1.304 0.534 1.053
0 0 0
0 0 0
0 0 0
1.165 0.518 1.029
1.158 0.526 1.028
1.15 0.535 1.026
1.149 0.546 1.026
1.154 0.56 1.027
1.14 0.564 1.024
1.155 0.585 1.027
1.16 0.6 1.028
1.157 0.611 1.028
1.157 0.623 1.028
1.168 0.642 1.029
1.167 0.655 1.029
1.164 0.666 1.029
1.157 0.674 1.027
1.144 0.679 1.025
1.148 0.695 1.026
1.146 0.706 1.026
1.142 0.717 1.025
1.141 0.73 1.025
1.066 0.691 1.012
0.982 0.643 0.997
0.955 0.635 0.992
0.919 0.62 0.986
0.891 0.61 0.981
0.855 0.593 0.975
0.829 0.582 0.97
0.803 0.572 0.966
0.776 0.56 0.961
0.756 0.554 0.957
0.73 0.542 0.953
0.711 0.535 0.95
0.698 0.533 0.947
0.679 0.525 0.944
0.664 0.521 0.941
0.648 0.515 0.939
0.63 0.507 0.935
0.613 0.5 0.932
0.596 0.492 0.929
0.588 0.493 0.928
0.578 0.491 0.926
0.56 0.481 0.923
0.552 0.481 0.922
0.543 0.48 0.92
0.521 0.465 0.916
0.515 0.467 0.915
0.506 0.464 0.914
0.495 0.46 0.912
0.485 0.457 0.91
0.476 0.454 0.909
0.468 0.452 0.907
0.459 0.449 0.906
0.449 0.445 0.904
0.439 0.44 0.902
0.435 0.443 0.901
0.421 0.432 0.899
0.418 0.437 0.898
0.41 0.433 0.897
0.399 0.426 0.895
0.391 0.422 0.894
0.387 0.425 0.893
0.379 0.42 0.892
0.374 0.421 0.891
0.366 0.416 0.889
0.362 0.418 0.889
0.352 0.411 0.887
0.349 0.414 0.886
0.34 0.407 0.885
0.335 0.406 0.884
0.327 0.401 0.882
0.319 0.396 0.881
0.316 0.399 0.881
0.309 0.393 0.879
0.304 0.392 0.878
0.3 0.394 0.878
0.295 0.391 0.877
0.286 0.381 0.875
0.282 0.382 0.875
0.278 0.382 0.874
0.274 0.383 0.873
0.272 0.387 0.873
0.265 0.38 0.872
0.262 0.383 0.871
0.254 0.374 0.87
0.251 0.376 0.869
0.245 0.369 0.868
0.241 0.369 0.867
0.238 0.369 0.867
0.235 0.373 0.867
0.23 0.368 0.866
0.225 0.366 0.865
0.221 0.365 0.864
0.216 0.36 0.863
0.213 0.36 0.863
0.209 0.359 0.862
0.205 0.358 0.861
0.202 0.359 0.861
0.197 0.351 0.86
0.194 0.353 0.859
0.192 0.358 0.859
0.188 0.356 0.858
0.188 0.367 0.858
0.185 0.369 0.858
0.184 0.38 0.858
0.181 0.383 0.857
0.18 0.394 0.857
0.18 0.411 0.857
0.178 0.416 0.856
0.173 0.41 0.856
0.169 0.407 0.855
0.163 0.399 0.854
0.162 0.409 0.854
0.157 0.401 0.853
0.153 0.398 0.852
0.15 0.402 0.852
0.146 0.402 0.851
0.142 0.399 0.85
0.139 0.398 0.85
0.136 0.4 0.849
0.132 0.398 0.848
0.128 0.39 0.848
0.124 0.385 0.847
0.121 0.386 0.846
0.117 0.379 0.846
0.114 0.377 0.845
0.11 0.379 0.845
0.107 0.386 0.844
0.104 0.385 0.844
0.101 0.385 0.843
0.097 0.383 0.842
0.094 0.383 0.842
0.094 -0.481 0.843
0.098 -0.483 0.843
0.102 -0.485 0.844
0.106 -0.478 0.845
0.11 -0.481 0.846
0.114 -0.472 0.846
0.118 -0.474 0.847
0.123 -0.478 0.848
0.127 -0.478 0.849
0.13 -0.469 0.849
0.135 -0.473 0.85
0.139 -0.473 0.851
0.142 -0.466 0.851
0.146 -0.463 0.852
0.15 -0.467 0.853
0.155 -0.469 0.854
0.158 -0.466 0.854
0.163 -0.469 0.855
0.167 -0.468 0.856
0.172 -0.471 0.857
0.175 -0.466 0.857
0.178 -0.462 0.858
0.183 -0.468 0.859
0.187 -0.465 0.859
0.192 -0.471 0.86
0.196 -0.469 0.861
0.201 -0.473 0.862
0.207 -0.477 0.863
0.211 -0.478 0.864
0.213 -0.47 0.864
0.222 -0.485 0.866
0.224 -0.476 0.866
0.23 -0.482 0.867
0.234 -0.481 0.868
0.238 -0.479 0.869
0.244 -0.484 0.87
0.25 -0.487 0.871
0.254 -0.487 0.872
0.256 -0.477 0.872
0.264 -0.489 0.874
0.268 -0.487 0.874
0.273 -0.487 0.875
0.295 -0.532 0.879
0.364 -0.697 0.892
0.604 -1.283 0.935
0.628 -1.31 0.94
0.631 -1.285 0.94
0.66 -1.323 0.946
0.671 -1.317 0.948
0.71 -1.375 0.955
0.666 -1.246 0.947
0.72 -1.335 0.957
0.68 -1.221 0.949
0.759 -1.357 0.964
0.764 -1.337 0.965
0.784 -1.347 0.968
0.722 -1.202 0.957
0.737 -1.204 0.96
0.743 -1.19 0.961
0.759 -1.194 0.964
0.77 -1.191 0.966
0.788 -1.199 0.969
0.795 -1.185 0.97
0.81 -1.189 0.973
0.821 -1.182 0.975
4.02 -6.265 1.558
4.096 -6.265 1.572
4.157 -6.24 1.583
4.346 -6.408 1.617
5.021 -7.288 1.74
5.111 -7.283 1.757
0 0 0
0 0 0
4.709 -6.34 1.684
4.774 -6.313 1.695
4.856 -6.309 1.71
4.928 -6.289 1.723
5.012 -6.285 1.739
5.298 -6.533 1.791
5.199 -6.295 1.773
5.702 -6.794 1.865
5.727 -6.704 1.869
5.812 -6.687 1.885
5.99 -6.774 1.917
6.186 -6.878 1.953
6.171 -6.742 1.95
6.255 -6.716 1.965
6.357 -6.708 1.984
5.038 -5.204 1.743
5.026 -5.101 1.741
5.011 -4.999 1.739
5.003 -4.904 1.737
4.995 -4.811 1.736
4.979 -4.712 1.733
5.039 -4.687 1.744
5.114 -4.676 1.757
5.192 -4.666 1.772
5.271 -4.656 1.786
2.195 -1.857 1.225
2.245 -1.868 1.235
2.191 -1.788 1.225
2.178 -1.746 1.222
2.186 -1.722 1.224
2.205 -1.707 1.227
2.244 -1.708 1.234
2.429 -1.821 1.268
6.125 -4.62 1.942
6.142 -4.549 1.945
6.322 -4.599 1.977
6.386 -4.562 1.989
6.38 -4.474 1.988
6.373 -4.386 1.987
6.365 -4.3 1.985
6.092 -4.035 1.935
5.846 -3.797 1.891
5.91 -3.766 1.902
4.279 -2.658 1.605
4.275 -2.605 1.605
4.303 -2.571 1.609
4.342 -2.543 1.617
6.181 -3.572 1.952
6.285 -3.56 1.971
4.239 -2.335 1.598
4.242 -2.289 1.598
4.287 -2.266 1.607
6.244 -3.254 1.963
6.239 -3.182 1.962
6.226 -3.108 1.96
6.221 -3.037 1.959
6.215 -2.968 1.958
6.208 -2.898 1.957
5.593 -2.547 1.845
5.495 -2.444 1.827
5.531 -2.403 1.833
5.559 -2.358 1.838
5.137 -2.123 1.761
5.118 -2.063 1.758
5.109 -2.008 1.756
5.085 -1.947 1.752
5.076 -1.893 1.75
5.064 -1.839 1.748
5.047 -1.783 1.745
5.045 -1.733 1.745
5.097 -1.702 1.754
5.183 -1.681 1.77
5.275 -1.66 1.787
5.35 -1.633 1.8
5.392 -1.595 1.808
5.434 -1.557 1.816
4.5 -1.242 1.645
4.496 -1.199 1.645
4.49 -1.156 1.644
4.491 -1.114 1.644
4.482 -1.071 1.642
4.476 -1.028 1.641
4.476 -0.987 1.641
4.468 -0.945 1.64
4.457 -0.902 1.638
4.456 -0.862 1.637
4.456 -0.822 1.637
4.445 -0.78 1.635
4.443 -0.74 1.635
4.739 -0.748 1.689
5.597 -0.836 1.845
5.595 -0.786 1.845
5.583 -0.735 1.843
5.571 -0.684 1.841
5.569 -0.634 1.84
5.574 -0.585 1.841
5.731 -0.552 1.87
5.967 -0.522 1.913
5.022 -0.394 1.741
5.954 -0.417 1.91
5.929 -0.363 1.906
5.943 -0.312 1.908
3.096 -0.133 1.39
3.077 -0.106 1.386
3.079 -0.079 1.386
3.088 -0.053 1.388
3.15 -0.027 1.4
3.292 -0 1.425
3.302 0.028 1.427
5.897 0.103 1.9
4.42 0.115 1.631
4.387 0.152 1.625
4.41 0.192 1.629
5.723 0.3 1.868
5.458 0.334 1.82
5.528 0.386 1.833
5.375 0.423 1.805
4.583 0.399 1.66
4.343 0.416 1.617
4.331 0.453 1.615
4.438 0.503 1.634
5.161 0.632 1.766
5.198 0.683 1.773
5.287 0.742 1.789
5.22 0.779 1.777
5.344 0.845 1.799
5.067 0.846 1.749
3.503 0.611 1.464
3.185 0.582 1.406
2.971 0.568 1.367
2.974 0.596 1.367
2.964 0.62 1.366
2.964 0.647 1.365
2.96 0.673 1.365
2.892 0.683 1.352
2.885 0.707 1.351
2.887 0.734 1.351
2.879 0.759 1.35
2.881 0.786 1.35
2.865 0.808 1.347
2.758 0.802 1.328
2.815 0.846 1.338
2.079 0.636 1.204
1.774 0.555 1.149
1.769 0.57 1.148
1.771 0.587 1.148
1.759 0.6 1.146
1.76 0.616 1.146
1.702 0.611 1.136
1.629 0.599 1.122
1.564 0.589 1.11
1.505 0.58 1.1
1.452 0.572 1.09
1.411 0.568 1.082
1.292 0.53 1.061
0 0 0
0 0 0
0 0 0
1.167 0.52 1.038
1.143 0.52 1.034
1.153 0.537 1.036
1.147 0.545 1.034
1.159 0.564 1.037
1.135 0.563 1.032
1.156 0.586 1.036
1.151 0.595 1.035
1.157 0.612 1.036
1.152 0.621 1.035
1.159 0.638 1.037
1.161 0.652 1.037
1.156 0.661 1.036
1.158 0.676 1.036
1.134 0.673 1.032
1.14 0.691 1.033
1.141 0.704 1.033
1.153 0.726 1.035
1.132 0.725 1.032
1.069 0.694 1.02
0.98 0.642 1.004
0.953 0.634 0.999
0.917 0.619 0.993
0.889 0.609 0.987
0.853 0.592 0.981
0.826 0.581 0.976
0.8 0.571 0.971
0.783 0.567 0.968
0.755 0.554 0.963
0.728 0.541 0.958
0.718 0.542 0.956
0.697 0.533 0.952
0.677 0.525 0.949
0.663 0.521 0.946
0.647 0.515 0.943
0.63 0.508 0.94
0.611 0.499 0.937
0.602 0.499 0.935
0.588 0.493 0.933
0.575 0.489 0.93
0.56 0.482 0.927
0.551 0.481 0.926
0.536 0.474 0.923
0.521 0.465 0.92
0.515 0.467 0.919
0.505 0.464 0.917
0.495 0.461 0.916
0.486 0.459 0.914
0.476 0.455 0.912
0.467 0.452 0.911
0.458 0.449 0.909
0.448 0.445 0.907
0.439 0.441 0.905
0.435 0.444 0.905
0.42 0.432 0.902
0.417 0.436 0.901
0.409 0.433 0.9
0.399 0.426 0.898
0.394 0.427 0.897
0.386 0.424 0.896
0.374 0.414 0.893
0.369 0.415 0.893
0.365 0.416 0.892
0.361 0.418 0.891
0.352 0.412 0.89
0.344 0.406 0.888
0.34 0.408 0.887
0.335 0.408 0.886
0.326 0.4 0.885
0.324 0.404 0.884
0.316 0.399 0.883
0.312 0.4 0.882
0.303 0.392 0.881
0.299 0.392 0.88
0.294 0.391 0.879
0.286 0.383 0.878
0.283 0.385 0.877
0.28 0.387 0.876
0.273 0.383 0.875
0.268 0.379 0.874
0.264 0.379 0.874
0.258 0.375 0.872
0.254 0.373 0.872
0.25 0.375 0.871
0.245 0.37 0.87
0.242 0.372 0.869
0.238 0.372 0.869
0.232 0.367 0.868
0.23 0.37 0.867
0.225 0.367 0.866
0.22 0.363 0.866
0.216 0.36 0.865
0.213 0.361 0.864
0.209 0.359 0.863
0.205 0.358 0.863
0.202 0.36 0.862
0.198 0.359 0.862
0.194 0.355 0.861
0.191 0.358 0.86
0.188 0.358 0.86
0.188 0.368 0.86
0.183 0.362 0.859
0.184 0.382 0.859
0.181 0.384 0.858
0.18 0.393 0.858
0.18 0.41 0.858
0.177 0.416 0.858
0.173 0.411 0.857
0.167 0.399 0.856
0.165 0.409 0.855
0.16 0.401 0.855
0.157 0.405 0.854
0.152 0.397 0.853
0.149 0.402 0.853
0.146 0.402 0.852
0.142 0.401 0.851
0.139 0.398 0.851
0.135 0.399 0.85
0.132 0.398 0.849
0.128 0.394 0.849
0.123 0.378 0.848
0.12 0.385 0.847
0.117 0.386 0.847
0.114 0.382 0.846
0.111 0.387 0.846
0.107 0.376 0.845
0.104 0.386 0.844
0.1 0.38 0.844
0.097 0.382 0.843
0.094 0.379 0.843
0.094 -0.481 0.843
0.098 -0.483 0.844
0.102 -0.477 0.845
0.106 -0.477 0.846
0.11 -0.48 0.846
0.114 -0.481 0.847
0.118 -0.475 0.848
0.122 -0.477 0.849
0.126 -0.476 0.849
0.13 -0.47 0.85
0.134 -0.473 0.851
0.138 -0.474 0.852
0.142 -0.466 0.852
0.146 -0.466 0.853
0.15 -0.468 0.854
0.154 -0.469 0.855
0.158 -0.466 0.855
0.162 -0.467 0.856
0.166 -0.466 0.857
0.171 -0.471 0.858
0.174 -0.467 0.859
0.179 -0.471 0.86
0.184 -0.476 0.861
0.187 -0.465 0.861
0.192 -0.471 0.862
0.198 -0.477 0.863
0.201 -0.473 0.864
0.204 -0.469 0.864
0.208 -0.469 0.865
0.215 -0.476 0.866
0.221 -0.485 0.867
0.223 -0.476 0.868
0.229 -0.482 0.869
0.234 -0.481 0.87
0.24 -0.488 0.871
0.243 -0.483 0.872
0.246 -0.478 0.872
0.253 -0.486 0.874
0.255 -0.477 0.874
0.263 -0.488 0.876
0.268 -0.488 0.876
0.272 -0.485 0.877
0.301 -0.549 0.883
0.376 -0.729 0.897
0.622 -1.331 0.944
0.638 -1.338 0.947
0.647 -1.328 0.948
0.673 -1.357 0.953
0.683 -1.348 0.955
0.756 -1.48 0.969
0.716 -1.359 0.961
0.758 -1.417 0.969
0.706 -1.277 0.96
0.785 -1.411 0.975
0.78 -1.37 0.974
0.797 -1.375 0.977
0.724 -1.207 0.963
0.755 -1.241 0.969
0.75 -1.205 0.968
0.831 -1.326 0.983
0.802 -1.25 0.978
0.783 -1.192 0.974
0.792 -1.183 0.976
0.811 -1.191 0.979
0.821 -1.186 0.982
4.008 -6.254 1.587
4.083 -6.253 1.601
4.157 -6.248 1.615
4.33 -6.394 1.648
5.016 -7.29 1.779
5.099 -7.276 1.794
4.794 -6.708 1.737
4.757 -6.534 1.729
4.743 -6.395 1.727
4.783 -6.334 1.734
4.854 -6.315 1.748
4.93 -6.302 1.762
5.011 -6.292 1.778
5.092 -6.283 1.793
5.335 -6.472 1.839
5.69 -6.789 1.907
5.715 -6.7 1.912
5.801 -6.683 1.928
5.969 -6.759 1.96
6.178 -6.878 1.999
6.163 -6.742 1.997
6.25 -6.72 2.013
6.351 -6.712 2.032
5.028 -5.202 1.781
5.02 -5.103 1.779
5.005 -4.999 1.777
4.992 -4.899 1.774
4.98 -4.803 1.772
4.972 -4.712 1.77
5.025 -4.681 1.78
5.102 -4.672 1.795
5.182 -4.663 1.81
5.265 -4.658 1.826
2.184 -1.849 1.24
2.188 -1.821 1.241
2.176 -1.779 1.239
2.156 -1.731 1.235
2.177 -1.717 1.239
2.189 -1.697 1.242
2.226 -1.696 1.248
2.401 -1.802 1.282
2.443 -1.802 1.29
6.138 -4.553 1.992
6.31 -4.598 2.025
6.378 -4.563 2.037
6.371 -4.474 2.036
6.357 -4.382 2.033
6.355 -4.299 2.033
5.908 -3.918 1.948
5.92 -3.852 1.95
5.952 -3.799 1.956
4.267 -2.654 1.636
4.266 -2.603 1.636
4.289 -2.566 1.64
4.325 -2.537 1.647
6.213 -3.596 2.006
6.269 -3.556 2.017
4.219 -2.328 1.627
4.231 -2.287 1.629
4.273 -2.262 1.637
6.242 -3.258 2.012
6.222 -3.178 2.008
6.22 -3.109 2.007
6.213 -3.038 2.006
6.207 -2.968 2.005
6.2 -2.898 2.004
5.576 -2.543 1.885
5.487 -2.444 1.868
5.523 -2.403 1.875
5.559 -2.362 1.882
5.123 -2.12 1.799
5.111 -2.063 1.797
5.096 -2.006 1.794
5.077 -1.947 1.79
5.068 -1.893 1.789
5.053 -1.837 1.786
5.04 -1.783 1.783
5.03 -1.73 1.781
5.093 -1.703 1.793
5.177 -1.681 1.809
5.258 -1.657 1.825
5.389 -1.648 1.85
5.369 -1.59 1.846
5.401 -1.549 1.852
4.494 -1.242 1.679
4.499 -1.201 1.68
4.481 -1.155 1.677
4.483 -1.114 1.677
4.475 -1.071 1.676
4.47 -1.028 1.675
4.461 -0.985 1.673
4.46 -0.945 1.673
4.451 -0.902 1.671
4.451 -0.862 1.671
4.441 -0.82 1.669
4.439 -0.78 1.669
4.437 -0.74 1.669
4.833 -0.764 1.744
5.59 -0.836 1.888
5.577 -0.784 1.885
5.575 -0.735 1.885
5.574 -0.685 1.885
5.561 -0.634 1.882
5.557 -0.585 1.881
5.71 -0.55 1.91
5.953 -0.522 1.957
5.925 -0.467 1.951
5.945 -0.417 1.955
5.909 -0.362 1.948
5.933 -0.312 1.953
3.084 -0.133 1.412
3.074 -0.106 1.41
3.06 -0.079 1.407
3.075 -0.053 1.41
3.136 -0.027 1.421
3.28 -0 1.449
3.111 0.027 1.417
5.788 0.101 1.925
3.077 0.08 1.41
4.373 0.152 1.657
4.403 0.192 1.662
5.725 0.3 1.913
5.697 0.349 1.908
5.41 0.378 1.854
5.35 0.421 1.842
4.416 0.385 1.665
4.329 0.415 1.648
4.334 0.454 1.649
4.489 0.51 1.678
5.22 0.641 1.817
5.393 0.71 1.85
5.323 0.748 1.837
5.162 0.771 1.806
5.183 0.82 1.81
5.181 0.866 1.81
3.53 0.617 1.496
3.166 0.58 1.427
2.969 0.569 1.39
2.962 0.594 1.388
2.962 0.621 1.388
2.961 0.647 1.388
2.958 0.673 1.387
2.888 0.683 1.374
2.888 0.709 1.374
2.882 0.734 1.373
2.875 0.759 1.372
2.878 0.786 1.372
2.88 0.813 1.373
2.87 0.837 1.371
2.877 0.866 1.372
2.09 0.641 1.223
1.762 0.552 1.16
1.767 0.57 1.161
1.761 0.584 1.16
1.757 0.6 1.159
1.759 0.617 1.16
1.694 0.609 1.147
1.619 0.596 1.133
1.562 0.589 1.122
1.503 0.58 1.111
1.45 0.572 1.101
1.408 0.568 1.093
1.286 0.528 1.07
0 0 0
0 0 0
0 0 0
1.157 0.516 1.045
1.138 0.519 1.042
1.152 0.537 1.044
1.145 0.545 1.043
1.155 0.562 1.045
1.133 0.562 1.041
1.156 0.587 1.045
1.149 0.595 1.044
1.146 0.606 1.043
1.143 0.617 1.043
1.151 0.634 1.044
1.153 0.648 1.045
1.153 0.661 1.045
1.136 0.663 1.041
1.131 0.673 1.04
1.131 0.686 1.04
1.135 0.702 1.041
1.139 0.717 1.042
1.125 0.722 1.039
1.065 0.692 1.028
0.977 0.642 1.011
0.944 0.629 1.005
0.91 0.615 0.998
0.888 0.609 0.994
0.853 0.593 0.987
0.832 0.587 0.984
0.799 0.571 0.977
0.773 0.56 0.972
0.755 0.555 0.969
0.733 0.546 0.965
0.709 0.535 0.96
0.697 0.534 0.958
0.677 0.525 0.954
0.662 0.521 0.951
0.646 0.515 0.948
0.628 0.507 0.945
0.611 0.5 0.942
0.595 0.493 0.939
0.587 0.493 0.937
0.572 0.487 0.934
0.558 0.481 0.932
0.55 0.481 0.93
0.539 0.478 0.928
0.526 0.472 0.925
0.514 0.467 0.923
0.504 0.464 0.921
0.495 0.461 0.919
0.485 0.458 0.918
0.476 0.455 0.916
0.467 0.453 0.914
0.457 0.449 0.912
0.447 0.445 0.91
0.443 0.447 0.91
0.434 0.444 0.908
0.42 0.432 0.905
0.416 0.435 0.904
0.409 0.434 0.903
0.399 0.428 0.901
0.388 0.42 0.899
0.385 0.424 0.899
0.378 0.421 0.897
0.373 0.421 0.896
0.364 0.416 0.895
0.361 0.418 0.894
0.352 0.413 0.892
0.342 0.405 0.89
0.338 0.407 0.89
0.333 0.406 0.889
0.325 0.401 0.887
0.323 0.404 0.887
0.315 0.399 0.885
0.31 0.398 0.884
0.302 0.391 0.883
0.299 0.394 0.882
0.293 0.39 0.881
0.286 0.385 0.88
0.282 0.385 0.879
0.278 0.386 0.878
0.274 0.385 0.877
0.267 0.378 0.876
0.264 0.38 0.876
0.257 0.375 0.874
0.253 0.374 0.874
0.251 0.376 0.873
0.247 0.376 0.872
0.241 0.371 0.871
0.237 0.371 0.871
0.234 0.372 0.87
0.227 0.364 0.869
0.224 0.366 0.868
0.22 0.363 0.867
0.216 0.362 0.867
0.212 0.361 0.866
0.208 0.359 0.865
0.205 0.36 0.864
0.202 0.361 0.864
0.197 0.354 0.863
0.193 0.354 0.862
0.19 0.355 0.862
0.188 0.358 0.861
0.187 0.366 0.861
0.184 0.37 0.86
0.183 0.378 0.86
0.18 0.381 0.86
0.179 0.393 0.86
0.179 0.408 0.859
0.177 0.416 0.859
0.172 0.412 0.858
0.167 0.401 0.857
0.163 0.399 0.856
0.16 0.402 0.856
0.157 0.405 0.855
0.152 0.397 0.854
0.149 0.4 0.854
0.146 0.403 0.853
0.142 0.4 0.852
0.139 0.407 0.852
0.136 0.408 0.851
0.131 0.398 0.85
0.127 0.387 0.85
0.123 0.385 0.849
0.12 0.385 0.848
0.117 0.386 0.848
0.113 0.382 0.847
0.11 0.38 0.846
0.107 0.385 0.846
0.103 0.385 0.845
0.1 0.379 0.844
0.097 0.375 0.844
0.094 0.374 0.843
0.093 -0.473 0.844
0.098 -0.483 0.844
0.102 -0.476 0.845
0.106 -0.478 0.846
0.11 -0.472 0.847
0.114 -0.479 0.848
0.118 -0.475 0.848
0.121 -0.466 0.849
0.126 -0.475 0.85
0.13 -0.478 0.851
0.134 -0.467 0.851
0.138 -0.474 0.852
0.142 -0.466 0.853
0.146 -0.468 0.854
0.15 -0.468 0.854
0.154 -0.469 0.855
0.158 -0.47 0.856
0.162 -0.467 0.857
0.166 -0.466 0.858
0.171 -0.469 0.858
0.174 -0.468 0.859
0.179 -0.471 0.86
0.184 -0.475 0.861
0.187 -0.467 0.862
0.192 -0.471 0.863
0.197 -0.476 0.864
0.2 -0.472 0.864
0.205 -0.475 0.865
0.207 -0.466 0.866
0.215 -0.477 0.867
0.221 -0.485 0.868
0.223 -0.477 0.869
0.229 -0.482 0.87
0.234 -0.482 0.871
0.24 -0.488 0.872
0.243 -0.484 0.873
0.246 -0.479 0.873
0.253 -0.486 0.874
0.258 -0.486 0.875
0.263 -0.488 0.876
0.267 -0.485 0.877
0.271 -0.483 0.878
0.305 -0.56 0.884
0.388 -0.763 0.901
0.623 -1.335 0.946
0.642 -1.349 0.95
0.659 -1.358 0.953
0.673 -1.358 0.956
0.701 -1.39 0.961
0.862 -1.719 0.993
0.824 -1.595 0.985
0.89 -1.701 0.998
0.769 -1.41 0.974
0.97 -1.792 1.013
0.836 -1.484 0.987
0.914 -1.605 1.002
0.845 -1.439 0.989
0.883 -1.482 0.997
0.848 -1.387 0.99
0.907 -1.464 1.001
0.86 -1.352 0.992
0.782 -1.19 0.977
0.793 -1.186 0.979
0.799 -1.172 0.98
0.823 -1.189 0.985
4.006 -6.256 1.601
4.08 -6.252 1.616
4.154 -6.249 1.63
4.327 -6.394 1.664
5.007 -7.282 1.795
5.092 -7.271 1.812
4.806 -6.729 1.756
4.786 -6.579 1.752
4.761 -6.424 1.748
4.794 -6.354 1.754
0 0 0
0 0 0
0 0 0
5.087 -6.282 1.811
5.386 -6.54 1.869
5.688 -6.792 1.927
5.736 -6.729 1.936
5.809 -6.697 1.951
5.996 -6.796 1.987
6.175 -6.88 2.022
6.168 -6.752 2.02
6.247 -6.722 2.036
6.339 -6.704 2.053
5.029 -5.206 1.8
5.008 -5.094 1.795
5.001 -4.999 1.794
4.988 -4.899 1.792
4.978 -4.805 1.79
4.969 -4.712 1.788
5.03 -4.689 1.8
5.102 -4.675 1.814
5.178 -4.663 1.828
5.26 -4.656 1.844
2.134 -1.807 1.239
2.123 -1.766 1.237
2.141 -1.75 1.24
2.145 -1.722 1.241
2.158 -1.703 1.243
2.185 -1.694 1.249
2.208 -1.683 1.253
2.403 -1.805 1.291
2.449 -1.808 1.3
6.133 -4.552 2.013
6.303 -4.595 2.046
6.366 -4.557 2.059
6.366 -4.474 2.059
6.353 -4.382 2.056
6.343 -4.293 2.054
5.823 -3.863 1.953
5.84 -3.801 1.957
5.79 -3.697 1.947
4.278 -2.663 1.654
4.264 -2.603 1.651
4.288 -2.567 1.656
4.345 -2.551 1.667
6.188 -3.584 2.024
6.263 -3.555 2.039
4.217 -2.328 1.642
4.222 -2.283 1.643
4.266 -2.26 1.652
6.23 -3.254 2.032
6.226 -3.183 2.031
6.214 -3.108 2.029
6.207 -3.037 2.028
6.202 -2.968 2.027
6.195 -2.898 2.025
5.557 -2.536 1.902
5.49 -2.447 1.889
5.52 -2.403 1.895
5.548 -2.358 1.9
5.176 -2.145 1.828
5.106 -2.063 1.815
5.112 -2.014 1.816
5.078 -1.949 1.809
5.149 -1.925 1.823
5.056 -1.84 1.805
5.121 -1.814 1.817
5.028 -1.731 1.799
5.128 -1.716 1.819
5.173 -1.681 1.827
5.258 -1.659 1.844
5.382 -1.647 1.868
5.408 -1.604 1.873
5.438 -1.561 1.879
4.484 -1.24 1.694
4.486 -1.199 1.694
4.478 -1.155 1.693
4.48 -1.114 1.693
4.472 -1.071 1.692
4.466 -1.028 1.69
4.457 -0.985 1.689
4.448 -0.943 1.687
4.449 -0.903 1.687
4.447 -0.862 1.687
4.437 -0.82 1.685
4.436 -0.78 1.685
4.426 -0.738 1.683
4.841 -0.766 1.763
5.586 -0.836 1.907
5.574 -0.785 1.905
5.571 -0.735 1.905
5.57 -0.685 1.904
5.557 -0.634 1.902
5.556 -0.585 1.902
5.713 -0.551 1.932
5.95 -0.522 1.978
5.934 -0.468 1.975
5.939 -0.416 1.976
5.903 -0.362 1.969
3.085 -0.16 1.423
3.069 -0.132 1.42
3.065 -0.106 1.419
3.021 -0.078 1.411
