# .PCD v0.7 - Point Cloud Data file format
VERSION 0.7
FIELDS x y z
SIZE 4 4 4
TYPE F F F
COUNT 1 1 1
WIDTH 2498
HEIGHT 1
VIEWPOINT 0 0 0 1 0 0 0
POINTS 2498
DATA ascii
0.849 -1.999 1.755
0.856 -1.978 1.763
0.923 -2.099 1.835
1.046 -2.349 1.968
1.067 -2.352 1.991
1.088 -2.355 2.013
1.109 -2.357 2.036
1.129 -2.358 2.058
1.151 -2.361 2.082
1.172 -2.361 2.104
1.191 -2.358 2.126
1.306 -2.547 2.249
1.34 -2.568 2.286
1.36 -2.563 2.309
1.356 -2.509 2.304
1.363 -2.478 2.312
1.355 -2.418 2.303
1.344 -2.356 2.291
1.277 -2.194 2.218
1.285 -2.169 2.227
1.275 -2.114 2.216
1.274 -2.075 2.215
1.27 -2.033 2.211
1.272 -2.001 2.213
1.259 -1.944 2.199
1.281 -1.946 2.223
1.352 -2.022 2.299
1.354 -1.99 2.301
1.363 -1.969 2.311
1.817 -2.604 2.803
3.129 -4.458 4.222
1.887 -2.615 2.879
1.921 -2.616 2.915
1.963 -2.629 2.961
1.991 -2.621 2.99
2.029 -2.626 3.032
2.072 -2.637 3.079
3.151 -3.972 4.246
3.135 -3.882 4.228
2.187 -2.642 3.202
2.242 -2.663 3.262
3.145 -3.692 4.239
2.322 -2.663 3.349
2.362 -2.662 3.392
2.408 -2.666 3.442
3.152 -3.444 4.247
3.138 -3.367 4.232
3.145 -3.313 4.239
2.728 -2.815 3.788
2.638 -2.671 3.691
3.102 -3.091 4.193
3.147 -3.078 4.241
2.828 -2.709 3.896
2.865 -2.694 3.936
3.135 -2.896 4.229
3.152 -2.856 4.247
3.124 -2.776 4.216
3.13 -2.727 4.223
3.135 -2.678 4.229
3.15 -2.637 4.245
3.133 -2.57 4.227
3.149 -2.531 4.244
3.133 -2.466 4.226
3.143 -2.423 4.237
3.13 -2.362 4.223
3.149 -2.327 4.244
3.136 -2.267 4.229
3.152 -2.229 4.247
3.128 -2.163 4.22
3.15 -2.13 4.245
3.124 -2.064 4.216
3.142 -2.028 4.236
3.125 -1.97 4.217
3.142 -1.934 4.236
3.119 -1.873 4.211
3.137 -1.837 4.23
3.125 -1.784 4.217
3.14 -1.748 4.234
3.126 -1.695 4.219
3.142 -1.658 4.236
3.125 -1.605 4.218
3.14 -1.568 4.234
3.126 -1.516 4.218
3.135 -1.477 4.229
3.12 -1.426 4.212
3.135 -1.39 4.228
3.118 -1.339 4.21
3.133 -1.302 4.226
3.115 -1.253 4.207
3.129 -1.216 4.222
3.119 -1.17 4.211
3.132 -1.132 4.225
3.115 -1.084 4.207
3.133 -1.049 4.226
3.123 -1.004 4.215
3.133 -0.966 4.226
3.12 -0.92 4.212
3.132 -0.883 4.225
3.114 -0.837 4.205
3.125 -0.799 4.217
3.117 -0.756 4.209
3.13 -0.719 4.222
3.115 -0.675 4.206
3.131 -0.638 4.224
3.11 -0.594 4.202
3.132 -0.558 4.225
3.117 -0.515 4.209
3.127 -0.476 4.219
3.116 -0.435 4.208
3.126 -0.397 4.219
3.115 -0.355 4.207
3.129 -0.317 4.221
3.113 -0.276 4.205
3.126 -0.238 4.219
3.109 -0.197 4.2
3.123 -0.158 4.216
3.111 -0.118 4.202
3.123 -0.079 4.216
3.105 -0.039 4.196
3.123 -0 4.215
3.105 0.039 4.196
3.124 0.079 4.216
3.111 0.118 4.202
3.123 0.158 4.215
3.111 0.197 4.203
3.126 0.238 4.219
3.115 0.276 4.207
3.124 0.317 4.216
3.112 0.355 4.203
3.124 0.396 4.217
3.105 0.433 4.196
3.124 0.476 4.216
3.111 0.514 4.202
3.118 0.555 4.21
3.101 0.592 4.191
3.115 0.635 4.207
3.095 0.67 4.185
3.111 0.714 4.203
3.096 0.751 4.186
3.11 0.795 4.201
3.097 0.832 4.187
3.109 0.876 4.2
3.098 0.914 4.188
3.107 0.957 4.198
3.092 0.994 4.182
3.107 1.04 4.198
3.092 1.076 4.182
3.109 1.124 4.2
3.094 1.16 4.183
3.117 1.211 4.209
3.096 1.245 4.186
3.108 1.292 4.2
3.094 1.328 4.183
3.104 1.376 4.195
3.092 1.413 4.181
3.107 1.464 4.198
3.092 1.5 4.181
3.108 1.551 4.199
3.093 1.588 4.183
3.107 1.639 4.198
3.091 1.675 4.18
3.105 1.728 4.196
3.089 1.764 4.179
3.101 1.816 4.192
3.085 1.852 4.174
3.104 1.91 4.194
3.092 1.949 4.182
3.107 2.006 4.198
3.08 2.034 4.169
3.166 2.141 4.261
3.155 2.182 4.249
3.181 2.25 4.278
3.14 2.27 4.234
3.18 2.35 4.277
3.137 2.367 4.23
3.178 2.45 4.274
3.131 2.465 4.224
3.165 2.544 4.26
3.11 2.551 4.201
3.163 2.649 4.259
3.084 2.634 4.174
3.144 2.739 4.238
3.107 2.76 4.198
3.112 2.819 4.203
3.138 2.898 4.231
3.105 2.923 4.196
3.107 2.982 4.198
3.13 3.061 4.223
3.096 3.085 4.186
3.134 3.182 4.228
3.103 3.208 4.193
3.075 3.239 4.164
3.06 3.282 4.147
3.071 3.354 4.159
3.055 3.397 4.141
3.064 3.47 4.152
3.049 3.515 4.135
3.063 3.595 4.15
3.047 3.64 4.133
3.065 3.728 4.152
3.047 3.771 4.133
3.058 3.853 4.145
3.045 3.905 4.131
3.06 3.993 4.147
3.044 4.043 4.13
3.051 4.123 4.137
3.041 4.182 4.127
3.052 4.271 4.138
3.036 4.323 4.121
3.04 4.406 4.126
3.033 4.472 4.118
3.041 4.564 4.127
3.023 4.616 4.107
3.033 4.714 4.118
3.016 4.769 4.099
3.033 4.882 4.118
3.019 4.945 4.103
2.976 4.959 4.056
2.926 4.962 4.003
2.877 4.964 3.949
2.831 4.971 3.899
2.784 4.975 3.849
2.738 4.98 3.799
2.697 4.991 3.754
2.648 4.989 3.701
2.604 4.993 3.653
2.563 5.004 3.609
2.519 5.007 3.562
2.475 5.01 3.515
2.435 5.018 3.471
2.391 5.02 3.424
2.351 5.027 3.38
2.311 5.033 3.337
2.268 5.033 3.29
2.228 5.038 3.247
2.188 5.042 3.204
2.149 5.047 3.161
2.112 5.057 3.122
2.073 5.059 3.079
2.032 5.059 3.035
1.996 5.068 2.996
1.956 5.066 2.952
1.917 5.068 2.911
0.294 0.677 1.155
0.29 0.68 1.15
0.279 0.664 1.139
0.275 0.665 1.134
0.271 0.669 1.13
0.265 0.664 1.123
0.262 0.672 1.12
0.254 0.662 1.112
0.251 0.665 1.108
0.246 0.667 1.103
0.242 0.667 1.098
0.238 0.67 1.094
0.234 0.671 1.09
0.228 0.667 1.083
0.224 0.668 1.079
0.22 0.672 1.075
0.216 0.675 1.071
0.212 0.677 1.066
0.206 0.669 1.06
0.203 0.675 1.056
0.198 0.675 1.052
0.194 0.676 1.047
0.191 0.68 1.043
0.187 0.682 1.039
0.182 0.679 1.033
0.178 0.681 1.029
0.174 0.684 1.025
0.17 0.686 1.021
0.166 0.69 1.017
0.16 0.68 1.01
0.157 0.683 1.006
0.153 0.685 1.002
0.148 0.686 0.997
0.145 0.688 0.993
0.141 0.69 0.989
0.135 0.683 0.983
0.133 0.693 0.98
0.127 0.685 0.975
0.124 0.689 0.971
0.119 0.689 0.966
0.115 0.691 0.962
0.111 0.693 0.957
0.107 0.695 0.953
0.103 0.695 0.949
0.099 0.693 0.944
0.095 0.695 0.94
0.091 0.694 0.935
0.087 0.693 0.93
0.082 0.693 0.926
0.078 0.694 0.922
0.074 0.702 0.917
0.07 0.701 0.913
0.066 0.701 0.908
0.062 0.699 0.904
0.058 0.699 0.899
0.054 0.702 0.895
0.05 0.701 0.89
0.049 -0.365 0.891
0.051 -0.365 0.893
0.053 -0.364 0.895
0.056 -0.373 0.898
0.058 -0.373 0.9
0.06 -0.372 0.903
0.062 -0.369 0.905
0.065 -0.371 0.907
0.067 -0.373 0.91
0.069 -0.373 0.912
0.071 -0.372 0.915
0.073 -0.37 0.917
0.076 -0.372 0.919
0.078 -0.372 0.922
0.08 -0.372 0.924
0.083 -0.382 0.928
0.085 -0.38 0.93
0.088 -0.382 0.933
0.089 -0.372 0.934
0.092 -0.375 0.937
0.094 -0.373 0.939
0.096 -0.373 0.941
0.098 -0.369 0.943
0.099 -0.366 0.945
0.102 -0.371 0.949
0.105 -0.375 0.952
0.107 -0.372 0.954
0.109 -0.369 0.956
0.127 -0.461 0.975
0.117 -0.388 0.965
0.112 -0.346 0.959
0.448 -2.128 1.325
0.458 -2.109 1.336
0.461 -2.059 1.34
0.462 -2 1.341
0.466 -1.957 1.345
0.483 -1.974 1.363
0.513 -2.051 1.396
0.516 -2.004 1.399
0.521 -1.969 1.404
0.523 -1.927 1.407
0.535 -1.921 1.42
0.548 -1.922 1.434
0.562 -1.925 1.449
0.575 -1.927 1.464
0.589 -1.929 1.479
0.603 -1.931 1.495
0.617 -1.932 1.51
0.631 -1.933 1.525
0.645 -1.935 1.541
0.66 -1.937 1.556
0.674 -1.939 1.572
0.688 -1.939 1.587
0.704 -1.942 1.604
0.716 -1.937 1.618
0.725 -1.919 1.627
0.732 -1.898 1.634
0.773 -1.972 1.68
0.84 -2.111 1.753
0.844 -2.078 1.757
0.845 -2.039 1.758
0.848 -2.007 1.762
0.851 -1.975 1.765
0.903 -2.061 1.821
1.042 -2.349 1.972
1.062 -2.351 1.994
1.083 -2.354 2.017
1.104 -2.357 2.04
1.125 -2.359 2.063
1.146 -2.36 2.086
1.167 -2.361 2.109
1.202 -2.391 2.147
1.307 -2.561 2.261
1.335 -2.571 2.292
1.338 -2.529 2.295
1.339 -2.487 2.297
1.344 -2.452 2.302
1.335 -2.391 2.292
1.262 -2.216 2.213
1.257 -2.167 2.207
1.257 -2.129 2.207
1.257 -2.092 2.207
1.258 -2.057 2.208
1.251 -2.009 2.2
1.255 -1.98 2.205
1.25 -1.938 2.199
1.294 -1.975 2.248
1.33 -1.997 2.287
1.337 -1.973 2.295
1.446 -2.102 2.413
1.814 -2.61 2.814
1.851 -2.619 2.854
1.882 -2.617 2.888
1.931 -2.641 2.942
1.95 -2.622 2.963
1.978 -2.614 2.993
2.021 -2.626 3.04
2.062 -2.634 3.084
3.109 -3.934 4.226
3.091 -3.843 4.207
2.186 -2.653 3.22
2.221 -2.649 3.258
3.111 -3.667 4.227
2.312 -2.662 3.357
2.353 -2.662 3.401
2.391 -2.658 3.443
3.106 -3.407 4.223
3.096 -3.335 4.211
2.552 -2.69 3.619
2.741 -2.84 3.825
2.628 -2.671 3.701
2.843 -2.841 3.936
3.095 -3.039 4.21
2.799 -2.692 3.888
2.974 -2.81 4.079
3.095 -2.87 4.211
3.112 -2.831 4.229
3.07 -2.738 4.183
3.1 -2.711 4.215
3.096 -2.654 4.211
3.106 -2.61 4.222
3.09 -2.545 4.205
3.105 -2.506 4.222
3.089 -2.442 4.204
3.098 -2.398 4.214
3.091 -2.342 4.206
3.104 -2.303 4.221
3.095 -2.246 4.21
3.101 -2.202 4.217
3.091 -2.146 4.206
3.103 -2.107 4.22
3.088 -2.049 4.203
3.099 -2.009 4.215
3.084 -1.952 4.198
3.096 -1.913 4.212
3.083 -1.859 4.198
3.101 -1.824 4.217
3.087 -1.77 4.202
3.098 -1.731 4.213
3.084 -1.678 4.198
3.098 -1.642 4.214
3.079 -1.587 4.193
3.099 -1.553 4.215
3.083 -1.501 4.197
3.099 -1.466 4.215
3.076 -1.412 4.19
3.092 -1.376 4.207
3.075 -1.326 4.189
3.089 -1.289 4.204
3.08 -1.243 4.194
3.093 -1.207 4.209
3.076 -1.158 4.19
3.089 -1.121 4.205
3.078 -1.075 4.192
3.09 -1.038 4.205
3.068 -0.99 4.181
3.09 -0.956 4.205
3.078 -0.912 4.192
3.09 -0.874 4.205
3.07 -0.828 4.183
3.088 -0.793 4.203
3.075 -0.749 4.189
3.085 -0.711 4.2
3.071 -0.668 4.184
3.087 -0.632 4.202
3.072 -0.589 4.185
3.083 -0.551 4.197
3.07 -0.509 4.183
3.089 -0.473 4.204
3.069 -0.43 4.182
3.084 -0.393 4.198
3.072 -0.352 4.185
3.083 -0.314 4.197
3.067 -0.273 4.18
3.08 -0.235 4.194
3.069 -0.195 4.183
3.081 -0.157 4.195
3.073 -0.117 4.186
3.081 -0.078 4.195
3.072 -0.039 4.185
3.086 -0 4.201
3.069 0.039 4.182
3.085 0.078 4.199
3.065 0.117 4.177
3.085 0.157 4.199
3.067 0.195 4.181
3.088 0.236 4.203
3.067 0.273 4.18
3.083 0.314 4.198
3.066 0.351 4.179
3.08 0.392 4.194
3.069 0.43 4.182
3.081 0.471 4.195
3.062 0.508 4.174
3.078 0.55 4.192
3.063 0.587 4.176
3.072 0.628 4.185
3.059 0.665 4.171
3.08 0.71 4.194
3.056 0.744 4.168
3.07 0.788 4.183
3.055 0.824 4.167
3.071 0.869 4.185
3.054 0.904 4.166
3.068 0.949 4.181
3.05 0.984 4.161
3.062 1.029 4.175
3.045 1.064 4.156
3.061 1.111 4.173
3.05 1.148 4.162
3.061 1.194 4.174
3.048 1.23 4.16
3.065 1.279 4.178
3.052 1.316 4.163
3.068 1.365 4.181
3.052 1.401 4.164
3.07 1.452 4.183
3.055 1.488 4.167
3.065 1.536 4.178
3.049 1.571 4.16
3.065 1.624 4.178
3.047 1.658 4.159
3.062 1.71 4.174
3.046 1.746 4.157
3.06 1.799 4.172
3.043 1.834 4.154
3.061 1.891 4.174
3.044 1.926 4.155
3.063 1.985 4.176
3.044 2.019 4.155
3.136 2.129 4.255
3.115 2.163 4.232
3.13 2.223 4.249
3.112 2.259 4.229
3.08 2.284 4.194
3.106 2.354 4.223
3.078 2.382 4.192
3.066 2.423 4.179
3.099 2.501 4.215
3.067 2.526 4.18
3.117 2.62 4.235
3.064 2.627 4.176
3.08 2.694 4.195
3.065 2.734 4.178
3.083 2.804 4.198
3.063 2.84 4.176
3.076 2.907 4.189
3.088 2.975 4.203
3.075 3.019 4.189
3.085 3.086 4.2
3.084 3.143 4.198
3.094 3.212 4.209
3.046 3.221 4.157
3.018 3.25 4.127
3.028 3.321 4.138
3.013 3.364 4.121
3.022 3.435 4.131
3.011 3.485 4.119
3.025 3.565 4.135
3.009 3.61 4.117
3.022 3.69 4.131
3.005 3.734 4.112
3.019 3.818 4.127
3.003 3.865 4.11
3.019 3.955 4.127
3 4 4.107
3.017 4.094 4.126
3.002 4.145 4.109
3.013 4.234 4.121
2.995 4.283 4.102
3.009 4.378 4.117
2.99 4.426 4.096
3.002 4.522 4.109
2.988 4.581 4.094
2.996 4.675 4.103
2.98 4.731 4.085
2.994 4.839 4.101
2.98 4.9 4.085
2.965 4.961 4.069
2.914 4.961 4.013
2.868 4.97 3.964
2.824 4.979 3.915
2.775 4.978 3.861
2.731 4.988 3.814
2.686 4.992 3.765
2.641 4.997 3.716
2.596 4.999 3.667
2.552 5.003 3.619
2.509 5.008 3.572
2.469 5.017 3.528
2.425 5.018 3.48
2.385 5.026 3.436
2.342 5.028 3.39
2.301 5.033 3.345
2.262 5.04 3.303
2.221 5.043 3.258
2.179 5.042 3.212
2.139 5.045 3.169
2.1 5.049 3.126
2.064 5.059 3.086
2.024 5.059 3.043
1.988 5.069 3.004
1.95 5.072 2.962
1.911 5.073 2.92
0.295 0.685 1.159
0.288 0.679 1.151
0.28 0.671 1.142
0.274 0.667 1.136
0.267 0.661 1.128
0.265 0.668 1.125
0.258 0.663 1.118
0.254 0.663 1.113
0.249 0.665 1.109
0.247 0.671 1.106
0.24 0.666 1.099
0.237 0.67 1.095
0.233 0.671 1.09
0.226 0.665 1.084
0.222 0.668 1.079
0.219 0.672 1.076
0.216 0.678 1.072
0.211 0.677 1.067
0.206 0.672 1.061
0.203 0.681 1.058
0.197 0.673 1.052
0.193 0.675 1.047
0.189 0.677 1.043
0.185 0.68 1.039
0.183 0.688 1.036
0.177 0.683 1.03
0.173 0.684 1.026
0.169 0.686 1.021
0.164 0.68 1.016
0.161 0.688 1.012
0.155 0.681 1.006
0.152 0.684 1.002
0.147 0.684 0.998
0.144 0.687 0.994
0.14 0.69 0.989
0.136 0.692 0.985
0.131 0.684 0.98
0.127 0.685 0.975
0.123 0.688 0.971
0.119 0.687 0.966
0.115 0.688 0.962
0.111 0.693 0.958
0.107 0.695 0.953
0.103 0.694 0.949
0.098 0.693 0.944
0.094 0.695 0.94
0.09 0.694 0.935
0.086 0.693 0.931
0.082 0.693 0.926
0.078 0.703 0.922
0.074 0.692 0.917
0.07 0.701 0.913
0.066 0.701 0.909
0.062 0.702 0.904
0.057 0.699 0.9
0.053 0.702 0.895
0.049 0.701 0.891
0.049 -0.365 0.891
0.051 -0.365 0.893
0.053 -0.366 0.896
0.055 -0.364 0.898
0.057 -0.372 0.901
0.059 -0.362 0.903
0.062 -0.369 0.905
0.064 -0.371 0.908
0.066 -0.375 0.91
0.068 -0.373 0.913
0.07 -0.372 0.915
0.072 -0.371 0.917
0.075 -0.373 0.92
0.077 -0.372 0.922
0.079 -0.372 0.925
0.081 -0.371 0.927
0.083 -0.37 0.93
0.086 -0.372 0.932
0.088 -0.373 0.935
0.09 -0.373 0.937
0.093 -0.373 0.94
0.095 -0.373 0.942
0.097 -0.371 0.944
0.098 -0.366 0.946
0.101 -0.37 0.949
0.104 -0.374 0.952
0.106 -0.372 0.955
0.108 -0.37 0.957
0.125 -0.458 0.976
0.111 -0.361 0.96
0.112 -0.354 0.961
0 0 0
0.454 -2.109 1.34
0.457 -2.055 1.342
0.459 -2 1.344
0.464 -1.963 1.35
0.475 -1.957 1.363
0.504 -2.031 1.395
0.513 -2.013 1.405
0.519 -1.98 1.411
0.518 -1.924 1.411
0.532 -1.928 1.426
0.543 -1.921 1.438
0.557 -1.925 1.453
0.571 -1.927 1.468
0.584 -1.929 1.484
0.598 -1.93 1.499
0.612 -1.932 1.514
0.626 -1.935 1.53
0.64 -1.936 1.546
0.654 -1.937 1.561
0.669 -1.939 1.577
0.683 -1.939 1.592
0.698 -1.943 1.61
0.713 -1.943 1.625
0.72 -1.924 1.634
0.73 -1.911 1.645
0.756 -1.944 1.674
0.823 -2.083 1.748
0.833 -2.069 1.759
0.841 -2.046 1.767
0.846 -2.02 1.773
0.847 -1.983 1.775
0.892 -2.052 1.824
1.033 -2.349 1.98
1.053 -2.352 2.003
1.074 -2.354 2.025
1.095 -2.357 2.048
1.116 -2.359 2.071
1.136 -2.36 2.094
1.157 -2.362 2.118
1.274 -2.561 2.246
1.297 -2.563 2.272
1.306 -2.534 2.282
1.317 -2.51 2.294
1.328 -2.487 2.307
1.317 -2.422 2.294
1.258 -2.266 2.228
1.24 -2.195 2.209
1.233 -2.143 2.201
1.245 -2.126 2.214
1.23 -2.062 2.197
1.243 -2.05 2.213
1.224 -1.982 2.192
1.229 -1.955 2.197
1.255 -1.963 2.226
1.315 -2.025 2.292
1.309 -1.981 2.285
1.322 -1.966 2.299
1.767 -2.608 2.792
1.795 -2.604 2.823
1.833 -2.614 2.864
1.859 -2.608 2.894
1.899 -2.619 2.938
1.933 -2.621 2.976
1.967 -2.621 3.013
2.007 -2.63 3.057
2.047 -2.636 3.101
3.053 -3.895 4.215
0 0 0
2.157 -2.639 3.224
2.209 -2.656 3.281
3.056 -3.632 4.218
2.29 -2.658 3.37
2.33 -2.658 3.414
2.379 -2.667 3.469
3.058 -3.382 4.22
3.039 -3.299 4.199
3.041 -3.242 4.201
2.876 -3.007 4.019
2.612 -2.676 3.726
2.743 -2.762 3.872
2.857 -2.824 3.997
2.775 -2.691 3.906
3.029 -2.887 4.188
3.043 -2.845 4.204
3.063 -2.809 4.225
3.016 -2.711 4.173
3.056 -2.694 4.217
3.041 -2.628 4.2
3.05 -2.584 4.211
3.035 -2.519 4.194
3.049 -2.48 4.21
3.037 -2.42 4.197
3.052 -2.381 4.213
3.039 -2.321 4.199
3.051 -2.281 4.212
3.038 -2.223 4.198
3.053 -2.185 4.214
3.04 -2.128 4.2
3.052 -2.088 4.213
3.036 -2.03 4.195
3.047 -1.991 4.208
3.03 -1.933 4.189
3.048 -1.899 4.209
3.03 -1.841 4.189
3.045 -1.805 4.205
3.032 -1.752 4.191
3.042 -1.713 4.202
3.028 -1.661 4.187
3.049 -1.628 4.21
3.026 -1.572 4.184
3.043 -1.537 4.203
3.029 -1.487 4.187
3.043 -1.451 4.203
3.028 -1.401 4.186
3.036 -1.362 4.195
3.027 -1.316 4.185
3.035 -1.277 4.194
3.024 -1.231 4.183
3.038 -1.194 4.198
3.021 -1.146 4.179
3.034 -1.11 4.193
3.024 -1.065 4.182
3.034 -1.028 4.193
3.02 -0.982 4.177
3.042 -0.949 4.202
3.027 -0.904 4.185
3.034 -0.865 4.193
3.024 -0.822 4.182
3.033 -0.785 4.192
3.02 -0.742 4.178
3.035 -0.705 4.195
3.019 -0.662 4.177
3.032 -0.625 4.191
3.019 -0.583 4.176
3.039 -0.547 4.198
3.022 -0.505 4.18
3.03 -0.467 4.189
3.018 -0.426 4.175
3.027 -0.389 4.186
3.012 -0.348 4.168
3.034 -0.311 4.194
3.011 -0.27 4.168
3.035 -0.233 4.194
3.014 -0.193 4.171
3.032 -0.155 4.191
3.018 -0.116 4.175
3.026 -0.078 4.185
3.018 -0.039 4.175
3.022 -0 4.18
3.012 0.039 4.169
3.03 0.078 4.188
3.018 0.116 4.175
3.031 0.155 4.19
3.015 0.193 4.172
3.031 0.233 4.19
3.014 0.27 4.171
3.031 0.311 4.19
3.016 0.348 4.173
3.033 0.389 4.192
3.018 0.426 4.175
3.028 0.467 4.186
3.012 0.503 4.169
3.023 0.545 4.181
3.006 0.581 4.162
3.022 0.623 4.18
3.012 0.66 4.169
3.021 0.702 4.178
3.004 0.737 4.16
3.019 0.781 4.176
3.003 0.816 4.159
3.017 0.86 4.174
3.002 0.896 4.158
3.013 0.94 4.17
3.001 0.976 4.156
3.007 1.019 4.164
2.996 1.055 4.151
3.007 1.1 4.164
2.996 1.137 4.151
3.008 1.182 4.164
2.995 1.218 4.15
3.01 1.266 4.167
2.998 1.303 4.153
3.013 1.351 4.17
2.999 1.387 4.154
3.017 1.438 4.175
3.003 1.474 4.159
3.017 1.524 4.174
2.996 1.556 4.151
3.01 1.607 4.167
2.995 1.643 4.15
3.014 1.697 4.171
2.992 1.729 4.147
3.005 1.781 4.161
2.989 1.816 4.144
3.007 1.873 4.164
2.989 1.907 4.144
3.007 1.964 4.163
2.996 2.003 4.151
3.05 2.087 4.211
3.015 2.11 4.172
3.023 2.163 4.181
3.015 2.206 4.172
3.025 2.262 4.184
3.029 2.313 4.187
3.026 2.361 4.184
3.039 2.421 4.199
3.025 2.46 4.183
3.037 2.521 4.197
3.026 2.563 4.184
3.043 2.631 4.204
3.036 2.677 4.195
3.037 2.731 4.197
3.051 2.797 4.212
3.041 2.843 4.201
3.053 2.909 4.214
3.026 2.939 4.185
3.047 3.016 4.208
3.023 3.048 4.181
3.045 3.128 4.205
3.052 3.195 4.214
3.036 3.236 4.195
2.97 3.224 4.123
2.985 3.299 4.139
2.964 3.336 4.116
2.974 3.408 4.126
2.958 3.451 4.109
2.972 3.53 4.124
2.956 3.573 4.107
2.969 3.654 4.121
2.956 3.703 4.107
2.968 3.785 4.121
2.954 3.833 4.105
2.962 3.912 4.114
2.948 3.962 4.099
2.961 4.05 4.113
2.946 4.101 4.096
2.962 4.196 4.114
2.946 4.246 4.096
2.954 4.333 4.105
2.942 4.39 4.091
2.951 4.481 4.101
2.939 4.542 4.088
2.949 4.638 4.099
2.931 4.691 4.08
2.945 4.797 4.095
2.934 4.864 4.083
2.94 4.959 4.089
2.895 4.97 4.04
2.846 4.971 3.985
2.8 4.978 3.935
2.752 4.978 3.881
2.71 4.989 3.835
2.665 4.993 3.785
2.616 4.989 3.73
2.575 5 3.686
2.532 5.004 3.638
2.488 5.007 3.589
2.445 5.011 3.542
2.405 5.019 3.498
2.363 5.021 3.451
2.323 5.027 3.406
2.283 5.033 3.362
2.244 5.041 3.319
2.201 5.038 3.272
2.162 5.042 3.228
2.122 5.045 3.184
2.083 5.049 3.141
2.047 5.059 3.101
2.008 5.06 3.058
1.971 5.067 3.018
1.933 5.07 2.976
0.295 0.678 1.164
0.29 0.677 1.158
0.283 0.672 1.151
0.279 0.675 1.146
0.268 0.657 1.134
0.265 0.662 1.131
0.262 0.668 1.127
0.255 0.661 1.119
0.251 0.663 1.115
0.247 0.666 1.111
0.242 0.665 1.105
0.239 0.668 1.101
0.235 0.67 1.097
0.231 0.673 1.093
0.226 0.674 1.088
0.223 0.678 1.084
0.217 0.672 1.077
0.214 0.677 1.074
0.209 0.676 1.068
0.204 0.671 1.062
0.201 0.679 1.059
0.195 0.674 1.053
0.192 0.677 1.049
0.188 0.682 1.046
0.184 0.684 1.041
0.179 0.68 1.036
0.176 0.683 1.031
0.171 0.681 1.026
0.168 0.686 1.023
0.162 0.68 1.017
0.159 0.686 1.013
0.154 0.684 1.008
0.15 0.682 1.003
0.147 0.694 1
0.142 0.687 0.995
0.138 0.69 0.99
0.135 0.692 0.986
0.13 0.686 0.981
0.125 0.685 0.976
0.122 0.688 0.972
0.118 0.689 0.967
0.113 0.688 0.963
0.11 0.692 0.959
0.106 0.695 0.954
0.102 0.694 0.95
0.097 0.694 0.945
0.093 0.694 0.941
0.09 0.701 0.936
0.085 0.693 0.931
0.081 0.693 0.927
0.077 0.694 0.922
0.073 0.703 0.918
0.069 0.701 0.914
0.065 0.701 0.909
0.061 0.702 0.905
0.057 0.701 0.9
0.053 0.702 0.895
0.049 0.701 0.891
0.048 -0.365 0.891
0.05 -0.374 0.894
0.052 -0.366 0.896
0.054 -0.375 0.899
0.056 -0.372 0.901
0.059 -0.372 0.903
0.061 -0.368 0.906
0.063 -0.373 0.908
0.065 -0.371 0.911
0.067 -0.371 0.913
0.069 -0.371 0.916
0.072 -0.37 0.918
0.074 -0.372 0.92
0.076 -0.371 0.923
0.078 -0.371 0.925
0.08 -0.372 0.928
0.083 -0.371 0.93
0.085 -0.372 0.933
0.087 -0.372 0.935
0.089 -0.367 0.937
0.092 -0.374 0.941
0.094 -0.372 0.943
0.096 -0.37 0.945
0.099 -0.375 0.948
0.1 -0.371 0.95
0.102 -0.365 0.952
0.104 -0.362 0.954
0.107 -0.37 0.958
0.12 -0.433 0.972
0.111 -0.367 0.962
0.116 -0.38 0.967
0.116 -0.369 0.968
0.451 -2.115 1.344
0.454 -2.061 1.347
0.458 -2.017 1.352
0.463 -1.978 1.357
0.472 -1.962 1.367
0.494 -2.003 1.392
0.511 -2.022 1.411
0.514 -1.979 1.414
0.516 -1.935 1.417
0.527 -1.925 1.429
0.54 -1.929 1.444
0.552 -1.925 1.457
0.566 -1.928 1.473
0.579 -1.929 1.488
0.593 -1.93 1.503
0.607 -1.933 1.519
0.621 -1.934 1.534
0.635 -1.936 1.55
0.649 -1.938 1.566
0.663 -1.94 1.582
0.677 -1.94 1.598
0.694 -1.947 1.616
0.707 -1.945 1.631
0.716 -1.93 1.642
0.726 -1.916 1.652
0.744 -1.928 1.673
0.792 -2.017 1.726
0.806 -2.016 1.743
0.829 -2.035 1.769
0.842 -2.026 1.782
0.838 -1.977 1.778
0.871 -2.018 1.815
1.024 -2.349 1.987
1.045 -2.352 2.01
1.065 -2.354 2.033
1.085 -2.357 2.056
1.106 -2.359 2.079
1.127 -2.36 2.103
1.144 -2.353 2.122
1.267 -2.569 2.26
1.291 -2.572 2.287
1.288 -2.519 2.283
1.3 -2.498 2.297
1.295 -2.444 2.292
1.295 -2.4 2.292
1.211 -2.198 2.196
1.226 -2.187 2.214
1.211 -2.122 2.197
1.227 -2.112 2.215
1.211 -2.047 2.197
1.218 -2.024 2.205
1.189 -1.938 2.172
1.203 -1.929 2.188
1.286 -2.032 2.282
1.295 -2.011 2.292
1.291 -1.969 2.286
1.33 -1.995 2.33
1.746 -2.598 2.798
1.787 -2.615 2.844
1.818 -2.615 2.878
1.846 -2.611 2.91
1.882 -2.617 2.951
1.93 -2.639 3.004
1.953 -2.624 3.029
1.985 -2.622 3.065
2.034 -2.641 3.12
3.001 -3.859 4.206
2.104 -2.641 3.2
2.143 -2.643 3.243
2.191 -2.656 3.297
2.262 -2.696 3.377
2.268 -2.654 3.383
2.307 -2.654 3.427
0 0 0
3.004 -3.349 4.21
2.987 -3.269 4.19
3.002 -3.227 4.208
2.851 -3.006 4.038
2.595 -2.681 3.751
2.633 -2.671 3.793
2.702 -2.691 3.87
2.861 -2.799 4.049
3.002 -2.884 4.208
2.992 -2.82 4.196
2.982 -2.757 4.185
2.98 -2.701 4.182
3 -2.667 4.205
2.985 -2.601 4.188
3.001 -2.563 4.206
2.985 -2.498 4.188
2.998 -2.458 4.203
2.981 -2.394 4.184
3.002 -2.361 4.207
2.988 -2.301 4.192
3.001 -2.262 4.206
2.987 -2.203 4.191
3.001 -2.166 4.207
2.987 -2.107 4.19
3 -2.07 4.205
2.982 -2.01 4.185
2.994 -1.972 4.198
2.982 -1.918 4.185
2.994 -1.88 4.198
2.981 -1.827 4.184
2.992 -1.788 4.196
2.978 -1.735 4.18
2.995 -1.7 4.199
2.98 -1.648 4.183
2.994 -1.612 4.198
2.981 -1.561 4.183
2.994 -1.525 4.198
2.975 -1.473 4.178
2.989 -1.437 4.193
2.979 -1.39 4.182
2.988 -1.351 4.192
2.977 -1.304 4.179
2.987 -1.267 4.191
2.973 -1.219 4.174
2.984 -1.183 4.187
2.968 -1.135 4.17
2.984 -1.101 4.187
2.974 -1.056 4.176
2.984 -1.019 4.187
2.972 -0.975 4.174
2.989 -0.94 4.193
2.971 -0.894 4.172
2.98 -0.857 4.182
2.968 -0.813 4.169
2.985 -0.778 4.188
2.965 -0.734 4.166
2.986 -0.7 4.189
2.973 -0.657 4.175
2.98 -0.619 4.182
2.969 -0.578 4.17
2.981 -0.541 4.183
2.976 -0.502 4.179
2.975 -0.462 4.176
2.979 -0.424 4.182
2.973 -0.385 4.175
2.966 -0.345 4.167
2.981 -0.308 4.184
2.963 -0.268 4.164
2.975 -0.231 4.177
2.959 -0.191 4.159
2.978 -0.154 4.181
2.96 -0.115 4.161
2.974 -0.077 4.175
2.962 -0.038 4.162
2.975 -0 4.177
2.962 0.038 4.162
2.974 0.077 4.176
2.961 0.115 4.161
2.973 0.154 4.175
2.96 0.191 4.16
2.977 0.231 4.179
2.965 0.268 4.165
2.981 0.308 4.184
2.966 0.345 4.167
2.977 0.385 4.18
2.962 0.422 4.162
2.979 0.463 4.182
2.958 0.498 4.158
2.972 0.54 4.174
2.958 0.576 4.157
2.973 0.618 4.174
2.956 0.653 4.155
2.97 0.696 4.172
2.954 0.731 4.154
2.962 0.772 4.162
2.955 0.81 4.155
2.964 0.852 4.165
2.947 0.887 4.146
2.961 0.931 4.161
2.943 0.965 4.141
2.956 1.009 4.156
2.945 1.046 4.143
2.954 1.089 4.153
2.928 1.12 4.125
2.928 1.16 4.125
2.936 1.204 4.133
2.957 1.254 4.157
2.943 1.289 4.142
2.959 1.338 4.159
2.946 1.374 4.145
2.959 1.422 4.159
2.947 1.458 4.146
2.962 1.509 4.163
2.949 1.544 4.147
2.956 1.591 4.156
2.942 1.627 4.14
2.955 1.678 4.154
2.944 1.715 4.143
2.952 1.764 4.151
2.941 1.802 4.139
2.953 1.854 4.153
2.943 1.892 4.141
2.954 1.945 4.153
2.943 1.983 4.141
2.954 2.037 4.154
2.974 2.098 4.176
2.992 2.159 4.196
2.976 2.195 4.178
2.998 2.26 4.203
2.979 2.294 4.182
2.998 2.358 4.203
2.982 2.395 4.185
3 2.46 4.205
2.995 2.507 4.2
3 2.563 4.205
2.997 2.612 4.202
3 2.667 4.205
3.002 2.721 4.207
2.987 2.761 4.191
2.989 2.817 4.192
3.005 2.887 4.21
2.988 2.926 4.192
2.987 2.98 4.191
2.976 3.026 4.179
2.996 3.104 4.201
2.939 3.1 4.136
2.993 3.217 4.197
2.94 3.217 4.138
2.927 3.262 4.123
2.913 3.305 4.107
2.926 3.38 4.122
2.91 3.423 4.104
2.924 3.501 4.119
2.908 3.544 4.102
2.921 3.624 4.116
2.904 3.667 4.098
2.915 3.747 4.11
2.903 3.797 4.096
2.916 3.883 4.111
2.897 3.925 4.089
2.914 4.018 4.109
2.896 4.063 4.088
2.908 4.152 4.102
2.897 4.209 4.089
2.906 4.296 4.099
2.893 4.353 4.085
2.9 4.44 4.093
2.885 4.495 4.076
2.898 4.594 4.09
2.886 4.656 4.077
2.895 4.754 4.087
2.877 4.807 4.067
2.896 4.925 4.088
2.869 4.966 4.058
2.826 4.977 4.01
2.778 4.979 3.956
2.73 4.978 3.901
2.687 4.988 3.854
2.642 4.992 3.803
2.598 4.997 3.754
2.554 5 3.705
2.511 5.003 3.656
2.468 5.008 3.608
2.429 5.019 3.564
2.385 5.018 3.515
2.343 5.02 3.467
2.303 5.026 3.423
2.264 5.034 3.379
2.222 5.033 3.332
2.182 5.037 3.287
2.144 5.042 3.244
2.105 5.046 3.2
2.069 5.057 3.16
2.027 5.05 3.112
1.991 5.06 3.073
1.955 5.067 3.032
1.917 5.068 2.989
0.298 0.692 1.172
0.287 0.676 1.16
0.278 0.664 1.15
0.273 0.666 1.145
0.27 0.669 1.14
0.264 0.665 1.134
0.26 0.668 1.129
0.256 0.671 1.125
0.249 0.662 1.117
0.245 0.667 1.113
0.242 0.67 1.109
0.237 0.668 1.103
0.232 0.67 1.098
0.229 0.673 1.094
0.224 0.674 1.089
0.218 0.667 1.082
0.215 0.672 1.079
0.211 0.675 1.075
0.207 0.677 1.07
0.203 0.679 1.066
0.197 0.672 1.059
0.194 0.674 1.055
0.19 0.676 1.05
0.186 0.68 1.047
0.183 0.684 1.043
0.177 0.678 1.036
0.173 0.68 1.032
0.17 0.687 1.029
0.166 0.686 1.024
0.16 0.678 1.018
0.158 0.688 1.015
0.153 0.683 1.009
0.148 0.682 1.004
0.145 0.684 1
0.141 0.688 0.996
0.137 0.69 0.991
0.132 0.683 0.986
0.129 0.692 0.982
0.124 0.685 0.977
0.12 0.686 0.972
0.116 0.689 0.968
0.112 0.688 0.964
0.108 0.692 0.959
0.105 0.694 0.955
0.1 0.694 0.95
0.096 0.693 0.946
0.092 0.695 0.941
0.088 0.692 0.937
0.085 0.702 0.933
0.081 0.702 0.928
0.076 0.694 0.923
0.072 0.694 0.918
0.068 0.701 0.914
0.064 0.701 0.91
0.06 0.703 0.905
0.056 0.701 0.9
0.052 0.702 0.896
0.048 0.699 0.891
0.048 -0.365 0.891
0.05 -0.364 0.894
0.052 -0.374 0.896
0.054 -0.373 0.899
0.056 -0.373 0.901
0.058 -0.372 0.904
0.06 -0.369 0.906
0.063 -0.371 0.908
0.065 -0.372 0.911
0.067 -0.374 0.914
0.069 -0.373 0.916
0.071 -0.371 0.918
0.073 -0.373 0.921
0.076 -0.372 0.923
0.078 -0.369 0.925
0.08 -0.371 0.928
0.082 -0.37 0.93
0.084 -0.372 0.933
0.086 -0.364 0.935
0.089 -0.375 0.938
0.091 -0.374 0.941
0.093 -0.373 0.943
0.095 -0.37 0.945
0.098 -0.374 0.949
0.1 -0.37 0.95
0.101 -0.366 0.952
0.105 -0.373 0.956
0.107 -0.371 0.958
0.11 -0.38 0.963
0.112 -0.376 0.964
0.114 -0.377 0.967
0.111 -0.343 0.963
0.449 -2.116 1.346
0.453 -2.064 1.35
0.456 -2.016 1.353
0.461 -1.978 1.359
0.47 -1.962 1.369
0.49 -1.998 1.392
0.511 -2.031 1.415
0.512 -1.979 1.416
0.514 -1.934 1.419
0.524 -1.924 1.43
0.536 -1.919 1.443
0.55 -1.924 1.459
0.563 -1.928 1.475
0.577 -1.929 1.49
0.59 -1.93 1.505
0.602 -1.925 1.519
0.618 -1.935 1.537
0.629 -1.927 1.549
0.646 -1.938 1.568
0.658 -1.932 1.582
0.674 -1.938 1.6
0.695 -1.961 1.624
0.705 -1.948 1.635
0.712 -1.927 1.643
0.73 -1.939 1.664
0.734 -1.909 1.668
0.775 -1.982 1.715
0.783 -1.962 1.723
0.82 -2.019 1.765
0.84 -2.031 1.788
0.839 -1.989 1.787
0.854 -1.988 1.804
1.013 -2.333 1.984
1.04 -2.351 2.014
1.06 -2.354 2.037
1.081 -2.357 2.06
1.101 -2.359 2.083
1.122 -2.359 2.106
1.229 -2.548 2.228
1.258 -2.561 2.26
1.28 -2.561 2.285
1.271 -2.496 2.275
1.279 -2.468 2.285
1.272 -2.409 2.276
1.269 -2.361 2.273
1.201 -2.19 2.196
1.207 -2.162 2.203
1.203 -2.117 2.199
1.201 -2.075 2.196
1.197 -2.031 2.191
1.187 -1.979 2.18
1.177 -1.928 2.169
1.205 -1.94 2.2
1.27 -2.014 2.274
1.276 -1.989 2.281
1.281 -1.963 2.287
1.703 -2.589 2.764
1.736 -2.595 2.802
1.779 -2.614 2.85
1.801 -2.602 2.875
1.837 -2.609 2.916
1.873 -2.615 2.956
1.909 -2.621 2.997
1.943 -2.623 3.036
2.021 -2.683 3.124
2.947 -3.873 4.171
2.059 -2.639 3.166
2.096 -2.642 3.209
2.132 -2.641 3.249
2.173 -2.645 3.295
2.217 -2.652 3.345
2.259 -2.656 3.393
2.298 -2.655 3.437
2.949 -3.361 4.173
2.962 -3.315 4.188
2.451 -2.685 3.61
2.954 -3.188 4.178
2.938 -3.113 4.161
2.591 -2.689 3.768
2.615 -2.664 3.796
2.678 -2.679 3.867
2.93 -2.881 4.152
2.964 -2.86 4.191
2.954 -2.795 4.178
2.938 -2.726 4.16
2.95 -2.686 4.175
2.962 -2.644 4.188
2.947 -2.579 4.171
2.962 -2.54 4.187
2.946 -2.476 4.17
2.954 -2.432 4.179
2.949 -2.378 4.173
2.962 -2.34 4.188
2.948 -2.279 4.172
2.967 -2.245 4.193
2.943 -2.18 4.167
2.962 -2.146 4.188
2.946 -2.087 4.17
2.958 -2.049 4.184
2.947 -1.995 4.171
2.958 -1.956 4.183
2.946 -1.903 4.17
2.952 -1.861 4.176
2.944 -1.811 4.167
2.955 -1.773 4.18
2.945 -1.723 4.168
2.958 -1.686 4.183
2.941 -1.633 4.164
2.956 -1.598 4.181
2.943 -1.548 4.167
2.956 -1.512 4.181
2.938 -1.46 4.16
2.955 -1.426 4.18
2.934 -1.374 4.157
2.947 -1.338 4.171
2.933 -1.29 4.155
2.945 -1.254 4.169
2.934 -1.209 4.157
2.947 -1.173 4.171
2.939 -1.129 4.162
2.941 -1.089 4.164
2.937 -1.047 4.159
2.946 -1.01 4.17
2.942 -0.969 4.165
2.947 -0.93 4.171
2.942 -0.889 4.166
2.946 -0.851 4.17
2.95 -0.812 4.175
2.948 -0.772 4.172
2.955 -0.735 4.18
2.952 -0.694 4.176
2.955 -0.656 4.181
2.964 -0.619 4.191
2.957 -0.578 4.182
2.959 -0.54 4.184
2.961 -0.501 4.187
2.967 -0.463 4.194
2.96 -0.423 4.186
2.936 -0.381 4.158
2.924 -0.342 4.145
2.936 -0.305 4.158
2.919 -0.265 4.14
2.933 -0.228 4.156
2.921 -0.189 4.142
2.929 -0.152 4.151
2.918 -0.113 4.138
2.93 -0.076 4.151
2.918 -0.038 4.138
2.931 -0 4.153
2.924 0.038 4.145
2.936 0.076 4.159
2.925 0.114 4.146
2.935 0.152 4.157
2.923 0.19 4.144
2.933 0.228 4.156
2.921 0.265 4.142
2.932 0.305 4.154
2.925 0.342 4.146
2.933 0.381 4.155
2.92 0.418 4.141
2.935 0.458 4.157
2.921 0.494 4.141
2.93 0.534 4.152
2.915 0.57 4.134
2.929 0.611 4.151
2.914 0.647 4.133
2.929 0.689 4.15
2.912 0.724 4.132
2.927 0.766 4.148
2.909 0.801 4.128
2.922 0.844 4.143
2.913 0.88 4.132
2.925 0.923 4.146
2.908 0.958 4.127
2.915 0.999 4.135
2.903 1.035 4.121
2.915 1.079 4.134
2.863 1.099 4.076
2.854 1.135 4.066
2.864 1.179 4.077
2.915 1.241 4.135
2.906 1.278 4.125
2.918 1.325 4.138
2.905 1.36 4.123
2.919 1.409 4.14
2.909 1.445 4.128
2.923 1.495 4.144
2.908 1.529 4.127
2.915 1.576 4.135
2.901 1.611 4.119
2.919 1.664 4.139
2.905 1.699 4.123
2.917 1.75 4.137
2.9 1.784 4.118
2.912 1.836 4.131
2.901 1.873 4.119
2.913 1.926 4.132
2.902 1.964 4.12
2.916 2.019 4.136
2.894 2.05 4.111
2.991 2.167 4.221
2.965 2.196 4.191
2.995 2.268 4.226
2.959 2.288 4.184
2.979 2.353 4.207
2.957 2.385 4.182
2.973 2.448 4.2
2.947 2.476 4.171
2.976 2.553 4.204
2.913 2.548 4.132
2.969 2.65 4.195
2.904 2.642 4.122
2.963 2.751 4.19
2.904 2.747 4.122
2.924 2.82 4.145
2.909 2.859 4.128
2.916 2.921 4.135
2.926 2.987 4.148
2.918 3.035 4.139
2.924 3.097 4.145
2.919 3.15 4.14
2.93 3.22 4.152
2.89 3.234 4.107
2.877 3.278 4.092
2.885 3.347 4.101
2.87 3.39 4.084
2.883 3.467 4.099
2.867 3.509 4.081
2.88 3.588 4.095
2.868 3.637 4.082
2.88 3.717 4.095
2.868 3.767 4.081
2.874 3.842 4.088
2.864 3.897 4.077
2.871 3.975 4.085
2.86 4.03 4.073
2.869 4.113 4.082
2.857 4.168 4.069
2.869 4.26 4.083
2.854 4.311 4.065
2.863 4.402 4.076
2.849 4.457 4.06
2.861 4.555 4.074
2.848 4.615 4.059
2.856 4.709 4.068
2.84 4.766 4.05
2.854 4.874 4.066
2.845 4.946 4.056
2.81 4.971 4.016
2.766 4.979 3.967
2.717 4.978 3.911
2.675 4.988 3.864
2.631 4.993 3.814
2.587 4.997 3.764
2.543 5 3.714
2.5 5.003 3.665
2.461 5.015 3.621
2.418 5.017 3.573
2.375 5.019 3.524
2.336 5.027 3.48
2.294 5.027 3.432
2.258 5.042 3.391
2.216 5.04 3.344
2.173 5.038 3.296
2.135 5.042 3.252
2.099 5.054 3.212
2.057 5.048 3.164
2.021 5.059 3.124
1.983 5.061 3.081
1.946 5.067 3.039
1.911 5.075 2.999
0.296 0.691 1.172
0.284 0.672 1.159
0.277 0.665 1.151
0.272 0.666 1.146
0.268 0.668 1.141
0.265 0.673 1.137
0.259 0.668 1.13
0.252 0.662 1.123
0.25 0.671 1.12
0.244 0.668 1.114
0.24 0.669 1.11
0.235 0.668 1.104
0.232 0.672 1.1
0.228 0.674 1.096
0.224 0.675 1.091
0.22 0.677 1.086
0.216 0.679 1.082
0.21 0.674 1.075
0.206 0.675 1.071
0.202 0.679 1.067
0.198 0.681 1.062
0.193 0.674 1.056
0.189 0.675 1.051
0.185 0.678 1.047
0.179 0.67 1.04
0.178 0.684 1.039
0.174 0.69 1.035
0.17 0.69 1.03
0.165 0.686 1.024
0.16 0.678 1.018
0.156 0.68 1.014
0.152 0.681 1.009
0.148 0.685 1.005
0.144 0.684 1
0.14 0.688 0.996
0.135 0.681 0.991
0.131 0.683 0.986
0.128 0.692 0.983
0.123 0.685 0.977
0.12 0.688 0.973
0.116 0.689 0.969
0.112 0.69 0.964
0.108 0.691 0.96
0.104 0.694 0.955
0.1 0.694 0.951
0.096 0.694 0.946
0.092 0.694 0.942
0.088 0.692 0.937
0.084 0.693 0.932
0.08 0.693 0.928
0.076 0.696 0.923
0.072 0.694 0.919
0.068 0.701 0.914
0.064 0.701 0.91
0.06 0.702 0.905
0.056 0.702 0.901
0.052 0.703 0.896
0.048 0.699 0.891
0.047 -0.364 0.892
0.049 -0.365 0.894
0.051 -0.374 0.897
0.053 -0.366 0.899
0.055 -0.363 0.901
0.057 -0.372 0.904
0.06 -0.368 0.906
0.062 -0.37 0.909
0.064 -0.371 0.911
0.066 -0.373 0.914
0.068 -0.372 0.916
0.07 -0.372 0.919
0.073 -0.372 0.921
0.075 -0.372 0.924
0.078 -0.381 0.927
0.079 -0.371 0.929
0.081 -0.37 0.931
0.083 -0.372 0.934
0.086 -0.373 0.936
0.088 -0.375 0.939
0.09 -0.375 0.942
0.092 -0.373 0.944
0.094 -0.37 0.946
0.097 -0.376 0.95
0.098 -0.37 0.951
0.1 -0.365 0.953
0.102 -0.364 0.955
0.105 -0.37 0.959
0.107 -0.366 0.961
0.11 -0.371 0.964
0.11 -0.358 0.964
0.112 -0.358 0.967
0.445 -2.112 1.348
0.449 -2.069 1.354
0.453 -2.024 1.358
0.458 -1.987 1.364
0.465 -1.958 1.372
0.485 -1.992 1.394
0.506 -2.03 1.419
0.509 -1.988 1.423
0.511 -1.943 1.425
0.519 -1.924 1.434
0.533 -1.929 1.45
0.545 -1.925 1.464
0.558 -1.928 1.479
0.572 -1.929 1.494
0.585 -1.931 1.51
0.599 -1.934 1.526
0.613 -1.935 1.541
0.627 -1.936 1.557
0.638 -1.93 1.571
0.652 -1.931 1.586
0.673 -1.953 1.61
0.69 -1.965 1.631
0.699 -1.948 1.64
0.713 -1.949 1.657
0.736 -1.973 1.683
0.728 -1.909 1.673
0.755 -1.945 1.705
0.792 -2.006 1.748
0.822 -2.045 1.782
0.835 -2.036 1.796
0.833 -1.992 1.794
0.843 -1.979 1.806
0.903 -2.086 1.875
1.031 -2.352 2.022
1.051 -2.355 2.045
1.072 -2.357 2.068
1.092 -2.358 2.091
1.117 -2.37 2.12
1.222 -2.554 2.24
1.251 -2.569 2.274
1.25 -2.522 2.273
1.25 -2.476 2.273
1.251 -2.432 2.274
1.246 -2.378 2.268
1.188 -2.224 2.202
1.186 -2.18 2.199
1.179 -2.128 2.191
1.171 -2.076 2.182
1.175 -2.047 2.187
1.162 -1.987 2.171
1.158 -1.946 2.167
1.179 -1.949 2.192
1.236 -2.01 2.257
1.246 -1.992 2.268
1.251 -1.967 2.275
1.328 -2.055 2.362
1.693 -2.595 2.781
1.728 -2.604 2.821
1.76 -2.608 2.858
1.793 -2.612 2.896
1.824 -2.613 2.932
2.898 -4.118 4.164
1.89 -2.617 3.008
1.931 -2.628 3.054
2.911 -3.926 4.179
2.896 -3.838 4.163
2.045 -2.645 3.186
2.075 -2.637 3.22
2.108 -2.633 3.258
2.149 -2.638 3.305
2.192 -2.645 3.355
2.233 -2.648 3.401
2.913 -3.409 4.182
2.505 -2.872 3.713
2.907 -3.281 4.175
2.645 -2.927 3.874
2.895 -3.151 4.161
2.877 -3.073 4.14
2.619 -2.742 3.845
2.592 -2.663 3.814
2.661 -2.685 3.893
2.899 -2.874 4.166
2.915 -2.836 4.184
2.883 -2.75 4.147
2.889 -2.704 4.154
2.9 -2.662 4.167
2.913 -2.622 4.181
2.897 -2.556 4.164
2.912 -2.518 4.18
2.895 -2.453 4.161
2.91 -2.416 4.178
2.896 -2.355 4.163
2.91 -2.317 4.178
2.901 -2.262 4.168
2.914 -2.224 4.183
2.897 -2.164 4.164
2.91 -2.126 4.178
2.894 -2.068 4.16
2.91 -2.033 4.179
2.894 -1.975 4.16
2.909 -1.94 4.177
2.897 -1.887 4.164
2.906 -1.848 4.174
2.891 -1.794 4.157
2.908 -1.76 4.176
2.886 -1.703 4.151
2.903 -1.669 4.17
2.887 -1.617 4.152
2.901 -1.582 4.168
2.892 -1.534 4.158
2.901 -1.496 4.168
2.894 -1.45 4.16
2.902 -1.413 4.17
2.899 -1.369 4.165
2.899 -1.328 4.166
2.902 -1.288 4.17
2.905 -1.248 4.173
2.906 -1.207 4.174
2.907 -1.166 4.174
2.905 -1.125 4.173
2.91 -1.087 4.178
2.913 -1.047 4.182
2.912 -1.007 4.181
2.918 -0.969 4.187
2.916 -0.929 4.186
2.908 -0.886 4.176
2.925 -0.852 4.196
2.925 -0.812 4.195
2.929 -0.774 4.201
2.932 -0.735 4.204
2.929 -0.695 4.2
2.939 -0.658 4.211
2.936 -0.618 4.208
2.936 -0.579 4.208
2.938 -0.54 4.21
2.939 -0.502 4.212
2.943 -0.463 4.216
2.933 -0.423 4.205
2.883 -0.378 4.147
2.869 -0.338 4.131
2.884 -0.302 4.148
2.873 -0.263 4.135
2.88 -0.226 4.144
2.868 -0.188 4.13
2.88 -0.151 4.143
2.864 -0.112 4.125
2.882 -0.075 4.146
2.865 -0.037 4.126
2.882 -0 4.146
2.866 0.037 4.128
2.883 0.075 4.147
2.871 0.113 4.134
2.882 0.151 4.146
2.869 0.188 4.132
2.887 0.227 4.152
2.873 0.263 4.136
2.884 0.302 4.149
2.876 0.339 4.139
2.886 0.378 4.15
2.872 0.414 4.134
2.882 0.454 4.146
2.873 0.49 4.136
2.88 0.53 4.144
2.866 0.565 4.128
2.882 0.607 4.146
2.865 0.641 4.127
2.881 0.683 4.145
2.863 0.717 4.124
2.877 0.76 4.14
2.861 0.794 4.122
2.88 0.838 4.144
2.864 0.873 4.126
2.876 0.915 4.139
2.853 0.947 4.112
2.866 0.991 4.127
2.855 1.026 4.116
2.867 1.071 4.129
2.839 1.099 4.097
2.825 1.133 4.081
2.83 1.175 4.087
2.865 1.23 4.127
2.851 1.264 4.11
2.867 1.313 4.129
2.854 1.347 4.114
2.874 1.398 4.137
2.858 1.432 4.118
2.869 1.479 4.131
2.861 1.517 4.122
2.869 1.564 4.131
2.854 1.598 4.114
2.868 1.648 4.13
2.853 1.683 4.113
2.865 1.733 4.127
2.848 1.766 4.107
2.86 1.818 4.121
2.85 1.855 4.109
2.861 1.908 4.122
2.855 1.948 4.115
2.866 2.002 4.128
2.851 2.036 4.11
2.937 2.146 4.21
2.912 2.174 4.18
2.907 2.218 4.174
2.908 2.267 4.176
2.877 2.291 4.141
2.903 2.361 4.17
2.874 2.386 4.137
2.877 2.438 4.141
2.876 2.487 4.139
2.876 2.537 4.139
2.871 2.583 4.134
2.88 2.643 4.144
2.885 2.699 4.149
2.876 2.744 4.139
2.892 2.813 4.158
2.873 2.847 4.136
2.886 2.916 4.151
2.873 2.957 4.136
2.886 3.026 4.15
2.888 3.085 4.153
2.884 3.138 4.149
2.911 3.227 4.18
2.876 3.245 4.139
2.831 3.252 4.087
2.838 3.32 4.096
2.824 3.363 4.08
2.84 3.444 4.098
2.825 3.486 4.081
2.833 3.558 4.089
2.82 3.605 4.074
2.832 3.686 4.089
2.817 3.731 4.072
2.83 3.815 4.086
2.812 3.857 4.065
2.826 3.945 4.081
2.806 3.986 4.059
2.818 4.073 4.072
2.803 4.123 4.056
2.817 4.217 4.072
2.808 4.277 4.061
2.814 4.363 4.068
2.804 4.423 4.056
2.818 4.524 4.073
2.803 4.579 4.056
2.808 4.668 4.061
2.795 4.728 4.046
2.804 4.829 4.057
2.793 4.894 4.043
2.787 4.972 4.037
2.744 4.98 3.987
2.695 4.978 3.931
2.653 4.988 3.883
2.609 4.993 3.833
2.565 4.997 3.783
2.522 5 3.733
2.48 5.005 3.684
2.44 5.013 3.638
2.398 5.017 3.59
2.355 5.019 3.542
2.316 5.026 3.497
2.274 5.027 3.449
2.235 5.033 3.404
2.197 5.04 3.359
2.158 5.044 3.315
2.12 5.05 3.271
2.081 5.054 3.227
2.043 5.056 3.183
2.004 5.059 3.139
1.966 5.06 3.095
1.933 5.074 3.056
1.894 5.072 3.012
0.289 0.679 1.17
0.283 0.677 1.163
0.274 0.665 1.153
0.27 0.666 1.148
0.265 0.668 1.143
0.259 0.662 1.135
0.255 0.665 1.131
0.252 0.671 1.128
0.246 0.664 1.12
0.242 0.667 1.116
0.237 0.667 1.11
0.233 0.668 1.106
0.23 0.672 1.102
0.224 0.666 1.095
0.219 0.667 1.09
0.215 0.668 1.085
0.212 0.672 1.081
0.208 0.674 1.077
0.204 0.676 1.072
0.2 0.679 1.068
0.196 0.68 1.063
0.191 0.676 1.057
0.187 0.676 1.053
0.184 0.683 1.049
0.18 0.684 1.045
0.176 0.685 1.04
0.171 0.682 1.034
0.167 0.682 1.03
0.163 0.685 1.025
0.16 0.688 1.021
0.156 0.689 1.017
0.152 0.691 1.012
0.147 0.685 1.006
0.142 0.684 1.001
0.139 0.689 0.997
0.135 0.689 0.993
0.131 0.692 0.989
0.126 0.683 0.983
0.122 0.685 0.978
0.118 0.688 0.974
0.115 0.689 0.97
0.111 0.691 0.965
0.107 0.692 0.961
0.103 0.692 0.956
0.099 0.693 0.951
0.095 0.693 0.947
0.091 0.694 0.942
0.087 0.692 0.937
0.083 0.692 0.933
0.079 0.693 0.928
0.075 0.694 0.924
0.071 0.694 0.919
0.067 0.701 0.915
0.063 0.702 0.91
0.059 0.702 0.906
0.055 0.702 0.901
0.051 0.702 0.896
0.047 0.699 0.892
0.046 -0.365 0.892
0.048 -0.364 0.895
0.05 -0.365 0.897
0.053 -0.374 0.9
0.055 -0.373 0.902
0.057 -0.37 0.904
0.059 -0.37 0.907
0.061 -0.37 0.909
0.063 -0.372 0.912
0.065 -0.373 0.914
0.067 -0.371 0.917
0.069 -0.37 0.919
0.072 -0.373 0.922
0.074 -0.372 0.924
0.076 -0.371 0.927
0.079 -0.381 0.93
0.08 -0.37 0.932
0.082 -0.372 0.934
0.085 -0.373 0.937
0.087 -0.375 0.94
0.088 -0.365 0.941
0.091 -0.373 0.945
0.093 -0.369 0.947
0.094 -0.365 0.948
0.097 -0.37 0.952
0.1 -0.375 0.955
0.102 -0.371 0.957
0.104 -0.37 0.96
0.105 -0.365 0.961
0.108 -0.366 0.964
0.112 -0.377 0.969
0.111 -0.361 0.968
0.441 -2.116 1.352
0.447 -2.077 1.359
0.451 -2.032 1.364
0.456 -1.995 1.369
0.46 -1.954 1.374
0.479 -1.987 1.397
0.504 -2.039 1.425
0.507 -1.998 1.429
0.509 -1.953 1.431
0.514 -1.921 1.437
0.526 -1.919 1.451
0.54 -1.924 1.467
0.553 -1.927 1.483
0.567 -1.929 1.498
0.58 -1.931 1.514
0.591 -1.925 1.527
0.607 -1.935 1.546
0.621 -1.937 1.562
0.633 -1.93 1.575
0.65 -1.945 1.596
0.67 -1.964 1.619
0.684 -1.963 1.635
0.698 -1.963 1.651
0.721 -1.99 1.678
0.726 -1.964 1.684
0.728 -1.927 1.686
0.745 -1.935 1.706
0.824 -2.111 1.798
0.825 -2.071 1.799
0.832 -2.047 1.807
0.833 -2.01 1.809
0.834 -1.975 1.81
0.865 -2.011 1.846
1.019 -2.344 2.025
1.043 -2.356 2.053
1.062 -2.357 2.076
1.08 -2.354 2.097
1.187 -2.547 2.221
1.213 -2.558 2.251
1.223 -2.534 2.263
1.231 -2.505 2.273
1.226 -2.447 2.266
1.232 -2.417 2.274
1.183 -2.275 2.216
1.157 -2.184 2.187
1.154 -2.138 2.183
1.158 -2.108 2.188
1.146 -2.049 2.174
1.157 -2.032 2.186
1.137 -1.961 2.163
1.136 -1.925 2.162
1.237 -2.066 2.279
1.233 -2.024 2.275
1.224 -1.973 2.264
1.237 -1.96 2.279
1.65 -2.595 2.761
1.671 -2.582 2.784
1.715 -2.608 2.837
1.746 -2.61 2.873
1.78 -2.616 2.912
1.809 -2.614 2.946
1.835 -2.606 2.976
1.877 -2.621 3.025
2.85 -3.945 4.159
2.859 -3.888 4.168
2.847 -3.804 4.155
2.019 -2.633 3.191
2.056 -2.635 3.234
2.104 -2.651 3.29
2.129 -2.636 3.318
2.175 -2.647 3.372
2.221 -2.656 3.426
2.863 -3.378 4.173
2.544 -2.942 3.802
2.863 -3.258 4.173
2.638 -2.945 3.912
2.683 -2.941 3.963
2.741 -2.951 4.031
2.656 -2.805 3.932
2.578 -2.671 3.841
2.735 -2.784 4.024
2.854 -2.854 4.163
2.865 -2.81 4.176
2.82 -2.713 4.123
2.851 -2.69 4.159
2.851 -2.639 4.159
2.862 -2.597 4.172
2.849 -2.535 4.157
2.859 -2.493 4.169
2.85 -2.436 4.159
2.863 -2.397 4.173
2.849 -2.336 4.157
2.866 -2.302 4.177
2.85 -2.241 4.158
2.865 -2.205 4.176
2.844 -2.142 4.152
2.861 -2.108 4.171
2.842 -2.047 4.149
2.857 -2.013 4.167
2.843 -1.957 4.15
2.85 -1.917 4.158
2.839 -1.864 4.145
2.847 -1.825 4.155
2.841 -1.777 4.148
2.857 -1.743 4.166
2.835 -1.686 4.14
2.849 -1.652 4.158
2.836 -1.601 4.142
2.849 -1.566 4.158
2.866 -1.533 4.177
2.868 -1.492 4.179
2.867 -1.449 4.178
2.87 -1.409 4.182
2.876 -1.37 4.189
2.875 -1.328 4.188
2.877 -1.287 4.189
2.879 -1.247 4.193
2.875 -1.204 4.188
2.881 -1.166 4.195
2.886 -1.127 4.2
2.881 -1.085 4.195
2.887 -1.047 4.202
2.892 -1.009 4.207
2.894 -0.969 4.21
2.892 -0.929 4.208
2.889 -0.888 4.204
2.899 -0.851 4.216
2.899 -0.812 4.215
2.906 -0.774 4.224
2.904 -0.734 4.222
2.907 -0.696 4.225
2.901 -0.655 4.217
2.909 -0.618 4.228
2.898 -0.576 4.214
2.907 -0.539 4.225
2.865 -0.493 4.176
2.907 -0.462 4.225
2.843 -0.413 4.15
2.834 -0.375 4.14
2.823 -0.335 4.127
2.83 -0.299 4.136
2.82 -0.26 4.124
2.832 -0.224 4.138
2.816 -0.186 4.119
2.834 -0.149 4.139
2.819 -0.111 4.122
2.829 -0.075 4.134
2.818 -0.037 4.121
2.829 -0 4.134
2.819 0.037 4.122
2.83 0.075 4.135
2.819 0.111 4.122
2.834 0.149 4.14
2.817 0.186 4.12
2.835 0.224 4.141
2.82 0.26 4.123
2.836 0.3 4.142
2.818 0.335 4.121
2.838 0.375 4.144
2.819 0.41 4.122
2.834 0.45 4.139
2.825 0.486 4.129
2.824 0.524 4.128
2.826 0.562 4.131
2.827 0.6 4.132
2.818 0.636 4.121
2.832 0.677 4.137
2.816 0.712 4.119
2.825 0.752 4.129
2.814 0.787 4.116
2.826 0.83 4.131
2.809 0.863 4.11
2.823 0.906 4.127
2.806 0.939 4.107
2.819 0.983 4.122
2.802 1.016 4.102
2.814 1.06 4.117
2.807 1.096 4.108
2.801 1.133 4.101
2.803 1.174 4.103
2.819 1.221 4.122
2.805 1.254 4.106
2.82 1.302 4.123
2.807 1.337 4.109
2.822 1.385 4.126
2.809 1.419 4.11
2.821 1.467 4.125
2.811 1.503 4.113
2.823 1.551 4.126
2.808 1.585 4.11
2.822 1.636 4.125
2.806 1.669 4.107
2.813 1.716 4.115
2.803 1.753 4.104
2.814 1.804 4.117
2.805 1.841 4.106
2.815 1.893 4.117
2.804 1.93 4.105
2.814 1.982 4.117
2.804 2.02 4.105
2.837 2.09 4.143
2.831 2.131 4.136
2.832 2.18 4.138
2.827 2.222 4.131
2.835 2.276 4.141
2.825 2.317 4.13
2.831 2.37 4.137
2.839 2.426 4.145
2.837 2.474 4.143
2.853 2.539 4.162
2.836 2.573 4.142
2.849 2.637 4.157
2.831 2.671 4.136
2.852 2.744 4.16
2.863 2.809 4.174
2.861 2.861 4.172
2.86 2.914 4.17
2.835 2.943 4.141
2.868 3.034 4.18
2.822 3.04 4.126
2.853 3.131 4.162
2.86 3.197 4.17
2.852 3.246 4.16
2.79 3.233 4.089
2.793 3.295 4.092
2.782 3.34 4.079
2.789 3.41 4.088
2.777 3.456 4.074
2.788 3.532 4.086
2.769 3.57 4.064
2.785 3.656 4.083
2.766 3.695 4.061
2.779 3.778 4.076
2.764 3.824 4.059
2.772 3.903 4.068
2.763 3.958 4.057
2.775 4.046 4.072
2.761 4.096 4.055
2.773 4.187 4.069
2.757 4.235 4.05
2.77 4.331 4.066
2.757 4.386 4.05
2.765 4.476 4.059
2.752 4.534 4.044
2.763 4.632 4.057
2.75 4.692 4.042
2.756 4.786 4.049
2.742 4.845 4.032
2.757 4.959 4.05
2.722 4.983 4.009
2.676 4.986 3.956
2.634 4.995 3.907
2.587 4.993 3.852
2.543 4.997 3.801
2.5 4.999 3.751
2.462 5.012 3.706
2.419 5.013 3.656
2.377 5.017 3.607
2.335 5.018 3.558
2.297 5.027 3.514
2.255 5.027 3.465
2.216 5.033 3.42
2.178 5.04 3.375
2.139 5.044 3.331
2.102 5.05 3.287
2.063 5.054 3.242
2.025 5.056 3.197
1.987 5.059 3.153
1.952 5.068 3.112
1.913 5.065 3.067
1.876 5.068 3.024
0.286 0.679 1.172
0.281 0.679 1.166
0.272 0.667 1.156
0.269 0.67 1.151
0.264 0.67 1.146
0.257 0.665 1.138
0.254 0.668 1.134
0.25 0.672 1.13
0.243 0.662 1.121
0.24 0.667 1.117
0.235 0.667 1.112
0.232 0.672 1.109
0.227 0.672 1.103
0.224 0.674 1.099
0.219 0.675 1.094
0.214 0.669 1.087
0.209 0.671 1.082
0.206 0.674 1.078
0.202 0.678 1.074
0.198 0.678 1.069
0.194 0.68 1.065
0.189 0.675 1.059
0.185 0.675 1.054
0.182 0.681 1.05
0.179 0.687 1.047
0.173 0.679 1.04
0.169 0.682 1.036
0.165 0.681 1.031
0.162 0.685 1.027
0.158 0.688 1.022
0.154 0.689 1.018
0.149 0.681 1.011
0.145 0.682 1.007
0.141 0.686 1.003
0.137 0.688 0.998
0.133 0.689 0.994
0.129 0.683 0.988
0.126 0.693 0.985
0.121 0.685 0.979
0.117 0.688 0.975
0.113 0.689 0.97
0.109 0.691 0.966
0.106 0.692 0.961
0.102 0.693 0.957
0.098 0.694 0.952
0.094 0.694 0.948
0.09 0.695 0.943
0.086 0.692 0.938
0.082 0.702 0.934
0.078 0.693 0.929
0.074 0.696 0.924
0.07 0.694 0.92
0.066 0.701 0.915
0.062 0.702 0.911
0.058 0.702 0.906
0.054 0.701 0.901
0.05 0.702 0.897
0.046 0.699 0.892
0.045 -0.365 0.893
0.048 -0.373 0.895
0.05 -0.365 0.897
0.052 -0.365 0.9
0.054 -0.375 0.903
0.056 -0.371 0.905
0.058 -0.369 0.907
0.06 -0.369 0.91
0.062 -0.372 0.912
0.064 -0.373 0.915
0.067 -0.373 0.917
0.068 -0.37 0.92
0.071 -0.372 0.922
0.073 -0.372 0.925
0.076 -0.381 0.928
0.077 -0.372 0.93
0.079 -0.369 0.932
0.081 -0.372 0.935
0.084 -0.373 0.938
0.086 -0.374 0.94
0.088 -0.374 0.943
0.09 -0.373 0.945
0.093 -0.379 0.949
0.095 -0.375 0.951
0.096 -0.371 0.953
0.099 -0.374 0.956
0.101 -0.372 0.958
0.103 -0.37 0.96
0.105 -0.371 0.963
0.107 -0.367 0.965
0.141 -0.552 1.005
0.111 -0.368 0.97
