# .PCD v0.7 - Point Cloud Data file format
VERSION 0.7
FIELDS x y z
SIZE 4 4 4
TYPE F F F
COUNT 1 1 1
WIDTH 2624
HEIGHT 1
VIEWPOINT 0 0 0 1 0 0 0
POINTS 2624
DATA ascii
0.114 -0.78 0.735
0.136 -0.895 0.755
0.136 -0.858 0.755
0.134 -0.807 0.753
0.137 -0.788 0.755
0.142 -0.786 0.76
0.145 -0.773 0.763
0.149 -0.771 0.767
0.154 -0.77 0.772
0.159 -0.769 0.777
0.164 -0.764 0.781
0.169 -0.761 0.785
0.176 -0.773 0.792
0.175 -0.741 0.791
0.172 -0.707 0.788
0.179 -0.714 0.794
0.752 -3.03 1.326
0.798 -3.129 1.369
0.847 -3.231 1.415
0.904 -3.356 1.467
0.96 -3.471 1.519
1.025 -3.61 1.579
0.666 -2.276 1.246
0.675 -2.25 1.255
0.684 -2.223 1.263
0.695 -2.206 1.273
0.709 -2.196 1.286
0.723 -2.19 1.299
0.738 -2.183 1.313
0.749 -2.166 1.323
0.766 -2.166 1.339
0.777 -2.148 1.349
0.79 -2.139 1.362
0.804 -2.129 1.374
0.818 -2.122 1.388
0.835 -2.119 1.403
0.844 -2.099 1.412
0.859 -2.094 1.426
0.942 -2.252 1.503
2.53 -5.957 2.975
2.553 -5.893 2.997
2.577 -5.831 3.019
2.597 -5.761 3.037
1.211 -2.626 1.752
3.102 -6.624 3.506
3.145 -6.587 3.545
3.191 -6.558 3.588
3.233 -6.52 3.627
3.274 -6.481 3.665
3.32 -6.45 3.708
3.366 -6.419 3.75
3.407 -6.379 3.788
3.452 -6.347 3.83
3.496 -6.313 3.872
3.541 -6.279 3.913
3.586 -6.245 3.954
3.63 -6.21 3.996
3.675 -6.175 4.037
3.719 -6.139 4.078
3.763 -6.102 4.119
3.812 -6.073 4.164
3.855 -6.035 4.204
3.898 -5.996 4.244
3.946 -5.964 4.289
3.994 -5.933 4.333
4.037 -5.893 4.373
4.085 -5.859 4.417
4.132 -5.824 4.461
4.18 -5.789 4.505
4.222 -5.747 4.544
4.274 -5.717 4.592
4.316 -5.673 4.632
4.368 -5.643 4.68
4.417 -5.607 4.725
4.459 -5.562 4.764
4.394 -5.386 4.704
4.381 -5.276 4.692
4.427 -5.239 4.735
4.476 -5.205 4.781
4.521 -5.165 4.822
4.571 -5.13 4.868
4.621 -5.094 4.915
4.671 -5.058 4.961
4.719 -5.02 5.006
4.755 -4.968 5.039
4.78 -4.904 5.062
4.761 -4.797 5.045
4.78 -4.728 5.062
4.751 -4.614 5.036
4.781 -4.558 5.063
4.758 -4.452 5.041
4.774 -4.384 5.056
4.753 -4.283 5.037
4.775 -4.221 5.057
4.763 -4.131 5.046
4.782 -4.068 5.064
4.75 -3.963 5.034
4.764 -3.897 5.047
4.747 -3.807 5.032
4.764 -3.745 5.048
4.745 -3.655 5.029
4.768 -3.598 5.051
4.749 -3.511 5.034
4.778 -3.459 5.06
4.755 -3.37 5.039
4.796 -3.327 5.077
4.811 -3.266 5.091
4.814 -3.197 5.093
4.767 -3.095 5.05
4.746 -3.013 5.031
4.713 -2.924 5
4.866 -2.95 5.142
4.826 -2.857 5.105
4.783 -2.764 5.065
4.751 -2.68 5.036
4.787 -2.633 5.069
4.828 -2.589 5.107
4.837 -2.528 5.115
4.799 -2.443 5.079
4.78 -2.369 5.062
4.742 -2.286 5.027
4.765 -2.234 5.049
4.762 -2.169 5.046
4.774 -2.112 5.056
4.758 -2.043 5.042
4.783 -1.991 5.064
4.757 -1.919 5.041
4.776 -1.864 5.058
4.75 -1.793 5.034
4.768 -1.739 5.051
4.748 -1.672 5.032
4.763 -1.617 5.047
4.747 -1.551 5.031
4.763 -1.497 5.046
4.746 -1.433 5.031
4.775 -1.382 5.058
4.761 -1.319 5.045
4.782 -1.265 5.064
4.753 -1.199 5.037
4.78 -1.148 5.063
4.752 -1.083 5.036
4.755 -1.025 5.039
4.728 -0.962 5.014
5.126 -0.981 5.383
5.142 -0.922 5.398
5.108 -0.854 5.367
5.081 -0.788 5.341
5.046 -0.722 5.309
5.019 -0.658 5.283
4.995 -0.595 5.261
4.964 -0.532 5.233
4.944 -0.471 5.214
4.915 -0.409 5.188
4.895 -0.349 5.169
4.866 -0.289 5.142
4.841 -0.23 5.119
4.811 -0.172 5.091
4.784 -0.114 5.066
4.752 -0.056 5.036
4.721 -0 5.008
4.697 0.056 4.985
4.673 0.111 4.963
4.652 0.166 4.944
4.628 0.22 4.921
4.605 0.274 4.9
4.571 0.326 4.869
4.555 0.379 4.854
4.528 0.431 4.828
4.511 0.483 4.813
4.486 0.534 4.789
4.458 0.584 4.764
4.432 0.634 4.74
4.414 0.685 4.722
4.382 0.732 4.693
4.363 0.782 4.675
4.335 0.829 4.649
4.322 0.879 4.638
4.294 0.926 4.611
4.273 0.973 4.592
4.252 1.021 4.572
4.232 1.068 4.553
4.214 1.115 4.538
4.201 1.163 4.525
4.168 1.206 4.494
4.147 1.251 4.475
4.129 1.298 4.458
4.108 1.343 4.439
4.087 1.387 4.419
4.065 1.431 4.399
4.037 1.472 4.373
4.022 1.518 4.359
4 1.561 4.338
3.983 1.606 4.323
3.957 1.647 4.299
3.942 1.691 4.285
3.918 1.732 4.262
3.907 1.779 4.252
3.882 1.819 4.229
3.864 1.862 4.213
3.838 1.901 4.189
3.821 1.944 4.172
3.801 1.986 4.154
3.788 2.031 4.142
3.763 2.069 4.119
3.75 2.114 4.107
3.731 2.155 4.089
3.711 2.196 4.07
3.69 2.235 4.051
3.669 2.275 4.031
3.654 2.318 4.018
3.633 2.358 3.998
3.614 2.399 3.981
3.598 2.441 3.966
3.584 2.485 3.953
3.559 2.521 3.929
3.54 2.561 3.912
3.518 2.599 3.892
3.503 2.642 3.877
3.479 2.678 3.856
3.462 2.72 3.84
3.444 2.761 3.823
3.426 2.801 3.806
3.408 2.841 3.79
3.39 2.882 3.773
3.373 2.923 3.757
3.354 2.963 3.74
3.336 3.004 3.722
3.317 3.044 3.705
3.297 3.083 3.687
3.277 3.122 3.668
3.258 3.161 3.65
3.244 3.206 3.638
1.81 1.818 2.307
1.792 1.833 2.291
1.78 1.854 2.28
1.767 1.874 2.268
1.308 1.41 1.842
1.244 1.365 1.783
1.236 1.38 1.775
1.227 1.394 1.766
1.223 1.415 1.763
1.214 1.43 1.755
1.206 1.445 1.747
1.196 1.458 1.738
1.186 1.472 1.729
1.183 1.494 1.726
1.173 1.507 1.717
1.163 1.521 1.708
1.159 1.543 1.704
1.15 1.556 1.695
1.144 1.576 1.69
1.135 1.59 1.681
1.124 1.604 1.671
1.114 1.617 1.662
1.114 1.645 1.661
1.098 1.651 1.647
1.092 1.671 1.642
1.087 1.692 1.637
1.101 1.744 1.65
1.063 1.714 1.614
1.054 1.731 1.607
1.049 1.753 1.602
1.038 1.766 1.592
1.03 1.784 1.584
1.024 1.806 1.579
1.013 1.818 1.568
1.005 1.837 1.561
0.997 1.857 1.554
0.99 1.877 1.547
0.978 1.889 1.536
0.971 1.91 1.529
0.964 1.932 1.523
0.951 1.943 1.511
0.929 1.934 1.491
0.9 1.909 1.464
0.876 1.893 1.441
0.852 1.878 1.419
0.828 1.861 1.397
0.802 1.838 1.373
0.693 1.616 1.271
0.688 1.637 1.266
0.677 1.644 1.256
0.642 1.592 1.224
0.622 1.574 1.206
0.598 1.544 1.183
0.582 1.534 1.168
0.569 1.533 1.156
0.55 1.515 1.139
0.532 1.497 1.122
0.486 1.397 1.079
0.324 0.945 0.929
0.314 0.937 0.92
0.304 0.928 0.911
0.297 0.927 0.904
0.287 0.916 0.895
0.278 0.909 0.886
0.271 0.909 0.88
0.261 0.898 0.871
0.253 0.893 0.863
0.25 0.907 0.861
0.247 0.917 0.857
0.24 0.918 0.851
0.23 0.902 0.842
0.224 0.905 0.837
0.215 0.894 0.828
0 0 0
0 0 0
0 0 0
0 0 0
0 0 0
0 0 0
0 0 0
0.186 1.006 0.801
0.179 1.009 0.795
0 0 0
0 0 0
0 0 0
0 0 0
0 0 0
0 0 0
0 0 0
0 0 0
0 0 0
0 0 0
0 0 0
0 0 0
0 0 0
0 0 0
0 0 0
0 0 0
0.059 0.87 0.683
0.052 0.843 0.677
0.045 0.823 0.671
0 0 0
0 0 0
0 0 0
0.023 0.763 0.65
0.017 0.691 0.645
0.013 0.646 0.64
0.008 0.589 0.636
0.008 -0.104 0.637
0.016 -1.199 0.644
0.022 -1.074 0.649
0.028 -1.076 0.656
0.035 -1.077 0.662
0.042 -1.073 0.669
0 0 0
0.078 -1.578 0.703
0.09 -1.61 0.714
0.1 -1.617 0.724
0.101 -1.468 0.725
0.094 -1.23 0.718
0.097 -1.17 0.721
0.1 -1.109 0.724
0.106 -1.099 0.73
0.11 -1.071 0.734
0.117 -1.072 0.74
0.126 -1.092 0.749
0.226 -1.895 0.843
0.109 -0.83 0.732
0.108 -0.783 0.732
0.13 -0.905 0.752
0.131 -0.874 0.754
0.128 -0.811 0.75
0.131 -0.797 0.753
0.134 -0.787 0.757
0.14 -0.787 0.762
0.144 -0.784 0.766
0.147 -0.771 0.769
0.152 -0.77 0.774
0.157 -0.766 0.778
0.161 -0.762 0.782
0.17 -0.782 0.791
0.172 -0.762 0.792
0.166 -0.714 0.787
0.171 -0.712 0.791
0.696 -2.923 1.291
0.739 -3.013 1.331
0.787 -3.122 1.377
0.834 -3.22 1.422
0.886 -3.329 1.471
0.944 -3.454 1.526
1.006 -3.589 1.586
1.072 -3.726 1.648
0.671 -2.265 1.267
0.676 -2.225 1.271
0.689 -2.215 1.284
0.701 -2.198 1.295
0.715 -2.19 1.308
0.729 -2.183 1.322
0.744 -2.177 1.336
0.758 -2.168 1.349
0.771 -2.157 1.361
0.785 -2.15 1.375
0.798 -2.138 1.387
0.809 -2.122 1.398
0.825 -2.119 1.413
0.838 -2.109 1.426
0.851 -2.098 1.438
0.89 -2.152 1.475
1.055 -2.503 1.632
1.076 -2.5 1.651
2.549 -5.834 3.052
2.57 -5.769 3.072
1.166 -2.556 1.737
3.065 -6.621 3.543
3.112 -6.595 3.587
3.154 -6.558 3.627
3.195 -6.52 3.666
3.241 -6.489 3.709
3.286 -6.459 3.753
3.331 -6.427 3.795
3.371 -6.387 3.834
3.416 -6.354 3.876
3.46 -6.321 3.918
3.505 -6.287 3.96
3.544 -6.245 3.998
3.588 -6.21 4.04
3.637 -6.182 4.086
3.681 -6.147 4.128
3.724 -6.11 4.169
3.768 -6.073 4.21
3.815 -6.042 4.255
3.858 -6.004 4.296
3.906 -5.973 4.342
3.948 -5.933 4.382
3.996 -5.9 4.427
4.042 -5.865 4.471
4.089 -5.831 4.516
4.132 -5.789 4.556
4.183 -5.761 4.606
4.225 -5.717 4.645
4.272 -5.682 4.69
4.319 -5.644 4.734
4.366 -5.607 4.779
4.419 -5.577 4.83
4.392 -5.446 4.804
4.334 -5.281 4.749
4.381 -5.245 4.794
4.431 -5.212 4.841
4.48 -5.178 4.888
4.524 -5.136 4.929
4.572 -5.099 4.975
4.594 -5.033 4.996
4.617 -4.968 5.018
4.598 -4.86 5
4.61 -4.784 5.011
4.586 -4.674 4.989
4.609 -4.612 5.01
4.598 -4.517 4.999
4.608 -4.444 5.009
4.598 -4.353 5
4.623 -4.295 5.023
4.596 -4.19 4.998
4.61 -4.123 5.011
4.587 -4.024 4.989
4.6 -3.959 5.002
4.576 -3.862 4.979
4.587 -3.796 4.989
4.573 -3.71 4.975
4.596 -3.655 4.998
4.578 -3.568 4.981
4.6 -3.512 5.002
4.575 -3.421 4.978
4.597 -3.366 4.998
4.58 -3.284 4.983
4.592 -3.222 4.994
4.555 -3.128 4.959
4.626 -3.108 5.026
4.648 -3.054 5.047
4.68 -3.006 5.078
4.641 -2.913 5.041
4.616 -2.83 5.017
4.581 -2.743 4.983
4.665 -2.727 5.063
4.657 -2.657 5.055
4.654 -2.59 5.053
4.614 -2.503 5.015
4.593 -2.428 4.995
4.567 -2.352 4.971
4.682 -2.347 5.079
4.652 -2.269 5.051
4.646 -2.203 5.045
4.633 -2.135 5.033
4.62 -2.067 5.02
4.594 -1.995 4.996
4.617 -1.944 5.017
4.593 -1.874 4.995
4.612 -1.821 5.013
4.59 -1.753 4.992
4.601 -1.698 5.003
4.592 -1.635 4.994
4.602 -1.58 5.003
4.593 -1.519 4.994
4.608 -1.465 5.009
4.601 -1.405 5.003
4.619 -1.352 5.02
4.591 -1.286 4.993
4.608 -1.234 5.01
4.588 -1.171 4.99
4.603 -1.118 5.004
4.589 -1.058 4.991
4.602 -1.004 5.004
4.587 -0.944 4.989
4.61 -0.892 5.011
4.592 -0.833 4.994
4.614 -0.78 5.014
4.586 -0.72 4.988
4.63 -0.67 5.03
4.666 -0.619 5.065
4.951 -0.597 5.335
4.921 -0.534 5.307
4.887 -0.471 5.274
4.872 -0.41 5.26
4.838 -0.349 5.228
4.812 -0.289 5.203
4.786 -0.23 5.178
4.777 -0.172 5.17
4.745 -0.114 5.14
4.72 -0.057 5.115
4.685 -0 5.082
4.657 0.056 5.055
4.634 0.111 5.034
4.612 0.166 5.013
4.579 0.22 4.982
4.557 0.274 4.961
4.54 0.328 4.944
4.506 0.38 4.913
4.49 0.432 4.897
4.472 0.485 4.88
4.451 0.536 4.86
4.426 0.587 4.836
4.398 0.637 4.809
4.373 0.686 4.786
4.346 0.735 4.76
4.327 0.784 4.742
4.3 0.832 4.716
4.281 0.881 4.698
4.26 0.929 4.679
4.241 0.977 4.66
4.211 1.023 4.632
4.191 1.07 4.612
4.182 1.119 4.604
4.165 1.167 4.588
4.133 1.21 4.557
4.11 1.255 4.536
4.088 1.3 4.515
4.066 1.344 4.494
4.045 1.389 4.474
4.032 1.436 4.461
4.009 1.479 4.44
3.988 1.523 4.42
3.967 1.566 4.4
3.944 1.608 4.378
3.926 1.652 4.36
3.903 1.694 4.339
3.888 1.739 4.324
3.869 1.783 4.307
3.846 1.823 4.285
3.827 1.866 4.267
3.809 1.909 4.25
3.797 1.955 4.238
3.77 1.993 4.213
3.751 2.034 4.195
3.726 2.073 4.171
3.713 2.117 4.158
3.694 2.159 4.14
3.674 2.199 4.121
3.653 2.239 4.101
3.64 2.284 4.089
3.618 2.323 4.068
3.597 2.362 4.048
3.581 2.404 4.032
3.561 2.444 4.014
3.544 2.486 3.998
3.527 2.528 3.982
3.509 2.568 3.964
3.492 2.61 3.949
3.469 2.647 3.926
3.445 2.683 3.904
3.43 2.726 3.889
3.412 2.767 3.872
3.394 2.807 3.855
3.376 2.848 3.838
3.359 2.889 3.821
3.34 2.929 3.804
3.322 2.969 3.787
3.304 3.01 3.769
3.285 3.049 3.751
3.265 3.089 3.733
3.246 3.128 3.714
3.232 3.172 3.701
3.211 3.21 3.681
1.846 1.877 2.384
1.777 1.839 2.318
1.765 1.86 2.307
1.744 1.872 2.287
1.271 1.386 1.837
1.23 1.366 1.798
1.227 1.387 1.796
1.218 1.401 1.787
1.209 1.415 1.778
1.2 1.43 1.77
1.191 1.445 1.761
1.182 1.458 1.752
1.178 1.479 1.748
1.169 1.494 1.74
1.159 1.507 1.731
1.156 1.529 1.727
1.146 1.543 1.718
1.141 1.563 1.714
1.131 1.577 1.704
1.121 1.59 1.695
1.111 1.604 1.685
1.106 1.624 1.68
1.1 1.645 1.675
1.09 1.658 1.665
1.079 1.671 1.655
1.084 1.708 1.659
1.088 1.744 1.663
1.053 1.717 1.629
1.043 1.732 1.62
1.037 1.753 1.615
1.026 1.766 1.604
1.019 1.786 1.598
1.011 1.804 1.59
1.005 1.825 1.584
0.998 1.846 1.578
0.987 1.858 1.567
0.979 1.877 1.559
0.972 1.899 1.553
0.964 1.919 1.545
0.952 1.932 1.534
0.939 1.94 1.521
0.918 1.934 1.502
0.889 1.909 1.474
0.866 1.894 1.452
0.838 1.869 1.426
0.815 1.852 1.403
0.794 1.842 1.384
0.684 1.616 1.279
0.691 1.666 1.286
0.674 1.657 1.269
0.638 1.602 1.236
0.615 1.574 1.213
0.595 1.557 1.195
0.575 1.535 1.176
0.561 1.529 1.162
0.541 1.508 1.143
0.524 1.493 1.127
0.412 1.196 1.021
0.32 0.944 0.933
0.309 0.932 0.922
0.3 0.926 0.914
0.293 0.925 0.907
0.285 0.921 0.899
0.274 0.908 0.889
0.269 0.913 0.884
0.261 0.908 0.877
0.251 0.895 0.867
0.248 0.91 0.865
0.243 0.917 0.86
0.237 0.918 0.854
0.228 0.908 0.846
0.223 0.911 0.841
0.215 0.906 0.833
0 0 0
0 0 0
0 0 0
0 0 0
0 0 0
0 0 0
0.199 1.057 0.818
0.189 1.04 0.809
0.184 1.053 0.804
0 0 0
0 0 0
0 0 0
0 0 0
0 0 0
0 0 0
0 0 0
0 0 0
0 0 0
0 0 0
0 0 0
0 0 0
0 0 0
0 0 0
0 0 0
0 0 0
0 0 0
0.05 0.82 0.676
0.045 0.835 0.672
0 0 0
0 0 0
0 0 0
0 0 0
0.017 0.693 0.645
0.012 0.674 0.641
0.008 0.589 0.637
0.008 -0.109 0.637
0.015 -1.186 0.644
0.021 -1.071 0.65
0.028 -1.084 0.656
0.035 -1.088 0.663
0.042 -1.079 0.669
0 0 0
0.077 -1.577 0.703
0.089 -1.61 0.715
0.1 -1.618 0.725
0.095 -1.383 0.72
0.092 -1.215 0.718
0.095 -1.151 0.72
0.099 -1.111 0.724
0.104 -1.09 0.729
0.109 -1.066 0.734
0.117 -1.072 0.741
0.125 -1.088 0.749
0.224 -1.888 0.844
0.104 -0.799 0.729
0.107 -0.776 0.731
0.127 -0.894 0.751
0.128 -0.86 0.752
0.126 -0.808 0.751
0.13 -0.797 0.754
0.134 -0.789 0.758
0.139 -0.786 0.762
0.144 -0.784 0.767
0.148 -0.782 0.772
0.153 -0.779 0.776
0.158 -0.776 0.781
0.162 -0.773 0.785
0.169 -0.782 0.792
0.169 -0.753 0.791
0.168 -0.725 0.79
0.652 -2.833 1.255
0.691 -2.915 1.293
0.735 -3.015 1.335
0.782 -3.116 1.38
0.829 -3.215 1.425
0.881 -3.326 1.475
0.938 -3.449 1.53
1 -3.582 1.589
1.065 -3.721 1.652
0.67 -2.273 1.273
0.674 -2.229 1.276
0.688 -2.221 1.29
0.699 -2.204 1.3
0.713 -2.195 1.314
0.727 -2.188 1.327
0.741 -2.18 1.341
0.755 -2.171 1.354
0.769 -2.162 1.367
0.782 -2.153 1.38
0.795 -2.141 1.392
0.808 -2.131 1.405
0.822 -2.122 1.418
0.836 -2.114 1.431
0.848 -2.102 1.443
0.878 -2.132 1.472
1.044 -2.487 1.631
1.063 -2.483 1.65
2.544 -5.851 3.072
2.562 -5.779 3.089
1.168 -2.575 1.751
3.054 -6.628 3.561
3.097 -6.595 3.603
3.139 -6.559 3.643
3.18 -6.52 3.683
3.225 -6.49 3.726
3.271 -6.46 3.769
3.315 -6.427 3.812
3.356 -6.388 3.851
3.4 -6.354 3.893
3.444 -6.321 3.936
3.488 -6.287 3.978
3.532 -6.254 4.021
3.576 -6.219 4.063
3.619 -6.183 4.104
3.663 -6.147 4.146
3.706 -6.11 4.187
3.754 -6.081 4.234
3.797 -6.043 4.275
3.844 -6.011 4.32
3.887 -5.973 4.361
3.93 -5.934 4.402
3.977 -5.901 4.448
4.023 -5.866 4.492
4.07 -5.832 4.537
4.117 -5.797 4.582
4.163 -5.761 4.627
4.21 -5.725 4.672
4.257 -5.689 4.716
4.304 -5.651 4.761
4.351 -5.614 4.806
4.398 -5.578 4.852
4.387 -5.466 4.841
4.324 -5.294 4.781
4.366 -5.252 4.821
4.41 -5.212 4.864
4.459 -5.178 4.911
4.498 -5.132 4.948
4.531 -5.078 4.98
4.519 -4.975 4.969
4.541 -4.911 4.99
4.517 -4.796 4.966
4.535 -4.729 4.983
4.512 -4.621 4.961
4.535 -4.56 4.984
4.518 -4.46 4.968
4.541 -4.4 4.989
4.519 -4.298 4.968
4.545 -4.243 4.993
4.523 -4.143 4.972
4.534 -4.075 4.983
4.511 -3.977 4.96
4.524 -3.912 4.972
4.504 -3.819 4.953
4.522 -3.76 4.971
4.5 -3.668 4.949
4.521 -3.612 4.97
4.504 -3.527 4.954
4.52 -3.467 4.969
4.503 -3.384 4.953
4.525 -3.33 4.974
4.501 -3.243 4.951
4.522 -3.189 4.971
4.508 -3.11 4.957
4.503 -3.039 4.952
4.495 -2.967 4.945
4.6 -2.968 5.046
4.59 -2.895 5.036
4.583 -2.824 5.03
4.558 -2.743 5.005
4.532 -2.662 4.98
4.501 -2.58 4.951
4.602 -2.573 5.048
4.58 -2.497 5.027
4.567 -2.426 5.014
4.529 -2.343 4.977
4.513 -2.273 4.963
4.574 -2.242 5.021
4.577 -2.181 5.024
4.532 -2.099 4.981
4.533 -2.038 4.981
4.524 -1.974 4.973
4.541 -1.921 4.989
4.528 -1.856 4.977
4.543 -1.803 4.991
4.522 -1.736 4.971
4.539 -1.683 4.988
4.514 -1.616 4.964
4.531 -1.563 4.979
4.521 -1.502 4.97
4.543 -1.451 4.991
4.522 -1.387 4.971
4.538 -1.335 4.986
4.516 -1.272 4.965
4.531 -1.219 4.98
4.516 -1.158 4.966
4.531 -1.106 4.98
4.517 -1.046 4.966
4.53 -0.993 4.979
4.515 -0.934 4.964
4.537 -0.882 4.985
4.52 -0.824 4.97
4.535 -0.771 4.984
4.517 -0.712 4.966
4.536 -0.66 4.984
4.519 -0.602 4.968
4.536 -0.549 4.984
4.536 -0.494 4.984
4.876 -0.472 5.311
4.85 -0.411 5.286
4.82 -0.35 5.258
4.8 -0.29 5.238
4.776 -0.231 5.215
4.763 -0.173 5.203
4.751 -0.115 5.19
4.732 -0.057 5.172
4.672 -0 5.115
4.647 0.056 5.091
4.617 0.112 5.062
4.595 0.167 5.041
4.572 0.221 5.019
4.548 0.275 4.996
4.518 0.328 4.967
4.492 0.38 4.942
4.469 0.432 4.92
4.443 0.484 4.895
4.427 0.536 4.88
4.409 0.588 4.863
4.385 0.638 4.84
4.36 0.687 4.815
4.334 0.736 4.79
4.314 0.786 4.772
4.288 0.834 4.746
4.268 0.883 4.727
4.248 0.931 4.708
4.22 0.977 4.681
4.199 1.025 4.661
4.178 1.072 4.641
4.163 1.12 4.626
4.143 1.166 4.607
4.113 1.21 4.578
4.098 1.257 4.564
4.075 1.302 4.542
4.053 1.347 4.521
4.034 1.392 4.502
4.012 1.436 4.481
3.99 1.479 4.46
3.977 1.526 4.448
3.948 1.566 4.42
3.932 1.612 4.405
3.907 1.652 4.38
3.891 1.697 4.365
3.868 1.739 4.343
3.858 1.786 4.333
3.834 1.826 4.31
3.816 1.869 4.293
3.791 1.909 4.269
3.78 1.955 4.259
3.759 1.996 4.239
3.74 2.038 4.22
3.722 2.08 4.203
3.702 2.121 4.183
3.682 2.162 4.165
3.663 2.203 4.146
3.642 2.243 4.126
3.629 2.288 4.114
3.607 2.327 4.093
3.587 2.367 4.073
3.57 2.409 4.057
3.55 2.448 4.038
3.527 2.486 4.016
3.512 2.529 4.001
3.495 2.571 3.985
3.48 2.614 3.971
3.46 2.653 3.951
3.443 2.695 3.935
3.419 2.73 3.912
3.401 2.771 3.895
3.384 2.812 3.878
3.367 2.853 3.862
3.343 2.889 3.839
3.329 2.934 3.826
3.307 2.97 3.804
3.289 3.011 3.787
3.27 3.05 3.769
3.256 3.095 3.755
3.236 3.133 3.736
3.217 3.173 3.718
3.2 3.216 3.702
1.831 1.87 2.387
1.769 1.84 2.328
1.757 1.86 2.316
1.743 1.88 2.303
1.256 1.376 1.835
1.224 1.366 1.805
1.221 1.387 1.802
1.212 1.401 1.793
1.204 1.416 1.785
1.195 1.43 1.776
1.186 1.445 1.767
1.182 1.465 1.764
1.172 1.48 1.755
1.163 1.494 1.746
1.159 1.515 1.742
1.15 1.529 1.733
1.14 1.543 1.724
1.136 1.563 1.719
1.126 1.577 1.71
1.116 1.59 1.7
1.111 1.611 1.695
1.1 1.624 1.686
1.095 1.645 1.681
1.085 1.659 1.671
1.079 1.679 1.666
1.084 1.716 1.67
1.077 1.736 1.664
1.049 1.72 1.636
1.043 1.742 1.631
1.033 1.756 1.621
1.021 1.766 1.61
1.015 1.786 1.603
1.009 1.808 1.598
1.001 1.827 1.59
0.994 1.847 1.583
0.982 1.859 1.572
0.975 1.88 1.565
0.967 1.899 1.557
0.961 1.922 1.551
0.953 1.942 1.544
0.938 1.949 1.53
0.91 1.926 1.503
0.885 1.909 1.479
0.861 1.894 1.456
0.834 1.869 1.43
0.811 1.852 1.407
0.788 1.836 1.386
0.681 1.616 1.283
0.685 1.66 1.287
0.657 1.622 1.259
0.634 1.599 1.238
0.614 1.581 1.219
0.594 1.561 1.199
0.574 1.54 1.18
0.556 1.525 1.163
0.538 1.508 1.146
0.522 1.495 1.13
0.393 1.144 1.006
0.318 0.945 0.935
0.307 0.932 0.924
0.299 0.929 0.916
0.291 0.924 0.908
0.281 0.914 0.899
0.273 0.91 0.891
0.264 0.903 0.883
0.256 0.898 0.875
0.249 0.895 0.868
0.247 0.912 0.867
0.242 0.917 0.862
0.236 0.918 0.856
0.227 0.908 0.847
0.221 0.909 0.841
0.215 0.911 0.836
0 0 0
0 0 0
0 0 0
0 0 0
0 0 0
0 0 0
0 0 0
0.187 1.036 0.809
0.182 1.046 0.804
0 0 0
0 0 0
0 0 0
0 0 0
0 0 0
0 0 0
0 0 0
0 0 0
0 0 0
0 0 0
0 0 0
0 0 0
0 0 0
0 0 0
0 0 0
0 0 0
0 0 0
0 0 0
0.045 0.832 0.672
0 0 0
0 0 0
0 0 0
0 0 0
0.016 0.686 0.645
0.012 0.668 0.641
0.008 0.58 0.637
0.008 -0.107 0.637
0.015 -1.196 0.644
0.021 -1.071 0.65
0.028 -1.075 0.656
0.035 -1.089 0.663
0.041 -1.073 0.669
0 0 0
0.077 -1.576 0.704
0.088 -1.608 0.715
0.098 -1.609 0.725
0.09 -1.318 0.717
0.091 -1.203 0.718
0.094 -1.142 0.72
0.097 -1.099 0.724
0.102 -1.077 0.729
0.106 -1.043 0.732
0.116 -1.076 0.742
0.124 -1.086 0.75
0.121 -1.001 0.747
0.102 -0.786 0.728
0.108 -0.797 0.735
0.125 -0.883 0.751
0.126 -0.85 0.752
0.124 -0.797 0.75
0.129 -0.796 0.755
0.133 -0.789 0.759
0.138 -0.787 0.764
0.142 -0.784 0.768
0.147 -0.782 0.773
0.151 -0.776 0.777
0.156 -0.775 0.782
0.164 -0.786 0.789
0.168 -0.783 0.793
0.167 -0.754 0.792
0.167 -0.73 0.792
0.646 -2.827 1.259
0.686 -2.917 1.298
0.729 -3.009 1.339
0.773 -3.102 1.382
0.82 -3.202 1.428
0.87 -3.31 1.477
0.927 -3.432 1.532
0.991 -3.576 1.594
1.055 -3.711 1.657
0.667 -2.278 1.279
0.669 -2.229 1.281
0.683 -2.222 1.295
0.694 -2.203 1.305
0.707 -2.194 1.318
0.722 -2.188 1.333
0.736 -2.181 1.346
0.75 -2.172 1.359
0.763 -2.162 1.373
0.777 -2.153 1.386
0.79 -2.144 1.399
0.803 -2.134 1.412
0.816 -2.123 1.425
0.83 -2.114 1.437
0.843 -2.103 1.45
0.867 -2.122 1.474
1.045 -2.509 1.647
1.056 -2.485 1.658
2.526 -5.852 3.09
2.545 -5.78 3.108
1.159 -2.572 1.758
3.035 -6.635 3.586
3.076 -6.596 3.626
3.121 -6.567 3.67
3.162 -6.529 3.709
3.207 -6.499 3.753
3.248 -6.46 3.793
3.292 -6.428 3.836
3.336 -6.395 3.879
3.376 -6.354 3.918
3.42 -6.322 3.961
3.463 -6.287 4.003
3.507 -6.253 4.046
3.551 -6.219 4.089
3.594 -6.183 4.13
3.637 -6.147 4.172
3.685 -6.118 4.219
3.728 -6.081 4.261
3.775 -6.051 4.307
3.817 -6.012 4.348
3.86 -5.973 4.39
3.907 -5.94 4.435
3.953 -5.907 4.48
4 -5.873 4.526
4.041 -5.832 4.566
4.093 -5.804 4.617
4.135 -5.762 4.657
4.181 -5.725 4.702
4.227 -5.689 4.747
4.274 -5.652 4.793
4.32 -5.614 4.838
4.372 -5.583 4.888
4.373 -5.488 4.889
4.297 -5.298 4.815
4.336 -5.252 4.853
4.384 -5.218 4.9
4.425 -5.175 4.94
4.439 -5.1 4.954
4.459 -5.032 4.973
4.432 -4.914 4.947
4.455 -4.851 4.97
4.433 -4.741 4.948
4.446 -4.669 4.96
4.431 -4.569 4.946
4.448 -4.504 4.963
4.435 -4.409 4.95
4.456 -4.348 4.97
4.44 -4.253 4.955
4.448 -4.182 4.963
4.429 -4.085 4.944
4.453 -4.03 4.967
4.425 -3.929 4.94
4.437 -3.864 4.951
4.421 -3.776 4.936
4.432 -3.711 4.947
4.416 -3.625 4.931
4.437 -3.57 4.952
4.421 -3.486 4.937
4.438 -3.429 4.953
4.415 -3.341 4.93
4.436 -3.287 4.951
4.413 -3.202 4.928
4.433 -3.148 4.948
4.419 -3.071 4.934
4.437 -3.016 4.952
4.419 -2.937 4.934
4.439 -2.885 4.954
4.461 -2.833 4.975
4.527 -2.809 5.04
4.51 -2.733 5.023
4.489 -2.656 5.003
4.453 -2.571 4.968
4.437 -2.499 4.952
4.426 -2.43 4.941
4.511 -2.414 5.024
4.504 -2.347 5.017
4.467 -2.266 4.981
4.449 -2.196 4.963
4.428 -2.125 4.943
4.43 -2.066 4.945
4.453 -2.017 4.968
4.438 -1.95 4.952
4.459 -1.9 4.973
4.438 -1.832 4.953
4.458 -1.782 4.972
4.443 -1.717 4.958
4.459 -1.665 4.973
4.442 -1.601 4.956
4.458 -1.549 4.972
4.444 -1.487 4.958
4.462 -1.436 4.976
4.436 -1.37 4.95
4.455 -1.32 4.969
4.434 -1.257 4.949
4.449 -1.205 4.964
4.428 -1.144 4.943
4.442 -1.092 4.956
4.427 -1.033 4.942
4.449 -0.982 4.963
4.434 -0.924 4.949
4.454 -0.872 4.968
4.437 -0.814 4.952
4.455 -0.762 4.969
4.436 -0.704 4.951
4.444 -0.651 4.958
4.428 -0.594 4.943
4.439 -0.541 4.953
4.428 -0.486 4.943
4.442 -0.433 4.957
4.438 -0.378 4.953
4.801 -0.351 5.306
4.786 -0.291 5.291
4.754 -0.231 5.26
4.731 -0.173 5.238
4.731 -0.115 5.238
4.707 -0.057 5.215
4.643 -0 5.153
4.629 0.056 5.139
4.59 0.112 5.1
4.567 0.167 5.079
4.54 0.221 5.052
4.516 0.275 5.029
4.495 0.328 5.008
4.468 0.381 4.982
4.446 0.433 4.961
4.419 0.485 4.934
4.397 0.536 4.912
4.379 0.588 4.895
4.351 0.637 4.868
4.333 0.688 4.85
4.309 0.737 4.827
4.291 0.787 4.809
4.265 0.835 4.784
4.245 0.884 4.765
4.218 0.931 4.738
4.197 0.979 4.718
4.177 1.026 4.698
4.157 1.074 4.679
4.141 1.122 4.663
4.117 1.167 4.64
4.092 1.212 4.616
4.076 1.259 4.6
4.053 1.304 4.577
4.033 1.349 4.558
4.012 1.394 4.538
3.991 1.438 4.517
3.969 1.482 4.496
3.953 1.528 4.48
3.926 1.569 4.454
3.911 1.614 4.439
3.887 1.656 4.416
3.871 1.7 4.4
3.847 1.742 4.377
3.83 1.785 4.36
3.814 1.83 4.345
3.789 1.87 4.321
3.772 1.913 4.303
3.753 1.955 4.285
3.732 1.996 4.265
3.714 2.038 4.248
3.696 2.08 4.229
3.676 2.121 4.21
3.657 2.163 4.192
3.644 2.207 4.179
3.624 2.248 4.16
3.604 2.288 4.14
3.583 2.327 4.119
3.568 2.371 4.105
3.545 2.408 4.082
3.53 2.452 4.068
3.506 2.489 4.045
3.49 2.531 4.029
3.476 2.575 4.015
3.456 2.614 3.996
3.44 2.656 3.981
3.425 2.699 3.965
3.405 2.739 3.946
3.388 2.78 3.93
3.361 2.813 3.904
3.343 2.854 3.886
3.325 2.894 3.868
3.307 2.935 3.851
3.289 2.975 3.833
3.271 3.016 3.816
3.252 3.055 3.798
3.233 3.095 3.779
3.214 3.134 3.76
3.2 3.179 3.746
3.177 3.215 3.724
1.816 1.868 2.398
1.762 1.846 2.346
1.75 1.866 2.334
1.737 1.886 2.321
1.247 1.376 1.844
1.221 1.372 1.819
1.212 1.387 1.81
1.204 1.401 1.802
1.195 1.416 1.793
1.186 1.43 1.785
1.177 1.445 1.776
1.173 1.465 1.772
1.165 1.48 1.764
1.161 1.501 1.76
1.151 1.515 1.751
1.142 1.529 1.741
1.137 1.55 1.737
1.127 1.563 1.728
1.118 1.577 1.718
1.113 1.598 1.713
1.103 1.612 1.704
1.093 1.624 1.694
1.087 1.645 1.688
1.077 1.658 1.678
1.072 1.679 1.673
1.081 1.724 1.682
1.065 1.729 1.667
1.042 1.721 1.644
1.032 1.735 1.634
1.026 1.756 1.629
1.019 1.776 1.622
1.013 1.796 1.616
1.001 1.808 1.605
0.995 1.829 1.598
0.988 1.849 1.591
0.975 1.859 1.579
0.969 1.881 1.573
0.961 1.901 1.566
0.954 1.922 1.558
0.947 1.944 1.552
0.931 1.948 1.536
0.903 1.926 1.509
0.879 1.909 1.485
0.851 1.885 1.459
0.828 1.869 1.436
0.805 1.852 1.413
0.783 1.838 1.392
0.672 1.607 1.284
0.667 1.627 1.279
0.663 1.65 1.275
0.64 1.627 1.253
0.613 1.59 1.227
0.587 1.554 1.201
0.569 1.54 1.184
0.55 1.52 1.165
0.537 1.515 1.152
0.517 1.492 1.133
0.383 1.123 1.002
0.319 0.953 0.94
0.306 0.935 0.927
0.298 0.933 0.92
0.289 0.926 0.911
0.279 0.915 0.901
0.271 0.911 0.894
0.263 0.904 0.885
0.254 0.898 0.877
0.247 0.895 0.87
0.246 0.915 0.869
0.24 0.918 0.864
0.234 0.918 0.857
0.227 0.917 0.851
0.217 0.901 0.841
0.219 0.935 0.842
0 0 0
0 0 0
0 0 0
0 0 0
0 0 0
0 0 0
0 0 0
0.188 1.048 0.812
0.18 1.045 0.805
0 0 0
0 0 0
0 0 0
0 0 0
0 0 0
0 0 0
0 0 0
0 0 0
0 0 0
0 0 0
0 0 0
0 0 0
0 0 0
0 0 0
0 0 0
0 0 0
0 0 0
0 0 0
0 0 0
0 0 0
0 0 0
0 0 0
0 0 0
0.016 0.69 0.645
0.012 0.666 0.641
0.008 0.571 0.637
0.007 -0.102 0.637
0.015 -1.196 0.644
0.021 -1.068 0.65
0.027 -1.082 0.657
0.034 -1.078 0.663
0.041 -1.076 0.67
0 0 0
0.076 -1.578 0.705
0.087 -1.606 0.716
0.094 -1.558 0.723
0.087 -1.286 0.716
0.088 -1.183 0.717
0.092 -1.136 0.721
0.096 -1.101 0.725
0.102 -1.085 0.73
0.107 -1.061 0.735
0.115 -1.073 0.743
0.122 -1.076 0.75
0.108 -0.891 0.736
0.102 -0.795 0.73
0.122 -0.912 0.75
0.122 -0.871 0.75
0.121 -0.825 0.749
0.123 -0.798 0.751
0.126 -0.787 0.754
0.131 -0.788 0.76
0.137 -0.787 0.765
0.141 -0.784 0.769
0.146 -0.78 0.773
0.15 -0.775 0.778
0.154 -0.772 0.782
0.16 -0.775 0.788
0.167 -0.784 0.795
0.163 -0.74 0.791
0.181 -0.798 0.808
0.639 -2.818 1.261
0.68 -2.909 1.301
0.722 -3.002 1.343
0.766 -3.098 1.387
0.812 -3.194 1.432
0.864 -3.311 1.484
0.918 -3.424 1.537
0.981 -3.565 1.599
1.045 -3.703 1.662
0.665 -2.288 1.287
0.662 -2.223 1.284
0.677 -2.218 1.299
0.688 -2.2 1.309
0.701 -2.193 1.323
0.715 -2.184 1.336
0.729 -2.177 1.35
0.742 -2.166 1.363
0.756 -2.159 1.377
0.769 -2.15 1.39
0.783 -2.14 1.403
0.796 -2.131 1.417
0.809 -2.119 1.429
0.822 -2.109 1.442
0.835 -2.101 1.455
0.86 -2.118 1.479
1.038 -2.511 1.656
1.047 -2.482 1.665
2.507 -5.851 3.108
2.528 -5.785 3.129
1.153 -2.579 1.77
3.013 -6.634 3.608
3.053 -6.595 3.648
3.098 -6.566 3.692
3.143 -6.537 3.737
3.183 -6.498 3.777
3.228 -6.467 3.82
3.268 -6.427 3.86
3.312 -6.395 3.903
3.356 -6.363 3.947
3.399 -6.329 3.99
3.442 -6.295 4.033
3.481 -6.253 4.071
3.529 -6.226 4.119
3.572 -6.191 4.161
3.615 -6.154 4.204
3.658 -6.118 4.246
3.705 -6.089 4.293
3.747 -6.05 4.334
3.794 -6.019 4.381
3.836 -5.98 4.422
3.878 -5.94 4.464
3.925 -5.907 4.51
3.971 -5.873 4.555
4.018 -5.84 4.601
4.058 -5.797 4.642
4.109 -5.768 4.692
4.156 -5.733 4.738
4.196 -5.688 4.778
4.248 -5.659 4.829
4.293 -5.62 4.874
4.329 -5.569 4.909
4.342 -5.489 4.923
4.268 -5.301 4.849
4.308 -5.258 4.889
4.34 -5.204 4.921
4.377 -5.156 4.957
4.362 -5.048 4.942
4.37 -4.968 4.95
4.348 -4.855 4.928
4.366 -4.789 4.946
4.346 -4.681 4.926
4.364 -4.617 4.944
4.343 -4.512 4.923
4.366 -4.453 4.946
4.352 -4.358 4.932
4.37 -4.296 4.95
4.343 -4.19 4.923
4.363 -4.131 4.943
4.347 -4.04 4.928
4.361 -3.976 4.941
4.348 -3.888 4.928
4.353 -3.819 4.933
4.333 -3.728 4.913
4.35 -3.67 4.931
4.335 -3.585 4.915
4.358 -3.532 4.938
4.334 -3.443 4.915
4.349 -3.384 4.929
4.327 -3.298 4.907
4.347 -3.245 4.927
4.335 -3.168 4.915
4.354 -3.114 4.934
4.342 -3.039 4.922
4.36 -2.985 4.94
4.344 -2.909 4.925
4.354 -2.851 4.935
4.325 -2.767 4.905
4.392 -2.745 4.971
4.409 -2.691 4.988
4.432 -2.641 5.011
4.418 -2.569 4.997
4.395 -2.493 4.974
4.364 -2.413 4.944
4.358 -2.349 4.939
4.404 -2.312 4.984
4.414 -2.255 4.993
4.348 -2.161 4.928
4.362 -2.109 4.942
4.348 -2.042 4.928
4.368 -1.992 4.948
4.352 -1.926 4.932
4.364 -1.873 4.944
4.354 -1.811 4.934
4.379 -1.763 4.959
4.36 -1.697 4.94
4.381 -1.648 4.961
4.367 -1.586 4.947
4.382 -1.534 4.962
4.363 -1.47 4.943
4.373 -1.417 4.952
4.358 -1.356 4.938
4.374 -1.305 4.953
4.351 -1.243 4.932
4.367 -1.192 4.947
4.346 -1.131 4.926
4.359 -1.079 4.939
4.345 -1.021 4.925
4.366 -0.971 4.946
4.35 -0.913 4.93
4.371 -0.862 4.95
4.358 -0.805 4.938
4.371 -0.753 4.951
4.353 -0.696 4.933
4.372 -0.645 4.952
4.348 -0.588 4.928
4.368 -0.537 4.948
4.349 -0.48 4.929
4.356 -0.428 4.936
4.345 -0.373 4.925
4.361 -0.321 4.941
4.353 -0.267 4.933
4.721 -0.231 5.297
4.71 -0.173 5.286
4.679 -0.115 5.256
4.642 -0.057 5.219
4.611 -0 5.188
4.592 0.056 5.169
4.575 0.112 5.152
4.551 0.167 5.129
4.52 0.222 5.098
4.496 0.276 5.074
4.469 0.329 5.048
4.445 0.382 5.024
4.413 0.433 4.992
4.396 0.486 4.975
4.372 0.537 4.952
4.354 0.589 4.934
4.33 0.639 4.91
4.304 0.688 4.885
4.28 0.738 4.861
4.257 0.787 4.838
4.239 0.836 4.82
4.22 0.885 4.802
4.195 0.933 4.777
4.175 0.981 4.757
4.153 1.028 4.736
4.132 1.075 4.715
4.118 1.124 4.701
4.103 1.172 4.686
4.074 1.215 4.657
4.049 1.26 4.633
4.032 1.307 4.615
4.01 1.351 4.594
3.983 1.394 4.567
3.969 1.441 4.553
3.947 1.484 4.531
3.926 1.528 4.511
3.911 1.574 4.496
3.888 1.617 4.474
3.864 1.658 4.45
3.849 1.703 4.435
3.826 1.745 4.412
3.809 1.789 4.395
3.786 1.83 4.373
3.775 1.876 4.361
3.75 1.916 4.337
3.732 1.958 4.319
3.712 2 4.3
3.693 2.041 4.28
3.675 2.084 4.262
3.656 2.125 4.244
3.637 2.167 4.225
3.617 2.207 4.205
3.598 2.248 4.187
3.584 2.292 4.173
3.563 2.332 4.152
3.543 2.371 4.132
3.526 2.413 4.115
3.511 2.456 4.1
3.481 2.489 4.071
3.47 2.535 4.06
3.447 2.572 4.038
3.432 2.615 4.023
3.418 2.659 4.009
3.403 2.702 3.994
3.386 2.743 3.977
3.367 2.783 3.959
3.346 2.821 3.937
3.326 2.86 3.918
3.307 2.899 3.899
3.289 2.94 3.881
3.271 2.98 3.863
3.253 3.021 3.845
3.229 3.055 3.821
3.215 3.101 3.808
3.196 3.14 3.789
3.176 3.179 3.77
1.776 1.807 2.386
1.8 1.865 2.409
1.749 1.845 2.358
1.737 1.866 2.347
1.73 1.893 2.34
1.238 1.377 1.854
1.212 1.372 1.828
1.204 1.387 1.819
1.194 1.401 1.81
1.186 1.416 1.802
1.177 1.43 1.793
1.173 1.45 1.789
1.165 1.465 1.781
1.155 1.48 1.772
1.152 1.501 1.768
1.142 1.514 1.759
1.133 1.529 1.75
1.129 1.55 1.745
1.119 1.563 1.736
1.114 1.584 1.731
1.104 1.598 1.721
1.094 1.611 1.712
1.089 1.632 1.706
1.079 1.645 1.696
1.069 1.658 1.686
1.064 1.679 1.681
1.082 1.739 1.699
1.058 1.729 1.675
1.034 1.721 1.652
1.028 1.742 1.646
1.017 1.753 1.635
1.01 1.773 1.628
1.004 1.794 1.622
0.997 1.814 1.616
0.986 1.826 1.604
0.984 1.856 1.602
0.972 1.867 1.591
0.964 1.885 1.582
0.953 1.899 1.571
0.946 1.92 1.565
0.939 1.942 1.558
0.922 1.944 1.541
0.897 1.926 1.516
0.868 1.9 1.488
0.845 1.885 1.465
0.818 1.86 1.438
0.799 1.852 1.419
0.771 1.823 1.392
0.674 1.624 1.296
0.676 1.663 1.298
0 0 0
0.635 1.627 1.258
0.613 1.601 1.235
0.586 1.563 1.209
0.565 1.538 1.188
0.547 1.523 1.171
0.53 1.506 1.153
0.514 1.495 1.138
0.369 1.092 0.995
0.316 0.954 0.942
0.303 0.935 0.93
0.297 0.936 0.923
0.289 0.934 0.916
0.277 0.916 0.904
0.268 0.909 0.895
0.261 0.904 0.887
0.252 0.898 0.879
0.245 0.895 0.872
0.242 0.907 0.869
0.238 0.917 0.865
0.232 0.918 0.859
0.225 0.915 0.852
0.217 0.908 0.844
0.219 0.945 0.846
0 0 0
0 0 0
0 0 0
0 0 0
0 0 0
0 0 0
0 0 0
0 0 0
0 0 0
0 0 0
0 0 0
0 0 0
0 0 0
0 0 0
0 0 0
0 0 0
0 0 0
0 0 0
0 0 0
0 0 0
0 0 0
0 0 0
0 0 0
0 0 0
0 0 0
0 0 0
0.049 0.846 0.678
0 0 0
0 0 0
0 0 0
0 0 0
0 0 0
0.016 0.693 0.645
0.011 0.674 0.641
0.007 0.583 0.637
0.007 -0.109 0.637
0.014 -1.193 0.644
0.02 -1.068 0.65
0.027 -1.08 0.657
0.034 -1.088 0.664
0.04 -1.074 0.67
0 0 0
0.075 -1.572 0.705
0.087 -1.606 0.716
0.09 -1.49 0.72
0.085 -1.261 0.715
0.087 -1.171 0.716
0.091 -1.131 0.721
0.095 -1.093 0.725
0.1 -1.069 0.73
0.106 -1.065 0.736
0.113 -1.069 0.743
0.119 -1.062 0.749
0.102 -0.846 0.731
0.101 -0.791 0.73
0.118 -0.891 0.748
0.119 -0.855 0.749
0.118 -0.81 0.748
0.121 -0.79 0.75
0.126 -0.788 0.755
0.131 -0.789 0.76
0.136 -0.786 0.765
0.14 -0.784 0.77
0.145 -0.779 0.774
0.15 -0.783 0.78
0.155 -0.78 0.785
0.158 -0.769 0.787
0.166 -0.782 0.795
0.165 -0.755 0.795
0.599 -2.734 1.227
0.636 -2.819 1.265
0.674 -2.903 1.303
0.715 -2.988 1.343
0.758 -3.083 1.387
0.806 -3.187 1.434
0.855 -3.294 1.484
0.913 -3.424 1.541
0.973 -3.557 1.602
1.037 -3.694 1.665
0.662 -2.289 1.29
0.662 -2.235 1.291
0.673 -2.217 1.302
0.687 -2.21 1.316
0.698 -2.192 1.326
0.71 -2.181 1.339
0.725 -2.177 1.354
0.738 -2.166 1.367
0.752 -2.157 1.38
0.765 -2.148 1.393
0.778 -2.138 1.407
0.791 -2.129 1.42
0.804 -2.119 1.433
0.817 -2.108 1.446
0.83 -2.099 1.459
0.853 -2.114 1.482
1.029 -2.501 1.657
1.037 -2.47 1.665
2.498 -5.858 3.124
2.521 -5.797 3.147
2.543 -5.736 3.17
2.757 -6.1 3.383
3.042 -6.604 3.667
3.082 -6.566 3.708
3.127 -6.537 3.752
3.167 -6.498 3.793
3.211 -6.467 3.837
3.255 -6.436 3.88
3.295 -6.395 3.92
3.338 -6.363 3.964
3.382 -6.329 4.007
3.425 -6.295 4.05
3.469 -6.262 4.094
3.512 -6.226 4.136
3.554 -6.19 4.179
3.596 -6.154 4.221
3.644 -6.125 4.269
3.686 -6.088 4.311
3.733 -6.057 4.358
3.775 -6.019 4.4
3.817 -5.98 4.442
3.863 -5.948 4.488
3.905 -5.907 4.529
3.95 -5.873 4.575
3.997 -5.839 4.621
4.043 -5.804 4.667
4.088 -5.768 4.712
4.135 -5.733 4.759
4.18 -5.695 4.804
4.225 -5.657 4.849
4.264 -5.609 4.887
4.276 -5.528 4.9
4.291 -5.451 4.915
4.247 -5.301 4.871
4.277 -5.246 4.901
4.285 -5.164 4.909
4.298 -5.089 4.922
4.285 -4.984 4.909
4.297 -4.909 4.921
4.278 -4.801 4.902
4.29 -4.73 4.914
4.271 -4.624 4.895
4.289 -4.56 4.913
4.277 -4.465 4.9
4.298 -4.405 4.921
4.276 -4.303 4.9
4.284 -4.232 4.907
4.269 -4.139 4.893
4.288 -4.081 4.912
4.27 -3.988 4.894
4.287 -3.928 4.911
4.266 -3.835 4.89
4.289 -3.782 4.913
4.262 -3.685 4.886
4.278 -3.626 4.901
4.276 -3.554 4.9
4.289 -3.493 4.912
4.267 -3.406 4.891
4.279 -3.346 4.902
4.261 -3.264 4.885
4.275 -3.207 4.899
4.264 -3.132 4.888
4.283 -3.079 4.907
4.269 -3.003 4.893
4.286 -2.949 4.91
4.268 -2.872 4.891
4.286 -2.82 4.91
4.266 -2.743 4.89
4.259 -2.675 4.882
4.257 -2.611 4.881
4.357 -2.61 4.981
4.343 -2.538 4.966
4.367 -2.49 4.991
4.334 -2.409 4.958
4.315 -2.337 4.939
4.27 -2.253 4.894
4.282 -2.199 4.906
4.278 -2.137 4.902
4.292 -2.085 4.916
4.279 -2.02 4.903
4.292 -1.968 4.916
4.283 -1.905 4.907
4.294 -1.852 4.918
4.285 -1.791 4.909
4.302 -1.74 4.926
4.292 -1.679 4.916
4.305 -1.627 4.929
4.291 -1.566 4.915
4.315 -1.518 4.938
4.293 -1.454 4.917
4.306 -1.403 4.93
4.285 -1.34 4.909
4.294 -1.288 4.918
4.28 -1.229 4.904
4.295 -1.178 4.919
4.282 -1.12 4.906
4.295 -1.068 4.919
4.282 -1.011 4.905
4.302 -0.961 4.926
4.286 -0.904 4.91
4.305 -0.854 4.928
4.279 -0.795 4.903
4.296 -0.744 4.92
4.282 -0.688 4.905
4.293 -0.637 4.917
4.276 -0.581 4.9
4.286 -0.529 4.91
4.275 -0.475 4.899
4.29 -0.423 4.914
4.278 -0.369 4.902
4.283 -0.317 4.907
4.269 -0.263 4.893
4.283 -0.211 4.907
4.29 -0.159 4.914
4.671 -0.115 5.294
4.625 -0.057 5.248
4.599 -0 5.222
4.577 0.056 5.2
4.543 0.112 5.167
4.522 0.167 5.146
4.506 0.222 5.13
4.488 0.277 5.112
4.452 0.329 5.076
4.428 0.382 5.052
4.395 0.434 5.019
4.381 0.486 5.004
4.357 0.538 4.981
4.332 0.589 4.956
4.315 0.64 4.938
4.289 0.69 4.913
4.263 0.739 4.887
4.245 0.789 4.869
4.219 0.837 4.843
4.201 0.886 4.825
4.179 0.934 4.803
4.16 0.982 4.784
4.141 1.03 4.765
4.12 1.077 4.744
4.098 1.124 4.722
4.086 1.173 4.71
4.066 1.219 4.69
4.05 1.267 4.675
4.022 1.31 4.646
4 1.355 4.624
3.975 1.398 4.6
3.956 1.443 4.58
3.928 1.485 4.552
3.913 1.531 4.537
3.892 1.574 4.517
3.869 1.617 4.493
3.852 1.661 4.476
3.83 1.703 4.455
3.813 1.748 4.438
3.796 1.792 4.42
3.774 1.833 4.399
3.756 1.876 4.381
3.738 1.919 4.363
3.721 1.962 4.345
3.701 2.004 4.326
3.682 2.046 4.307
3.656 2.084 4.281
3.643 2.128 4.268
3.625 2.171 4.25
3.605 2.211 4.23
3.586 2.252 4.211
3.566 2.292 4.191
3.552 2.336 4.176
3.531 2.376 4.156
3.515 2.418 4.139
3.499 2.461 4.124
3.47 2.493 4.095
3.458 2.539 4.083
3.438 2.578 4.063
3.422 2.62 4.047
3.399 2.657 4.024
3.382 2.698 4.007
3.369 2.743 3.994
3.352 2.784 3.977
3.337 2.828 3.962
3.318 2.867 3.943
3.292 2.901 3.918
3.274 2.941 3.899
3.254 2.98 3.88
3.237 3.021 3.862
3.218 3.061 3.844
3.199 3.101 3.825
3.18 3.14 3.805
3.166 3.185 3.792
1.763 1.803 2.39
1.754 1.827 2.381
1.74 1.845 2.367
1.728 1.866 2.355
1.727 1.899 2.355
1.24 1.386 1.868
1.206 1.372 1.834
1.197 1.387 1.825
1.188 1.401 1.816
1.18 1.416 1.808
1.177 1.437 1.805
1.167 1.45 1.795
1.158 1.465 1.786
1.15 1.48 1.778
1.146 1.5 1.774
1.137 1.515 1.765
1.127 1.529 1.756
1.123 1.55 1.751
1.113 1.563 1.742
1.109 1.584 1.737
1.099 1.598 1.727
1.088 1.61 1.717
1.084 1.632 1.712
1.074 1.645 1.702
1.069 1.666 1.697
1.058 1.679 1.687
1.077 1.739 1.705
1.053 1.73 1.681
1.028 1.72 1.656
1.022 1.741 1.651
1.012 1.753 1.64
1.005 1.773 1.634
0.998 1.792 1.626
0.992 1.814 1.621
0.985 1.834 1.614
0.973 1.844 1.601
0.966 1.866 1.595
0.96 1.887 1.588
0.948 1.899 1.576
0.941 1.92 1.569
0.934 1.942 1.563
0.917 1.943 1.545
0.892 1.926 1.52
0.864 1.9 1.492
0.841 1.885 1.469
0.818 1.869 1.446
0.794 1.851 1.423
0.764 1.816 1.393
0.668 1.619 1.297
0 0 0
0.653 1.647 1.282
0.642 1.653 1.271
0.598 1.572 1.227
0.579 1.551 1.207
0.564 1.544 1.193
0.544 1.523 1.173
0.528 1.508 1.157
0.512 1.495 1.141
0.362 1.077 0.992
0.315 0.955 0.944
0.3 0.93 0.929
0.294 0.932 0.923
0.288 0.935 0.917
0.276 0.917 0.905
0.267 0.91 0.896
0.259 0.903 0.888
0.251 0.896 0.88
0.243 0.89 0.872
0.243 0.917 0.873
0.237 0.917 0.866
0.231 0.918 0.86
0.223 0.912 0.852
0.215 0.904 0.844
0.224 0.974 0.854
0 0 0
0 0 0
0 0 0
0 0 0
0 0 0
0 0 0
0 0 0
0 0 0
0 0 0
0 0 0
0 0 0
0 0 0
0 0 0
0 0 0
0 0 0
0 0 0
0 0 0
0 0 0
0 0 0
0 0 0
0 0 0
0 0 0
0 0 0
0 0 0
0 0 0
0 0 0
0 0 0
0.044 0.846 0.673
0 0 0
0 0 0
0 0 0
0 0 0
0.016 0.693 0.645
0.011 0.661 0.641
0.007 0.593 0.637
0.007 -0.093 0.637
0.014 -1.185 0.644
0.02 -1.068 0.65
0.027 -1.079 0.657
0.034 -1.087 0.664
0.04 -1.069 0.67
0 0 0
0.074 -1.572 0.705
0.086 -1.603 0.717
0.083 -1.382 0.714
0.082 -1.228 0.713
0.086 -1.164 0.717
0.09 -1.124 0.721
0.095 -1.097 0.726
0.099 -1.064 0.73
0.106 -1.069 0.737
0.111 -1.058 0.743
0.118 -1.059 0.749
0.097 -0.811 0.728
0.114 -0.908 0.745
0.117 -0.889 0.748
0.116 -0.835 0.747
0.117 -0.808 0.749
0.121 -0.798 0.752
0.125 -0.788 0.756
0.13 -0.788 0.761
0.134 -0.786 0.766
0.139 -0.783 0.771
0.143 -0.777 0.775
0.15 -0.789 0.782
0.152 -0.774 0.784
0.157 -0.77 0.789
0.169 -0.807 0.802
0.559 -2.656 1.197
0.595 -2.737 1.232
0.63 -2.813 1.268
0.666 -2.888 1.305
0.709 -2.985 1.348
0.751 -3.078 1.391
0.798 -3.179 1.438
0.847 -3.286 1.488
0.901 -3.405 1.543
0.963 -3.548 1.606
1.026 -3.684 1.67
0.657 -2.29 1.295
0.654 -2.225 1.293
0.668 -2.217 1.306
0.682 -2.21 1.321
0.692 -2.19 1.331
0.706 -2.183 1.345
0.719 -2.175 1.359
0.733 -2.166 1.372
0.746 -2.157 1.386
0.759 -2.148 1.399
0.772 -2.138 1.412
0.785 -2.128 1.425
0.798 -2.118 1.438
0.811 -2.108 1.452
0.824 -2.098 1.465
0.844 -2.107 1.485
1.013 -2.482 1.657
1.036 -2.487 1.679
2.481 -5.862 3.144
2.502 -5.797 3.165
2.527 -5.742 3.191
2.682 -5.977 3.347
3.019 -6.604 3.689
3.064 -6.575 3.734
3.104 -6.537 3.775
3.148 -6.506 3.819
3.188 -6.467 3.86
3.231 -6.436 3.904
3.275 -6.403 3.948
3.318 -6.371 3.992
3.357 -6.329 4.031
3.4 -6.295 4.075
3.443 -6.262 4.119
3.486 -6.226 4.162
3.528 -6.19 4.204
3.575 -6.162 4.252
3.617 -6.125 4.295
3.659 -6.088 4.337
3.706 -6.057 4.384
3.748 -6.019 4.427
3.794 -5.988 4.474
3.835 -5.948 4.516
3.881 -5.914 4.562
3.927 -5.881 4.609
3.973 -5.846 4.655
4.018 -5.811 4.701
4.064 -5.776 4.747
4.105 -5.733 4.789
4.149 -5.694 4.833
4.184 -5.643 4.869
4.213 -5.584 4.898
4.194 -5.461 4.879
4.21 -5.388 4.896
4.191 -5.27 4.876
4.22 -5.214 4.905
4.203 -5.102 4.888
4.221 -5.034 4.907
4.201 -4.922 4.886
4.225 -4.862 4.91
4.199 -4.747 4.884
4.21 -4.675 4.896
4.196 -4.576 4.881
4.217 -4.517 4.903
4.199 -4.416 4.884
4.213 -4.351 4.899
4.186 -4.244 4.871
4.2 -4.18 4.885
4.185 -4.088 4.87
4.202 -4.028 4.887
4.185 -3.936 4.87
4.203 -3.879 4.889
4.191 -3.794 4.876
4.205 -3.735 4.891
4.184 -3.644 4.869
4.202 -3.589 4.888
4.191 -3.509 4.876
4.211 -3.455 4.896
4.191 -3.37 4.876
4.201 -3.31 4.887
4.185 -3.229 4.87
4.202 -3.175 4.887
4.19 -3.1 4.875
4.208 -3.047 4.893
4.187 -2.967 4.872
4.205 -2.915 4.891
4.189 -2.84 4.874
4.206 -2.788 4.891
4.194 -2.717 4.879
4.21 -2.664 4.895
4.193 -2.591 4.879
4.196 -2.532 4.881
4.219 -2.484 4.905
4.274 -2.454 4.96
4.237 -2.372 4.923
4.264 -2.326 4.95
4.193 -2.228 4.878
4.213 -2.179 4.898
4.196 -2.112 4.882
4.215 -2.063 4.901
4.194 -1.995 4.879
4.213 -1.946 4.898
4.197 -1.881 4.883
4.215 -1.832 4.901
4.206 -1.771 4.891
4.224 -1.721 4.909
4.213 -1.66 4.898
4.227 -1.61 4.912
4.209 -1.547 4.894
4.223 -1.497 4.909
4.208 -1.436 4.893
4.228 -1.387 4.913
4.218 -1.329 4.904
4.228 -1.277 4.914
4.209 -1.217 4.894
4.222 -1.166 4.908
4.201 -1.107 4.887
4.214 -1.056 4.9
4.201 -0.999 4.886
4.22 -0.95 4.906
4.208 -0.894 4.893
4.223 -0.844 4.909
4.198 -0.786 4.883
4.218 -0.736 4.904
4.196 -0.679 4.881
4.214 -0.629 4.899
4.19 -0.573 4.875
4.213 -0.524 4.899
4.197 -0.469 4.882
4.213 -0.419 4.898
4.201 -0.365 4.886
4.216 -0.314 4.901
4.202 -0.261 4.887
4.207 -0.209 4.892
4.192 -0.156 4.877
4.219 -0.105 4.904
4.205 -0.052 4.891
4.543 -0 5.233
4.536 0.056 5.226
4.519 0.112 5.209
4.498 0.167 5.187
4.474 0.222 5.163
4.444 0.276 5.133
4.421 0.329 5.109
4.402 0.383 5.09
4.384 0.436 5.072
4.354 0.487 5.042
4.334 0.539 5.021
4.311 0.59 4.997
4.289 0.641 4.976
4.264 0.69 4.95
4.238 0.74 4.924
4.221 0.79 4.907
4.195 0.838 4.88
4.17 0.886 4.855
4.152 0.935 4.836
4.133 0.983 4.817
4.115 1.031 4.8
4.096 1.079 4.78
4.075 1.126 4.758
4.065 1.175 4.749
4.04 1.22 4.723
4.026 1.268 4.709
4 1.312 4.683
3.985 1.36 4.667
3.95 1.4 4.632
3.929 1.444 4.611
3.905 1.487 4.586
3.891 1.533 4.572
3.869 1.576 4.549
3.848 1.62 4.529
3.83 1.664 4.51
3.808 1.706 4.488
3.792 1.751 4.471
3.767 1.791 4.447
3.752 1.836 4.431
3.736 1.88 4.415
3.717 1.922 4.396
3.693 1.962 4.371
3.674 2.004 4.352
3.656 2.046 4.334
3.635 2.087 4.313
3.622 2.132 4.3
3.598 2.17 4.275
3.585 2.215 4.262
3.566 2.256 4.243
3.546 2.296 4.223
3.526 2.336 4.203
3.512 2.38 4.189
3.495 2.422 4.17
3.473 2.46 4.148
3.45 2.497 4.125
3.438 2.542 4.113
3.418 2.582 4.093
3.396 2.62 4.071
3.38 2.662 4.054
3.365 2.704 4.039
3.341 2.74 4.015
3.324 2.781 3.997
3.308 2.824 3.982
3.291 2.865 3.964
3.275 2.907 3.948
3.256 2.947 3.929
3.238 2.987 3.911
3.22 3.028 3.893
3.201 3.067 3.873
3.183 3.107 3.855
3.162 3.145 3.834
3.143 3.185 3.814
1.743 1.796 2.396
1.744 1.83 2.397
1.727 1.845 2.38
1.721 1.873 2.374
1.715 1.899 2.367
1.237 1.393 1.883
1.197 1.372 1.843
1.188 1.386 1.833
1.18 1.401 1.825
1.177 1.422 1.822
1.168 1.437 1.813
1.159 1.451 1.804
1.15 1.465 1.795
1.147 1.487 1.792
1.138 1.501 1.782
1.128 1.515 1.773
1.124 1.535 1.768
1.115 1.55 1.759
1.105 1.563 1.75
1.1 1.584 1.745
1.091 1.598 1.735
1.086 1.618 1.73
1.076 1.632 1.72
1.066 1.645 1.71
1.061 1.666 1.705
1.05 1.679 1.694
1.074 1.747 1.718
1.04 1.722 1.683
1.025 1.728 1.669
1.014 1.739 1.657
1.009 1.762 1.652
1.001 1.78 1.644
0.991 1.794 1.634
0.985 1.815 1.628
0.978 1.834 1.621
0.966 1.845 1.608
0.959 1.866 1.602
0.952 1.885 1.594
0.945 1.908 1.588
0.937 1.928 1.58
0.927 1.942 1.569
0.91 1.943 1.552
0.885 1.926 1.527
0.857 1.9 1.498
0.834 1.884 1.475
0.808 1.86 1.448
0.788 1.851 1.429
0.75 1.796 1.39
0.669 1.632 1.308
0 0 0
0.666 1.694 1.305
0.624 1.618 1.262
0.607 1.606 1.245
0.581 1.569 1.218
0.562 1.55 1.199
0.543 1.532 1.18
0.527 1.517 1.163
0.507 1.493 1.144
0.356 1.065 0.99
0.31 0.948 0.944
0.299 0.935 0.933
0.292 0.934 0.926
0.284 0.928 0.917
0.274 0.919 0.908
0.264 0.908 0.898
0.257 0.903 0.89
0.249 0.896 0.882
0.243 0.9 0.876
0.239 0.91 0.872
0.237 0.927 0.87
0.229 0.917 0.862
0.221 0.909 0.853
0.206 0.874 0.839
0.219 0.958 0.852
0 0 0
0 0 0
0 0 0
0 0 0
0 0 0
0 0 0
0 0 0
0 0 0
0 0 0
0 0 0
0 0 0
0 0 0
0 0 0
0 0 0
0 0 0
0 0 0
0 0 0
0 0 0
0 0 0
0 0 0
0 0 0
0 0 0
0 0 0
0 0 0
0 0 0
0 0 0
0 0 0
0.043 0.836 0.673
0 0 0
0 0 0
0 0 0
0 0 0
0.015 0.69 0.645
0.011 0.662 0.641
0.007 0.58 0.637
0.007 -0.102 0.637
0.014 -1.196 0.644
0.02 -1.068 0.65
0.026 -1.078 0.657
0.033 -1.088 0.664
0.039 -1.069 0.67
0 0 0
0.074 -1.568 0.705
0.084 -1.592 0.716
0.079 -1.311 0.711
0.081 -1.218 0.713
0.084 -1.148 0.716
0.088 -1.111 0.72
0.093 -1.09 0.726
0.097 -1.047 0.729
0.105 -1.069 0.737
0.111 -1.064 0.744
0.116 -1.044 0.748
0.096 -0.811 0.729
0.113 -0.907 0.745
0.115 -0.878 0.748
0.114 -0.825 0.746
0.115 -0.798 0.748
0.12 -0.799 0.753
0.124 -0.788 0.757
0.129 -0.787 0.762
0.133 -0.785 0.767
0.137 -0.78 0.771
0.143 -0.785 0.777
0.147 -0.777 0.781
0.147 -0.748 0.78
0.155 -0.767 0.789
0.167 -0.802 0.801
0.555 -2.648 1.198
0.591 -2.737 1.235
0.625 -2.807 1.27
0.662 -2.885 1.307
0.701 -2.97 1.348
0.745 -3.069 1.393
0.794 -3.18 1.442
0.84 -3.277 1.49
0.894 -3.397 1.545
0.953 -3.528 1.605
1.018 -3.674 1.672
0.654 -2.293 1.299
0.653 -2.233 1.298
0.664 -2.217 1.31
0.677 -2.206 1.323
0.691 -2.2 1.337
0.701 -2.181 1.348
0.715 -2.174 1.362
0.729 -2.166 1.376
0.742 -2.157 1.389
0.755 -2.147 1.402
0.768 -2.138 1.416
0.781 -2.129 1.429
0.794 -2.118 1.442
0.807 -2.108 1.456
0.82 -2.099 1.469
0.84 -2.108 1.49
1.009 -2.484 1.663
1.023 -2.468 1.677
2.471 -5.869 3.159
2.495 -5.811 3.184
2.514 -5.742 3.203
2.637 -5.907 3.328
3.008 -6.613 3.708
3.048 -6.575 3.75
3.088 -6.537 3.791
3.132 -6.506 3.835
3.175 -6.475 3.88
3.215 -6.436 3.92
3.258 -6.403 3.964
3.301 -6.371 4.008
3.344 -6.337 4.052
3.387 -6.304 4.097
3.43 -6.269 4.14
3.472 -6.234 4.184
3.51 -6.19 4.222
3.557 -6.162 4.27
3.599 -6.125 4.313
3.645 -6.095 4.36
3.687 -6.057 4.403
3.733 -6.027 4.451
3.774 -5.988 4.493
3.82 -5.955 4.54
3.866 -5.922 4.587
3.912 -5.888 4.633
3.952 -5.846 4.675
3.997 -5.811 4.721
4.043 -5.776 4.768
4.087 -5.738 4.813
4.124 -5.689 4.851
4.131 -5.6 4.857
4.14 -5.515 4.867
4.123 -5.397 4.849
4.141 -5.326 4.868
4.134 -5.225 4.861
4.151 -5.155 4.878
4.129 -5.038 4.856
4.149 -4.974 4.877
4.134 -4.868 4.861
4.151 -4.802 4.879
4.138 -4.702 4.865
4.146 -4.628 4.874
4.135 -4.532 4.861
4.145 -4.462 4.872
4.124 -4.359 4.851
4.139 -4.296 4.866
4.118 -4.196 4.844
4.132 -4.133 4.859
4.114 -4.04 4.841
4.134 -3.984 4.861
4.111 -3.887 4.838
4.134 -3.835 4.861
4.12 -3.75 4.847
4.131 -3.687 4.857
4.115 -3.603 4.842
