# .PCD v0.7 - Point Cloud Data file format
VERSION 0.7
FIELDS x y z
SIZE 4 4 4
TYPE F F F
COUNT 1 1 1
WIDTH 2538
HEIGHT 1
VIEWPOINT 0 0 0 1 0 0 0
POINTS 2538
DATA ascii
1.329 -0.087 0.013
1.32 -0.074 0.017
1.323 -0.062 0.016
1.328 -0.05 0.014
1.325 -0.037 0.015
1.326 -0.025 0.014
1.327 -0.012 0.014
1.333 -0 0.011
1.33 0.012 0.013
1.319 0.025 0.018
1.323 0.037 0.016
1.328 0.05 0.014
1.324 0.062 0.016
1.322 0.074 0.016
1.33 0.087 0.013
1.319 0.099 0.018
1.326 0.112 0.014
1.321 0.124 0.017
1.326 0.137 0.014
1.33 0.15 0.013
1.326 0.162 0.015
1.321 0.174 0.017
1.323 0.186 0.016
1.325 0.199 0.015
1.328 0.212 0.014
1.324 0.224 0.015
1.319 0.236 0.018
1.335 0.252 0.01
1.33 0.264 0.013
1.333 0.277 0.011
1.34 0.292 0.008
1.337 0.304 0.01
1.329 0.315 0.013
1.329 0.328 0.013
1.34 0.344 0.008
1.337 0.357 0.01
1.339 0.371 0.008
1.337 0.383 0.009
1.342 0.398 0.007
1.335 0.41 0.01
1.337 0.424 0.009
1.334 0.436 0.011
1.332 0.449 0.012
1.327 0.461 0.014
1.327 0.475 0.014
1.336 0.492 0.01
1.341 0.508 0.008
1.333 0.519 0.011
1.341 0.537 0.008
1.337 0.549 0.01
1.341 0.565 0.008
1.333 0.576 0.011
1.341 0.594 0.008
1.336 0.607 0.01
1.339 0.623 0.009
1.334 0.635 0.011
1.338 0.652 0.009
1.34 0.669 0.008
1.343 0.685 0.007
1.337 0.698 0.009
1.343 0.717 0.007
1.338 0.73 0.009
1.344 0.748 0.006
1.343 0.764 0.007
1.34 0.779 0.008
1.337 0.793 0.01
1.345 0.814 0.006
1.336 0.826 0.01
1.345 0.848 0.006
1.334 0.858 0.011
1.347 0.883 0.005
1.339 0.896 0.008
1.341 0.914 0.008
1.336 0.928 0.01
1.34 0.949 0.008
1.34 0.967 0.008
1.342 0.987 0.007
1.341 1.005 0.007
1.346 1.027 0.005
1.344 1.045 0.006
1.351 1.069 0.003
1.345 1.084 0.006
1.351 1.109 0.003
1.345 1.124 0.006
1.344 1.144 0.006
1.348 1.168 0.004
1.353 1.194 0.002
1.343 1.206 0.007
1.353 1.237 0.002
1.344 1.25 0.006
1.344 1.272 0.006
1.345 1.296 0.006
1.348 1.321 0.005
1.342 1.339 0.007
1.35 1.371 0.003
1.346 1.391 0.005
1.349 1.419 0.004
1.339 1.433 0.009
1.343 1.463 0.006
1.336 1.48 0.01
1.332 1.502 0.012
1.31 1.502 0.022
1.256 1.463 0.047
1.208 1.431 0.069
1.167 1.405 0.088
1.152 1.411 0.094
1.141 1.422 0.1
1.129 1.433 0.105
1.118 1.443 0.11
1.112 1.46 0.113
1.002 1.335 0.163
1.006 1.365 0.161
0.984 1.358 0.171
0.966 1.357 0.18
0.952 1.361 0.186
0.941 1.37 0.191
0.94 1.393 0.192
0.935 1.411 0.194
0.924 1.42 0.199
0.918 1.437 0.202
0.906 1.445 0.207
0.9 1.462 0.21
0.893 1.478 0.213
0.885 1.493 0.217
0.881 1.516 0.219
0.874 1.533 0.222
0.906 1.624 0.207
0.885 1.616 0.217
0.849 1.58 0.233
0 0 0
0 0 0
0.513 0.984 0.388
0.859 1.738 0.229
0.827 1.707 0.243
0.625 1.297 0.336
0.497 1.039 0.395
0.487 1.037 0.4
0.479 1.042 0.403
0.469 1.043 0.408
0.458 1.041 0.413
0.451 1.047 0.416
0.445 1.058 0.419
0.439 1.068 0.422
0.434 1.082 0.424
0.432 1.103 0.425
0 0 0
0 0 0
0.425 1.172 0.428
0.424 1.203 0.428
0.475 1.4 0.405
0.536 1.642 0.377
0.562 1.778 0.365
0.546 1.775 0.373
0.529 1.771 0.38
0.51 1.758 0.389
0.491 1.744 0.398
0.473 1.729 0.406
0.457 1.723 0.414
0.438 1.707 0.422
0.42 1.692 0.43
0.405 1.685 0.437
0.381 1.638 0.448
0.348 1.544 0.463
0.344 1.589 0.465
0.341 1.642 0.467
0.324 1.626 0.474
0.31 1.618 0.481
0.295 1.611 0.488
0.281 1.604 0.494
0.267 1.595 0.501
0.251 1.577 0.508
0.239 1.579 0.514
0.224 1.562 0.52
0.21 1.553 0.527
0.197 1.544 0.533
0.184 1.536 0.539
0.171 1.527 0.545
0.158 1.526 0.55
0.145 1.514 0.556
0.133 1.513 0.562
0 0 0
0.076 0.811 0.588
0.069 0.797 0.592
0.064 0.84 0.594
0.057 0.84 0.597
0.05 0.832 0.6
0.043 0.825 0.603
0.037 0.568 0.606
0.037 -0.097 0.606
0.053 -1.99 0.599
0.069 -2.012 0.592
0.085 -2.029 0.585
0.102 -2.044 0.577
0.071 -0.862 0.591
0.078 -0.865 0.588
0.086 -0.884 0.584
0.093 -0.882 0.581
0.1 -0.884 0.578
0.113 -0.949 0.572
0 0 0
0.237 -2.092 0.516
0.235 -1.909 0.517
0.251 -1.916 0.51
0.267 -1.918 0.503
0.339 -2.356 0.471
0.367 -2.419 0.458
0.392 -2.457 0.447
0.418 -2.495 0.435
0.445 -2.539 0.423
0.46 -2.502 0.416
0.469 -2.44 0.412
0 0 0
0.516 -2.474 0.391
0.568 -2.627 0.367
0.612 -2.734 0.347
0.585 -2.505 0.36
0.565 -2.323 0.369
0.573 -2.271 0.365
0.591 -2.267 0.357
0.609 -2.262 0.349
0.616 -2.216 0.346
0.634 -2.211 0.338
0.649 -2.195 0.331
0.664 -2.181 0.324
0.681 -2.175 0.316
0.698 -2.167 0.309
0.712 -2.15 0.303
0.721 -2.119 0.298
0.641 -1.82 0.335
0.609 -1.678 0.349
0.622 -1.67 0.343
0.722 -1.907 0.298
0.802 -2.078 0.262
0.824 -2.084 0.252
0.84 -2.075 0.245
0.858 -2.07 0.237
0.902 -2.131 0.217
1.029 -2.387 0.16
1.137 -2.587 0.111
1.173 -2.612 0.095
1.179 -2.569 0.092
1.14 -2.427 0.11
1.136 -2.366 0.112
1.156 -2.358 0.103
1.242 -2.485 0.064
1.339 -2.63 0.02
1.337 -2.572 0.021
1.349 -2.542 0.016
1.356 -2.506 0.013
1.363 -2.469 0.009
1.365 -2.423 0.009
1.363 -2.373 0.01
1.36 -2.323 0.011
1.365 -2.286 0.009
1.336 -2.193 0.022
1.332 -2.146 0.024
1.331 -2.103 0.024
1.331 -2.065 0.024
1.332 -2.028 0.024
1.329 -1.986 0.025
1.328 -1.949 0.025
1.338 -1.928 0.021
1.333 -1.886 0.023
1.333 -1.852 0.023
1.33 -1.815 0.025
1.336 -1.791 0.022
1.335 -1.758 0.022
1.339 -1.732 0.02
1.334 -1.695 0.023
1.337 -1.67 0.021
1.335 -1.637 0.022
1.341 -1.617 0.019
1.337 -1.583 0.021
1.345 -1.565 0.018
1.335 -1.526 0.022
1.344 -1.511 0.018
1.344 -1.484 0.018
1.347 -1.461 0.017
1.338 -1.427 0.021
1.336 -1.4 0.022
1.337 -1.377 0.021
1.341 -1.357 0.019
1.337 -1.329 0.021
1.342 -1.311 0.019
1.339 -1.286 0.02
1.341 -1.265 0.02
1.339 -1.241 0.02
1.347 -1.227 0.017
1.337 -1.196 0.021
1.351 -1.188 0.015
1.342 -1.159 0.019
1.35 -1.145 0.015
1.345 -1.121 0.017
1.346 -1.101 0.017
1.341 -1.078 0.019
1.347 -1.063 0.017
1.342 -1.04 0.019
1.345 -1.023 0.018
1.346 -1.005 0.017
1.345 -0.986 0.018
1.343 -0.966 0.018
1.346 -0.95 0.017
1.342 -0.929 0.019
1.349 -0.917 0.016
1.341 -0.893 0.02
1.342 -0.877 0.019
1.343 -0.861 0.019
1.34 -0.842 0.02
1.341 -0.825 0.02
1.348 -0.813 0.016
1.339 -0.792 0.02
1.343 -0.778 0.019
1.341 -0.761 0.019
1.346 -0.748 0.017
1.341 -0.729 0.02
1.343 -0.714 0.019
1.343 -0.698 0.019
1.345 -0.684 0.018
1.348 -0.67 0.016
1.345 -0.654 0.017
1.345 -0.639 0.018
1.345 -0.624 0.018
1.348 -0.61 0.016
1.349 -0.596 0.016
1.349 -0.581 0.016
1.35 -0.567 0.015
1.348 -0.552 0.016
1.348 -0.538 0.016
1.35 -0.524 0.016
1.354 -0.511 0.014
1.343 -0.493 0.019
1.351 -0.482 0.015
1.34 -0.464 0.02
1.348 -0.453 0.017
1.346 -0.439 0.017
1.348 -0.426 0.017
1.338 -0.409 0.021
1.338 -0.396 0.021
1.333 -0.381 0.023
1.339 -0.369 0.02
1.344 -0.357 0.018
1.338 -0.342 0.021
1.343 -0.331 0.019
1.346 -0.318 0.017
1.338 -0.303 0.021
1.344 -0.292 0.018
1.34 -0.278 0.02
1.347 -0.266 0.017
1.342 -0.252 0.019
1.346 -0.24 0.017
1.337 -0.226 0.021
1.355 -0.216 0.013
1.345 -0.202 0.018
1.343 -0.189 0.018
1.35 -0.177 0.015
1.345 -0.163 0.018
1.339 -0.15 0.02
1.344 -0.138 0.018
1.34 -0.125 0.02
1.349 -0.113 0.016
1.34 -0.1 0.02
1.339 -0.087 0.02
1.339 -0.075 0.02
1.342 -0.063 0.019
1.339 -0.05 0.02
1.344 -0.038 0.018
1.344 -0.025 0.018
1.344 -0.013 0.018
1.35 -0 0.015
1.344 0.013 0.018
1.344 0.025 0.018
1.346 0.038 0.017
1.348 0.05 0.016
1.338 0.062 0.021
1.34 0.075 0.02
1.338 0.087 0.021
1.341 0.1 0.019
1.337 0.112 0.021
1.337 0.125 0.021
1.342 0.138 0.019
1.338 0.15 0.021
1.345 0.163 0.018
1.339 0.175 0.02
1.334 0.187 0.023
1.343 0.201 0.019
1.35 0.215 0.015
1.346 0.227 0.017
1.344 0.24 0.018
1.344 0.253 0.018
1.346 0.266 0.017
1.346 0.279 0.017
1.35 0.293 0.015
1.343 0.304 0.019
1.352 0.32 0.015
1.353 0.333 0.014
1.351 0.346 0.015
1.347 0.358 0.017
1.348 0.372 0.016
1.342 0.384 0.019
1.351 0.4 0.015
1.348 0.412 0.016
1.352 0.427 0.015
1.347 0.439 0.017
1.35 0.454 0.015
1.35 0.468 0.015
1.353 0.483 0.014
1.353 0.497 0.014
1.347 0.509 0.017
1.348 0.523 0.016
1.354 0.54 0.014
1.35 0.553 0.016
1.354 0.569 0.014
1.344 0.579 0.018
1.353 0.598 0.014
1.356 0.614 0.013
1.353 0.628 0.014
1.351 0.641 0.015
1.356 0.659 0.013
1.349 0.671 0.016
1.355 0.69 0.013
1.351 0.703 0.015
1.352 0.719 0.015
1.358 0.738 0.012
1.356 0.753 0.013
1.357 0.769 0.012
1.36 0.788 0.011
1.354 0.8 0.014
1.353 0.816 0.014
1.349 0.831 0.016
1.35 0.848 0.016
1.356 0.869 0.013
1.359 0.888 0.012
1.352 0.901 0.015
1.359 0.924 0.011
1.351 0.936 0.015
1.365 0.964 0.009
1.359 0.978 0.011
1.359 0.996 0.011
1.358 1.015 0.012
1.359 1.034 0.011
1.363 1.057 0.009
1.364 1.077 0.009
1.362 1.095 0.01
1.365 1.118 0.009
1.365 1.138 0.009
1.363 1.157 0.01
1.361 1.176 0.011
1.364 1.2 0.009
1.362 1.219 0.01
1.359 1.238 0.011
1.361 1.262 0.01
1.358 1.282 0.012
1.362 1.308 0.01
1.359 1.329 0.011
1.361 1.354 0.011
1.36 1.377 0.011
1.359 1.4 0.012
1.362 1.428 0.01
1.35 1.44 0.016
1.351 1.466 0.015
1.349 1.49 0.016
1.349 1.516 0.016
1.321 1.51 0.028
1.267 1.472 0.053
1.216 1.436 0.076
1.174 1.41 0.095
1.15 1.404 0.106
1.144 1.422 0.108
1.133 1.433 0.113
1.122 1.443 0.118
1.113 1.458 0.122
1.02 1.355 0.164
0.983 1.329 0.18
0.991 1.363 0.177
0.969 1.356 0.187
0.955 1.361 0.193
0.95 1.378 0.196
0.942 1.392 0.199
0.932 1.402 0.203
0.927 1.42 0.206
0.921 1.437 0.209
0.909 1.445 0.214
0.903 1.462 0.217
0.896 1.478 0.22
0.888 1.493 0.223
0.881 1.511 0.226
0.871 1.521 0.231
0.908 1.622 0.214
0.887 1.614 0.224
0.856 1.588 0.238
0 0 0
0 0 0
0.519 0.993 0.39
0.855 1.723 0.238
0.689 1.403 0.313
0.503 1.025 0.397
0.498 1.037 0.399
0.487 1.034 0.404
0.477 1.036 0.408
0.469 1.039 0.412
0.46 1.043 0.416
0.45 1.042 0.421
0.449 1.065 0.421
0.442 1.073 0.424
0.434 1.078 0.428
0 0 0
0 0 0
0 0 0
0.428 1.179 0.43
0.453 1.289 0.419
0.488 1.437 0.403
0.564 1.727 0.369
0.567 1.788 0.368
0.55 1.784 0.376
0.531 1.771 0.384
0.512 1.758 0.393
0.493 1.744 0.401
0.474 1.729 0.41
0.458 1.723 0.417
0.439 1.707 0.425
0.424 1.702 0.432
0.406 1.685 0.44
0.382 1.638 0.451
0.355 1.573 0.463
0.349 1.608 0.466
0.342 1.642 0.469
0.325 1.626 0.477
0.31 1.618 0.483
0.296 1.611 0.49
0.282 1.604 0.496
0.267 1.596 0.503
0.253 1.587 0.509
0.238 1.57 0.516
0.224 1.562 0.522
0.211 1.553 0.528
0.197 1.544 0.534
0.184 1.536 0.54
0.171 1.527 0.546
0.159 1.526 0.552
0.146 1.516 0.557
0.133 1.508 0.563
0 0 0
0.076 0.811 0.589
0.069 0.797 0.592
0.064 0.85 0.594
0.057 0.84 0.597
0.05 0.833 0.6
0.043 0.824 0.603
0.037 0.576 0.606
0.037 -0.094 0.607
0.053 -1.98 0.6
0.069 -2.002 0.593
0.085 -2.017 0.585
0.102 -2.042 0.578
0.071 -0.862 0.592
0.079 -0.874 0.588
0.086 -0.884 0.585
0.093 -0.881 0.582
0.1 -0.877 0.579
0 0 0
0 0 0
0.234 -2.046 0.52
0.235 -1.899 0.519
0.252 -1.917 0.512
0.267 -1.909 0.505
0.342 -2.371 0.472
0.368 -2.419 0.461
0.393 -2.457 0.45
0.419 -2.495 0.438
0.448 -2.547 0.425
0.459 -2.491 0.42
0.472 -2.449 0.415
0 0 0
0 0 0
0.569 -2.621 0.372
0.615 -2.739 0.351
0.599 -2.561 0.358
0.568 -2.33 0.372
0.572 -2.261 0.371
0.593 -2.267 0.361
0.608 -2.252 0.355
0.619 -2.219 0.35
0.634 -2.202 0.343
0.651 -2.195 0.336
0.666 -2.181 0.329
0.683 -2.173 0.322
0.697 -2.157 0.315
0.714 -2.151 0.308
0.72 -2.11 0.305
0.633 -1.789 0.344
0.608 -1.669 0.355
0.622 -1.666 0.349
0.729 -1.921 0.301
0.806 -2.08 0.268
0.83 -2.094 0.257
0.844 -2.079 0.251
0.864 -2.08 0.242
0.913 -2.15 0.22
1.069 -2.476 0.151
1.14 -2.586 0.12
1.173 -2.604 0.105
1.183 -2.568 0.101
1.159 -2.459 0.112
1.139 -2.364 0.121
1.173 -2.385 0.105
1.258 -2.51 0.068
1.356 -2.656 0.025
1.352 -2.593 0.026
1.365 -2.566 0.021
1.37 -2.524 0.019
1.382 -2.496 0.013
1.377 -2.438 0.015
1.374 -2.386 0.017
1.379 -2.347 0.015
1.379 -2.302 0.015
1.352 -2.214 0.026
1.348 -2.165 0.028
1.341 -2.113 0.031
1.346 -2.083 0.029
1.345 -2.041 0.03
1.35 -2.012 0.027
1.346 -1.969 0.029
1.352 -1.942 0.027
1.35 -1.905 0.027
1.351 -1.872 0.027
1.344 -1.829 0.03
1.351 -1.805 0.027
1.35 -1.772 0.027
1.356 -1.749 0.025
1.355 -1.717 0.025
1.35 -1.68 0.027
1.35 -1.651 0.027
1.354 -1.627 0.025
1.355 -1.601 0.025
1.361 -1.579 0.023
1.351 -1.54 0.027
1.355 -1.518 0.025
1.361 -1.498 0.023
1.358 -1.47 0.024
1.357 -1.443 0.024
1.362 -1.424 0.022
1.354 -1.39 0.026
1.356 -1.368 0.025
1.355 -1.344 0.025
1.358 -1.323 0.024
1.357 -1.299 0.024
1.365 -1.284 0.021
1.354 -1.251 0.026
1.361 -1.237 0.022
1.356 -1.21 0.025
1.361 -1.193 0.023
1.357 -1.169 0.024
1.361 -1.151 0.023
1.359 -1.129 0.023
1.361 -1.11 0.023
1.365 -1.094 0.021
1.367 -1.076 0.02
1.361 -1.052 0.022
1.366 -1.036 0.02
1.361 -1.014 0.022
1.364 -0.997 0.021
1.356 -0.972 0.025
1.361 -0.958 0.022
1.358 -0.938 0.024
1.364 -0.924 0.021
1.358 -0.902 0.024
1.363 -0.888 0.022
1.355 -0.866 0.025
1.362 -0.853 0.022
1.361 -0.835 0.023
1.359 -0.818 0.023
1.359 -0.801 0.023
1.364 -0.788 0.021
1.355 -0.766 0.025
1.36 -0.753 0.023
1.358 -0.736 0.024
1.363 -0.723 0.021
1.36 -0.705 0.023
1.366 -0.693 0.02
1.359 -0.674 0.024
1.357 -0.658 0.024
1.356 -0.642 0.025
1.364 -0.631 0.021
1.357 -0.613 0.024
1.366 -0.602 0.02
1.362 -0.585 0.022
1.366 -0.572 0.02
1.359 -0.555 0.023
1.363 -0.542 0.021
1.363 -0.527 0.022
1.37 -0.516 0.018
1.36 -0.498 0.023
1.363 -0.485 0.021
1.359 -0.47 0.023
1.362 -0.457 0.022
1.355 -0.441 0.025
1.362 -0.429 0.022
1.36 -0.415 0.023
1.359 -0.401 0.023
1.35 -0.385 0.027
1.36 -0.374 0.023
1.352 -0.358 0.027
1.355 -0.346 0.025
1.352 -0.332 0.027
1.359 -0.32 0.023
1.353 -0.306 0.026
1.354 -0.293 0.026
1.357 -0.28 0.024
1.356 -0.267 0.025
1.358 -0.255 0.024
1.36 -0.242 0.023
1.353 -0.228 0.026
1.358 -0.216 0.024
1.354 -0.202 0.025
1.357 -0.19 0.024
1.358 -0.177 0.024
1.359 -0.165 0.024
1.351 -0.151 0.027
1.361 -0.139 0.022
1.359 -0.126 0.023
1.359 -0.114 0.023
1.357 -0.101 0.024
1.355 -0.088 0.025
1.361 -0.076 0.023
1.357 -0.063 0.024
1.359 -0.05 0.023
1.358 -0.038 0.024
1.363 -0.025 0.021
1.365 -0.013 0.021
1.362 -0 0.022
1.357 0.013 0.024
1.353 0.025 0.026
1.354 0.038 0.026
1.362 0.051 0.022
1.359 0.063 0.023
1.351 0.075 0.027
1.356 0.088 0.024
1.351 0.1 0.027
1.362 0.114 0.022
1.353 0.126 0.026
1.366 0.14 0.02
1.353 0.151 0.026
1.356 0.164 0.025
1.354 0.177 0.026
1.365 0.191 0.021
1.358 0.203 0.024
1.364 0.217 0.021
1.355 0.228 0.025
1.355 0.241 0.025
1.359 0.255 0.024
1.366 0.269 0.02
1.361 0.281 0.023
1.361 0.294 0.022
1.361 0.308 0.022
1.368 0.322 0.019
1.359 0.334 0.023
1.378 0.352 0.015
1.359 0.36 0.023
1.376 0.379 0.016
1.362 0.388 0.022
1.379 0.407 0.015
1.361 0.415 0.022
1.367 0.431 0.02
1.363 0.443 0.021
1.366 0.458 0.02
1.361 0.47 0.022
1.375 0.489 0.016
1.362 0.499 0.022
1.369 0.516 0.019
1.363 0.528 0.021
1.369 0.544 0.019
1.362 0.556 0.022
1.366 0.572 0.02
1.363 0.586 0.022
1.372 0.605 0.017
1.367 0.617 0.02
1.368 0.633 0.019
1.367 0.647 0.02
1.365 0.661 0.021
1.364 0.677 0.021
1.373 0.697 0.017
1.371 0.711 0.018
1.373 0.728 0.017
1.366 0.74 0.02
1.369 0.758 0.019
1.371 0.775 0.018
1.372 0.793 0.017
1.372 0.809 0.017
1.375 0.828 0.016
1.37 0.842 0.018
1.377 0.863 0.015
1.37 0.876 0.018
1.379 0.899 0.015
1.371 0.911 0.018
1.373 0.93 0.017
1.369 0.945 0.019
1.376 0.969 0.016
1.372 0.984 0.018
1.376 1.006 0.016
1.373 1.023 0.017
1.376 1.044 0.016
1.375 1.063 0.016
1.381 1.087 0.014
1.381 1.107 0.014
1.384 1.13 0.012
1.377 1.145 0.015
1.382 1.169 0.013
1.379 1.188 0.015
1.377 1.208 0.015
1.378 1.23 0.015
1.383 1.257 0.013
1.373 1.269 0.017
1.374 1.293 0.017
1.373 1.315 0.017
1.381 1.346 0.014
1.375 1.364 0.016
1.377 1.39 0.015
1.376 1.414 0.016
1.378 1.441 0.015
1.371 1.458 0.018
1.371 1.484 0.018
1.361 1.498 0.023
1.362 1.526 0.022
1.328 1.514 0.037
1.277 1.479 0.06
1.228 1.446 0.081
1.177 1.408 0.104
1.153 1.404 0.114
1.142 1.414 0.119
1.137 1.433 0.121
1.125 1.443 0.127
1.116 1.457 0.13
1.041 1.38 0.164
0.985 1.327 0.188
0.993 1.362 0.185
0.976 1.362 0.192
0.958 1.361 0.2
0.947 1.37 0.205
0.941 1.386 0.208
0.935 1.402 0.211
0.924 1.411 0.215
0.923 1.437 0.216
0.912 1.445 0.221
0.905 1.462 0.223
0.899 1.478 0.226
0.891 1.493 0.23
0.882 1.508 0.234
0.873 1.521 0.238
0.909 1.618 0.222
0.895 1.624 0.228
0.861 1.592 0.243
0 0 0
0 0 0
0.515 0.984 0.396
0.55 1.078 0.38
0.522 1.04 0.393
0.502 1.019 0.402
0.496 1.029 0.404
0.486 1.029 0.409
0.476 1.029 0.413
0.466 1.029 0.417
0.459 1.037 0.42
0.453 1.047 0.423
0.447 1.055 0.426
0.448 1.085 0.425
0.44 1.091 0.429
0 0 0
0 0 0
0.441 1.181 0.428
0.43 1.182 0.433
0.475 1.352 0.413
0.502 1.476 0.402
0.579 1.772 0.367
0.571 1.798 0.371
0.552 1.784 0.38
0.532 1.771 0.388
0.513 1.758 0.397
0.494 1.744 0.405
0.475 1.729 0.413
0.459 1.723 0.42
0.441 1.707 0.429
0.425 1.701 0.436
0.409 1.693 0.443
0.385 1.649 0.453
0.36 1.593 0.464
0.355 1.637 0.466
0.343 1.642 0.472
0.326 1.626 0.479
0.311 1.618 0.486
0.297 1.611 0.492
0.282 1.603 0.498
0.268 1.595 0.505
0.254 1.587 0.511
0.239 1.57 0.518
0.225 1.562 0.524
0.211 1.553 0.53
0.198 1.544 0.536
0.184 1.536 0.542
0.171 1.527 0.547
0.159 1.527 0.553
0.146 1.517 0.558
0.134 1.519 0.564
0 0 0
0.076 0.821 0.589
0.069 0.8 0.593
0.064 0.85 0.595
0.057 0.841 0.598
0.05 0.835 0.601
0.043 0.825 0.604
0.037 0.578 0.607
0.037 -0.087 0.607
0.038 -0.168 0.606
0.069 -2.001 0.593
0.085 -2.017 0.586
0.102 -2.04 0.579
0.071 -0.86 0.592
0.079 -0.885 0.589
0.086 -0.872 0.586
0.093 -0.88 0.583
0.098 -0.846 0.581
0 0 0
0 0 0
0.23 -1.996 0.524
0.238 -1.927 0.52
0.252 -1.905 0.515
0.269 -1.916 0.507
0.343 -2.369 0.476
0.37 -2.429 0.464
0.396 -2.466 0.453
0.422 -2.504 0.442
0.448 -2.538 0.43
0 0 0
0.474 -2.448 0.419
0.5 -2.477 0.408
0 0 0
0.568 -2.606 0.379
0.618 -2.742 0.357
0.618 -2.635 0.357
0.569 -2.324 0.378
0.575 -2.266 0.376
0.599 -2.284 0.365
0.608 -2.242 0.362
0.621 -2.218 0.356
0.635 -2.2 0.35
0.654 -2.196 0.342
0.668 -2.18 0.336
0.685 -2.172 0.328
0.7 -2.156 0.322
0.717 -2.15 0.315
0.716 -2.088 0.315
0.605 -1.699 0.363
0.611 -1.672 0.36
0.626 -1.67 0.354
0.749 -1.968 0.301
0.808 -2.079 0.276
0.829 -2.082 0.267
0.846 -2.076 0.259
0.867 -2.078 0.25
0.934 -2.193 0.222
1.13 -2.61 0.138
1.153 -2.606 0.127
1.178 -2.605 0.117
1.193 -2.58 0.11
1.175 -2.484 0.118
1.138 -2.352 0.134
1.177 -2.383 0.117
1.289 -2.563 0.069
1.386 -2.704 0.027
1.387 -2.652 0.027
1.396 -2.615 0.023
1.4 -2.569 0.021
1.411 -2.538 0.017
1.406 -2.48 0.019
1.403 -2.427 0.02
1.402 -2.377 0.021
1.405 -2.338 0.019
1.386 -2.261 0.027
1.376 -2.202 0.032
1.377 -2.163 0.031
1.374 -2.118 0.032
1.368 -2.069 0.035
1.377 -2.044 0.031
1.372 -2 0.033
1.379 -1.974 0.03
1.373 -1.93 0.033
1.378 -1.902 0.031
1.372 -1.86 0.034
1.376 -1.832 0.032
1.373 -1.796 0.033
1.382 -1.776 0.029
1.383 -1.746 0.029
1.382 -1.715 0.029
1.375 -1.675 0.032
1.382 -1.655 0.029
1.38 -1.624 0.03
1.386 -1.603 0.027
1.383 -1.572 0.029
1.385 -1.546 0.028
1.382 -1.516 0.029
1.386 -1.494 0.027
1.383 -1.465 0.029
1.388 -1.445 0.026
1.386 -1.418 0.028
1.383 -1.39 0.029
1.381 -1.365 0.029
1.387 -1.346 0.027
1.383 -1.32 0.029
1.386 -1.299 0.028
1.382 -1.273 0.029
1.386 -1.254 0.027
1.389 -1.235 0.026
1.392 -1.216 0.025
1.386 -1.189 0.027
1.391 -1.172 0.025
1.384 -1.146 0.028
1.39 -1.13 0.025
1.392 -1.112 0.025
1.392 -1.091 0.025
1.383 -1.064 0.029
1.388 -1.049 0.027
1.392 -1.033 0.025
1.397 -1.018 0.022
1.387 -0.991 0.027
1.394 -0.977 0.024
1.385 -0.953 0.028
1.393 -0.94 0.024
1.388 -0.919 0.027
1.39 -0.903 0.025
1.391 -0.885 0.025
1.39 -0.867 0.026
1.382 -0.845 0.029
1.397 -0.838 0.023
1.387 -0.814 0.027
1.393 -0.802 0.024
1.385 -0.78 0.028
1.394 -0.769 0.024
1.382 -0.746 0.029
1.392 -0.735 0.025
1.389 -0.718 0.026
1.387 -0.701 0.027
1.391 -0.687 0.025
1.4 -0.676 0.022
1.389 -0.655 0.026
1.394 -0.642 0.024
1.389 -0.625 0.026
1.392 -0.611 0.025
1.386 -0.593 0.027
1.396 -0.583 0.023
1.389 -0.565 0.026
1.388 -0.55 0.027
1.391 -0.536 0.025
1.388 -0.521 0.027
1.382 -0.504 0.029
1.393 -0.494 0.024
1.389 -0.478 0.026
1.393 -0.465 0.024
1.388 -0.45 0.026
1.387 -0.435 0.027
1.388 -0.422 0.026
1.391 -0.409 0.025
1.382 -0.392 0.029
1.384 -0.379 0.028
1.382 -0.365 0.029
1.394 -0.355 0.024
1.382 -0.338 0.029
1.38 -0.324 0.03
1.388 -0.313 0.026
1.387 -0.299 0.027
1.386 -0.285 0.027
1.388 -0.273 0.026
1.386 -0.259 0.027
1.391 -0.247 0.025
1.384 -0.232 0.028
1.388 -0.22 0.027
1.382 -0.206 0.029
1.386 -0.193 0.027
1.391 -0.181 0.025
1.387 -0.167 0.027
1.385 -0.154 0.028
1.388 -0.142 0.026
1.387 -0.129 0.027
1.388 -0.116 0.027
1.386 -0.103 0.027
1.392 -0.09 0.025
1.381 -0.077 0.03
1.389 -0.064 0.026
1.385 -0.051 0.028
1.381 -0.038 0.029
1.383 -0.026 0.029
1.392 -0.013 0.025
1.387 -0 0.027
1.397 0.013 0.022
1.387 0.026 0.027
1.381 0.038 0.029
1.382 0.051 0.029
1.388 0.064 0.027
1.383 0.077 0.029
1.384 0.09 0.028
1.381 0.102 0.029
1.387 0.116 0.027
1.381 0.128 0.029
1.386 0.141 0.027
1.392 0.155 0.025
1.388 0.168 0.027
1.379 0.179 0.03
1.393 0.194 0.024
1.384 0.206 0.028
1.391 0.22 0.025
1.385 0.232 0.028
1.388 0.246 0.027
1.389 0.259 0.026
1.395 0.274 0.024
1.395 0.287 0.023
1.397 0.301 0.023
1.39 0.313 0.026
1.391 0.327 0.025
1.398 0.342 0.022
1.395 0.355 0.024
1.4 0.37 0.021
1.401 0.384 0.021
1.398 0.397 0.022
1.401 0.412 0.021
1.398 0.425 0.022
1.394 0.438 0.024
1.396 0.452 0.023
1.396 0.466 0.023
1.392 0.479 0.025
1.399 0.496 0.022
1.393 0.508 0.024
1.398 0.525 0.022
1.394 0.538 0.024
1.397 0.554 0.022
1.393 0.567 0.024
1.404 0.586 0.02
1.393 0.596 0.024
1.396 0.613 0.023
1.396 0.628 0.023
1.405 0.648 0.019
1.397 0.659 0.022
1.406 0.679 0.019
1.397 0.691 0.022
1.405 0.71 0.019
1.399 0.723 0.022
1.396 0.738 0.023
1.397 0.754 0.023
1.404 0.775 0.02
1.4 0.789 0.021
1.401 0.806 0.021
1.395 0.819 0.024
1.402 0.841 0.021
1.395 0.854 0.024
1.403 0.876 0.02
1.398 0.891 0.022
1.401 0.91 0.021
1.398 0.926 0.022
1.4 0.945 0.021
1.398 0.962 0.022
1.406 0.986 0.019
1.398 0.999 0.022
1.409 1.026 0.018
1.408 1.045 0.018
1.411 1.067 0.017
1.402 1.08 0.02
1.41 1.106 0.017
1.403 1.121 0.02
1.409 1.146 0.017
1.403 1.162 0.02
1.409 1.188 0.018
1.405 1.206 0.019
1.411 1.233 0.016
1.407 1.252 0.018
1.402 1.269 0.021
1.401 1.29 0.021
1.405 1.318 0.019
1.404 1.34 0.02
1.43 1.39 0.008
1.406 1.39 0.019
1.411 1.419 0.017
1.404 1.437 0.02
1.402 1.46 0.021
1.394 1.477 0.024
1.389 1.497 0.026
1.387 1.522 0.027
1.379 1.539 0.03
1.343 1.524 0.046
1.288 1.486 0.07
1.239 1.454 0.09
1.185 1.413 0.114
1.157 1.403 0.126
1.146 1.414 0.13
1.135 1.424 0.135
1.129 1.442 0.138
1.111 1.444 0.145
1.081 1.429 0.158
0 0 0
0.993 1.357 0.196
0.975 1.355 0.204
0.961 1.359 0.21
0.951 1.369 0.214
0.944 1.385 0.217
0.938 1.401 0.22
0.932 1.418 0.222
0.922 1.428 0.227
0.915 1.444 0.23
0.908 1.461 0.233
0.902 1.478 0.235
0.89 1.486 0.241
0.878 1.495 0.245
0.875 1.519 0.247
0 0 0
0.904 1.635 0.234
0 0 0
0 0 0
0 0 0
0.513 0.975 0.402
0.496 0.96 0.41
0.519 1.03 0.4
0.502 1.015 0.407
0.492 1.017 0.411
0.485 1.022 0.415
0.474 1.021 0.419
0.466 1.026 0.423
0.459 1.032 0.426
0.455 1.046 0.427
0.449 1.056 0.43
0.451 1.088 0.429
0 0 0
0 0 0
0 0 0
0.443 1.184 0.432
0.442 1.21 0.433
0.493 1.403 0.411
0.557 1.645 0.383
0.593 1.81 0.368
0.573 1.797 0.377
0.553 1.783 0.385
0.534 1.77 0.393
0.515 1.756 0.402
0.498 1.751 0.409
0.479 1.736 0.417
0.461 1.722 0.425
0.444 1.716 0.432
0.428 1.707 0.439
0.409 1.687 0.447
0.39 1.666 0.455
0.367 1.623 0.465
0.36 1.656 0.468
0.343 1.64 0.475
0.329 1.634 0.482
0.312 1.617 0.489
0.297 1.609 0.495
0.283 1.603 0.501
0.269 1.594 0.507
0.255 1.587 0.513
0.241 1.578 0.519
0.225 1.56 0.526
0.212 1.551 0.532
0.198 1.543 0.538
0.185 1.535 0.543
0.172 1.526 0.549
0.159 1.526 0.554
0.146 1.513 0.56
0.134 1.517 0.565
0 0 0
0.076 0.816 0.59
0.069 0.796 0.593
0.064 0.839 0.595
0.057 0.841 0.598
0.05 0.836 0.601
0.043 0.815 0.604
0.037 0.55 0.607
0.037 -0.087 0.607
0.053 -1.98 0.601
0.069 -2.001 0.594
0.085 -2.016 0.587
0.102 -2.039 0.58
0.071 -0.86 0.593
0.08 -0.9 0.589
0.085 -0.863 0.587
0.093 -0.879 0.583
0.098 -0.841 0.582
0 0 0
0 0 0
0.229 -1.985 0.526
0.239 -1.925 0.522
0.253 -1.915 0.516
0.27 -1.926 0.509
0.345 -2.384 0.477
0.371 -2.429 0.466
0.397 -2.466 0.456
0.423 -2.504 0.445
0.45 -2.542 0.433
0 0 0
0.475 -2.446 0.423
0.504 -2.491 0.411
0 0 0
0.567 -2.596 0.384
0.608 -2.686 0.367
0.622 -2.643 0.361
0.567 -2.307 0.384
0.579 -2.273 0.379
0.6 -2.281 0.37
0.61 -2.243 0.366
0.622 -2.216 0.361
0.637 -2.2 0.355
0.655 -2.194 0.347
0.67 -2.178 0.341
0.687 -2.172 0.334
0.702 -2.156 0.327
0.72 -2.152 0.32
0.712 -2.068 0.323
0.605 -1.693 0.368
0.613 -1.671 0.365
0.63 -1.678 0.357
0.758 -1.987 0.304
0.815 -2.089 0.28
0.832 -2.083 0.273
0.85 -2.078 0.265
0.873 -2.086 0.255
0.946 -2.216 0.225
1.156 -2.665 0.136
1.164 -2.622 0.133
1.186 -2.615 0.123
1.201 -2.59 0.117
1.183 -2.494 0.125
1.141 -2.351 0.143
1.171 -2.364 0.13
1.299 -2.576 0.076
1.405 -2.735 0.031
1.407 -2.682 0.03
1.415 -2.643 0.027
1.413 -2.586 0.028
1.423 -2.554 0.024
1.423 -2.503 0.024
1.423 -2.455 0.024
1.415 -2.392 0.027
1.424 -2.363 0.023
1.4 -2.278 0.033
1.39 -2.218 0.038
1.391 -2.178 0.037
1.396 -2.146 0.035
1.388 -2.094 0.039
1.389 -2.056 0.038
1.389 -2.019 0.038
1.391 -1.986 0.037
1.387 -1.945 0.039
1.392 -1.917 0.037
1.391 -1.88 0.037
1.391 -1.848 0.037
1.385 -1.807 0.04
1.397 -1.791 0.035
1.396 -1.757 0.035
1.397 -1.728 0.035
1.394 -1.694 0.036
1.397 -1.669 0.035
1.392 -1.633 0.037
1.401 -1.615 0.033
1.396 -1.582 0.035
1.401 -1.56 0.033
1.399 -1.53 0.034
1.407 -1.513 0.031
1.401 -1.48 0.033
1.402 -1.456 0.033
1.4 -1.428 0.034
1.407 -1.411 0.03
1.398 -1.378 0.034
1.405 -1.36 0.032
1.397 -1.329 0.035
1.406 -1.314 0.031
1.399 -1.285 0.034
1.401 -1.264 0.033
1.4 -1.241 0.033
1.403 -1.222 0.032
1.398 -1.196 0.034
1.404 -1.18 0.032
1.405 -1.16 0.031
1.405 -1.139 0.031
1.41 -1.122 0.029
1.413 -1.105 0.028
1.406 -1.079 0.031
1.415 -1.067 0.027
1.406 -1.04 0.031
1.402 -1.018 0.032
1.403 -1 0.032
1.402 -0.98 0.033
1.4 -0.961 0.033
1.408 -0.948 0.03
1.405 -0.927 0.032
1.41 -0.913 0.029
1.41 -0.895 0.029
1.409 -0.877 0.03
1.399 -0.853 0.034
1.41 -0.843 0.029
1.399 -0.819 0.034
1.413 -0.811 0.028
1.404 -0.789 0.032
1.402 -0.771 0.033
1.404 -0.756 0.032
1.404 -0.74 0.032
1.409 -0.726 0.03
1.404 -0.708 0.032
1.399 -0.689 0.034
1.412 -0.68 0.028
1.406 -0.661 0.031
1.409 -0.647 0.03
1.409 -0.632 0.03
1.407 -0.616 0.031
1.405 -0.6 0.031
1.406 -0.585 0.031
1.403 -0.569 0.032
1.404 -0.555 0.032
1.405 -0.54 0.031
1.406 -0.526 0.031
1.403 -0.51 0.032
1.413 -0.5 0.028
1.402 -0.481 0.033
1.413 -0.471 0.028
1.397 -0.451 0.035
1.409 -0.441 0.03
1.398 -0.423 0.035
1.398 -0.41 0.034
1.399 -0.396 0.034
1.406 -0.384 0.031
1.395 -0.367 0.036
1.399 -0.355 0.034
1.403 -0.342 0.032
1.407 -0.33 0.03
1.397 -0.314 0.035
1.41 -0.303 0.029
1.407 -0.289 0.031
1.403 -0.275 0.032
1.404 -0.262 0.032
1.406 -0.249 0.031
1.402 -0.235 0.033
1.406 -0.222 0.031
1.4 -0.208 0.033
1.404 -0.195 0.032
1.399 -0.181 0.034
1.407 -0.169 0.031
1.403 -0.156 0.032
1.415 -0.144 0.027
1.4 -0.129 0.033
1.414 -0.118 0.028
1.402 -0.104 0.033
1.403 -0.091 0.032
1.394 -0.077 0.036
1.407 -0.065 0.031
1.396 -0.052 0.035
1.404 -0.039 0.032
1.399 -0.026 0.034
1.404 -0.013 0.032
1.398 -0 0.034
1.409 0.013 0.03
1.402 0.026 0.032
1.412 0.039 0.028
1.405 0.052 0.032
1.408 0.065 0.03
1.405 0.078 0.031
1.405 0.091 0.032
1.396 0.103 0.035
1.409 0.117 0.03
1.399 0.129 0.034
1.413 0.144 0.028
1.402 0.156 0.032
1.411 0.17 0.029
1.4 0.182 0.034
1.408 0.196 0.03
1.409 0.209 0.03
1.407 0.222 0.031
1.405 0.235 0.031
1.4 0.248 0.033
1.407 0.262 0.03
1.41 0.276 0.029
1.402 0.288 0.033
1.409 0.303 0.03
1.406 0.316 0.031
1.415 0.332 0.027
1.414 0.345 0.027
1.416 0.359 0.027
1.407 0.371 0.031
1.419 0.388 0.026
1.418 0.401 0.026
1.414 0.414 0.028
1.409 0.427 0.03
1.416 0.443 0.027
1.413 0.456 0.028
1.409 0.469 0.03
1.412 0.485 0.028
1.41 0.498 0.029
1.406 0.511 0.031
1.419 0.531 0.026
1.408 0.541 0.03
1.413 0.558 0.028
1.415 0.574 0.027
1.412 0.588 0.028
1.414 0.604 0.027
1.42 0.621 0.025
1.414 0.634 0.028
1.415 0.65 0.027
1.414 0.665 0.028
1.421 0.684 0.025
1.418 0.699 0.026
1.423 0.717 0.024
1.412 0.728 0.029
1.416 0.746 0.027
1.416 0.763 0.027
1.418 0.78 0.026
1.412 0.793 0.028
1.421 0.815 0.025
1.414 0.829 0.027
1.42 0.849 0.025
1.418 0.865 0.026
1.416 0.882 0.027
1.422 0.903 0.024
1.418 0.919 0.026
1.418 0.936 0.026
1.421 0.957 0.025
1.418 0.973 0.026
1.418 0.992 0.026
1.423 1.014 0.024
1.431 1.039 0.021
1.421 1.052 0.025
1.464 1.104 0.007
1.424 1.094 0.023
1.42 1.111 0.025
1.415 1.127 0.027
1.422 1.154 0.024
1.415 1.169 0.027
1.426 1.199 0.023
1.418 1.213 0.026
1.424 1.241 0.023
1.419 1.259 0.025
1.419 1.281 0.026
1.415 1.3 0.027
1.42 1.328 0.025
1.422 1.353 0.024
1.432 1.387 0.02
1.421 1.401 0.025
1.423 1.428 0.024
1.411 1.44 0.029
1.411 1.465 0.029
1.405 1.484 0.032
1.404 1.509 0.032
1.396 1.527 0.035
1.388 1.545 0.039
1.35 1.528 0.055
1.292 1.486 0.079
1.243 1.454 0.1
1.189 1.413 0.123
1.161 1.403 0.134
1.149 1.414 0.139
1.138 1.424 0.144
1.133 1.443 0.146
1.121 1.452 0.151
1.079 1.421 0.169
0.996 1.332 0.204
0.988 1.346 0.207
0.98 1.358 0.21
0.963 1.359 0.217
0.953 1.369 0.221
0.942 1.377 0.226
0.94 1.4 0.227
0.935 1.418 0.229
0.924 1.428 0.234
0.918 1.444 0.236
0.906 1.453 0.241
0.903 1.476 0.243
0.892 1.485 0.247
0.879 1.491 0.253
0.865 1.495 0.259
0 0 0
0.888 1.6 0.249
0 0 0
0.573 1.05 0.381
0 0 0
0.505 0.956 0.41
0.496 0.957 0.414
0.511 1.01 0.408
0.508 1.025 0.409
0.492 1.013 0.416
0.483 1.015 0.42
0.476 1.021 0.423
0.466 1.023 0.426
0.462 1.037 0.428
0.457 1.049 0.43
0.45 1.057 0.433
0 0 0
0 0 0
0 0 0
0.456 1.186 0.431
0.45 1.2 0.433
0.451 1.236 0.433
0.515 1.464 0.406
0.585 1.728 0.376
0.595 1.81 0.372
0.575 1.797 0.381
0.555 1.783 0.389
0.536 1.77 0.397
0.516 1.756 0.406
0.5 1.751 0.412
0.481 1.736 0.421
0.462 1.722 0.428
0.446 1.716 0.435
0.429 1.706 0.442
0.412 1.696 0.449
0.395 1.686 0.456
0.37 1.632 0.467
0.361 1.656 0.471
0.346 1.65 0.477
0.33 1.634 0.484
0.313 1.617 0.491
0.298 1.61 0.497
0.284 1.603 0.503
0.27 1.595 0.509
0.255 1.586 0.515
0.241 1.578 0.521
0.226 1.56 0.528
0.212 1.551 0.533
0.199 1.543 0.539
0.185 1.535 0.545
0.172 1.526 0.55
0.16 1.526 0.556
0.147 1.514 0.561
0.134 1.511 0.566
0 0 0
0.076 0.813 0.591
0.069 0.798 0.594
0.064 0.839 0.596
0.057 0.841 0.599
0.05 0.838 0.602
0.043 0.824 0.605
0.037 0.547 0.607
0.037 -0.097 0.608
0.053 -1.98 0.601
0.069 -2.001 0.594
0.086 -2.026 0.587
0.102 -2.038 0.58
0.071 -0.857 0.593
0.08 -0.894 0.59
0.085 -0.863 0.587
0.093 -0.879 0.584
0.098 -0.842 0.582
0 0 0
0.239 -2.27 0.524
0.229 -1.978 0.528
0.24 -1.929 0.524
0.254 -1.914 0.518
0.272 -1.935 0.51
0.346 -2.385 0.48
0.372 -2.429 0.469
0.398 -2.467 0.459
0.424 -2.504 0.448
0.45 -2.535 0.437
0 0 0
0.476 -2.447 0.426
0 0 0
0 0 0
0.566 -2.584 0.389
0.592 -2.603 0.379
0 0 0
0.567 -2.303 0.389
0.582 -2.282 0.383
0.604 -2.288 0.374
0.61 -2.235 0.371
0.625 -2.218 0.365
0.64 -2.203 0.359
0.655 -2.186 0.353
0.673 -2.182 0.345
0.69 -2.174 0.338
0.705 -2.16 0.332
0.721 -2.149 0.326
0.7 -2.027 0.334
0.604 -1.685 0.374
0.615 -1.672 0.369
0.633 -1.681 0.362
0.764 -1.999 0.308
0.817 -2.089 0.286
0.835 -2.085 0.278
0.852 -2.078 0.271
0.879 -2.095 0.26
0.958 -2.238 0.228
1.175 -2.703 0.138
1.177 -2.646 0.137
1.193 -2.623 0.131
1.205 -2.59 0.126
1.19 -2.502 0.132
1.146 -2.354 0.15
1.178 -2.372 0.137
1.304 -2.579 0.085
1.42 -2.756 0.037
1.422 -2.703 0.037
1.431 -2.665 0.033
1.433 -2.615 0.032
1.443 -2.582 0.028
1.443 -2.531 0.028
1.443 -2.483 0.028
1.435 -2.421 0.031
1.443 -2.388 0.028
1.419 -2.302 0.038
1.421 -2.262 0.037
1.404 -2.192 0.044
1.415 -2.17 0.039
1.407 -2.117 0.043
1.409 -2.082 0.042
1.4 -2.029 0.046
1.404 -1.998 0.044
1.405 -1.965 0.043
1.406 -1.93 0.043
1.408 -1.898 0.042
1.412 -1.87 0.041
1.404 -1.826 0.044
1.416 -1.81 0.039
1.409 -1.77 0.042
1.414 -1.744 0.04
1.409 -1.708 0.042
1.415 -1.685 0.039
1.408 -1.647 0.042
1.416 -1.629 0.039
1.407 -1.59 0.043
1.417 -1.573 0.039
1.414 -1.543 0.04
1.42 -1.522 0.038
1.417 -1.493 0.038
1.419 -1.47 0.038
1.411 -1.435 0.041
1.425 -1.425 0.035
1.42 -1.395 0.037
1.416 -1.367 0.039
1.414 -1.341 0.04
1.419 -1.323 0.038
1.415 -1.296 0.039
1.416 -1.274 0.039
1.412 -1.248 0.041
1.421 -1.234 0.037
1.417 -1.209 0.039
1.427 -1.196 0.034
1.419 -1.169 0.038
1.415 -1.144 0.039
1.418 -1.126 0.038
1.425 -1.111 0.035
1.423 -1.089 0.036
1.428 -1.073 0.034
1.417 -1.045 0.039
1.422 -1.03 0.037
1.418 -1.008 0.038
1.421 -0.991 0.037
1.415 -0.968 0.039
1.43 -0.96 0.033
1.417 -0.933 0.039
1.426 -0.921 0.035
1.422 -0.9 0.037
1.422 -0.883 0.037
1.428 -0.869 0.034
1.422 -0.848 0.036
1.427 -0.833 0.035
1.425 -0.815 0.035
1.424 -0.798 0.036
1.427 -0.783 0.035
1.423 -0.764 0.036
1.428 -0.751 0.034
1.409 -0.724 0.042
1.423 -0.715 0.036
1.422 -0.699 0.037
1.421 -0.683 0.037
1.42 -0.666 0.037
1.427 -0.654 0.034
1.424 -0.637 0.036
1.423 -0.621 0.036
1.421 -0.605 0.037
1.428 -0.593 0.034
1.427 -0.577 0.034
1.43 -0.563 0.033
1.42 -0.544 0.037
1.424 -0.531 0.036
1.427 -0.518 0.035
1.425 -0.502 0.035
1.415 -0.485 0.039
1.426 -0.474 0.035
1.419 -0.457 0.038
1.42 -0.443 0.037
1.417 -0.428 0.039
1.42 -0.415 0.037
1.417 -0.4 0.038
1.421 -0.387 0.037
1.413 -0.371 0.04
1.416 -0.358 0.039
1.411 -0.343 0.041
1.421 -0.332 0.037
1.412 -0.316 0.041
1.418 -0.304 0.038
1.419 -0.291 0.038
1.421 -0.278 0.037
1.425 -0.265 0.035
1.424 -0.251 0.036
1.415 -0.236 0.04
1.421 -0.224 0.037
1.427 -0.211 0.034
1.431 -0.199 0.033
1.42 -0.184 0.037
1.423 -0.171 0.036
1.424 -0.158 0.036
1.426 -0.145 0.035
1.424 -0.131 0.036
1.422 -0.118 0.037
1.416 -0.104 0.039
1.422 -0.092 0.037
1.421 -0.078 0.037
1.428 -0.066 0.034
1.419 -0.052 0.038
1.421 -0.039 0.037
1.417 -0.026 0.039
1.427 -0.013 0.034
1.421 -0 0.037
1.427 0.013 0.034
1.422 0.026 0.036
1.424 0.039 0.036
1.422 0.052 0.037
1.428 0.066 0.034
1.422 0.079 0.036
1.427 0.092 0.034
1.416 0.104 0.039
1.416 0.117 0.039
1.427 0.132 0.034
1.422 0.144 0.037
1.42 0.157 0.037
1.432 0.172 0.032
1.421 0.184 0.037
1.43 0.198 0.033
1.428 0.212 0.034
1.424 0.224 0.036
1.416 0.236 0.039
1.423 0.251 0.036
1.415 0.263 0.039
1.422 0.278 0.036
1.426 0.292 0.035
1.428 0.306 0.034
1.433 0.321 0.032
1.43 0.334 0.033
1.422 0.346 0.036
1.427 0.361 0.034
1.429 0.375 0.034
1.432 0.39 0.032
1.427 0.403 0.034
1.427 0.417 0.034
1.424 0.43 0.036
1.435 0.448 0.031
1.426 0.459 0.035
1.439 0.478 0.029
1.427 0.489 0.035
1.432 0.505 0.032
1.424 0.517 0.036
1.432 0.534 0.032
1.428 0.548 0.034
1.432 0.564 0.032
1.427 0.577 0.034
1.431 0.594 0.033
1.43 0.609 0.033
1.437 0.628 0.03
1.431 0.64 0.033
1.431 0.656 0.033
1.437 0.674 0.03
1.433 0.688 0.032
1.431 0.703 0.033
1.431 0.719 0.033
1.434 0.737 0.031
1.432 0.753 0.032
1.428 0.767 0.034
1.438 0.789 0.03
1.428 0.8 0.034
1.439 0.824 0.029
1.434 0.838 0.032
1.436 0.856 0.031
1.435 0.874 0.031
1.444 0.897 0.027
1.434 0.908 0.032
1.437 0.928 0.03
1.43 0.942 0.033
1.438 0.966 0.03
1.438 0.984 0.03
1.444 1.007 0.028
1.443 1.026 0.028
1.477 1.071 0.014
1.473 1.088 0.016
1.485 1.117 0.011
1.442 1.104 0.028
1.439 1.122 0.029
1.434 1.139 0.032
1.443 1.168 0.028
1.434 1.181 0.032
1.44 1.207 0.029
1.439 1.228 0.029
1.438 1.25 0.03
1.435 1.269 0.031
1.434 1.291 0.031
1.431 1.311 0.033
1.435 1.338 0.031
1.438 1.365 0.03
1.444 1.395 0.027
1.444 1.42 0.027
1.434 1.435 0.031
1.429 1.455 0.033
1.429 1.48 0.034
1.418 1.494 0.038
1.419 1.521 0.038
1.414 1.543 0.04
1.404 1.558 0.044
1.365 1.54 0.06
1.303 1.494 0.086
1.253 1.462 0.106
1.197 1.419 0.129
1.164 1.402 0.143
1.153 1.414 0.147
1.141 1.424 0.152
1.13 1.434 0.157
1.124 1.452 0.159
1.082 1.421 0.177
1.001 1.336 0.21
0.971 1.318 0.222
0.982 1.357 0.218
0.965 1.358 0.225
0.956 1.369 0.229
0.949 1.384 0.231
0.943 1.401 0.234
0.932 1.409 0.238
0.927 1.428 0.241
0.915 1.436 0.245
0.914 1.461 0.246
0.899 1.464 0.252
0.893 1.482 0.255
0.881 1.49 0.259
0.844 1.454 0.275
0 0 0
0.59 1.037 0.379
0 0 0
0.555 1.012 0.394
0.54 1.003 0.4
0.489 0.92 0.421
0.499 0.96 0.417
0.513 1.011 0.411
0.505 1.017 0.414
0.493 1.013 0.419
0.487 1.022 0.422
0.476 1.019 0.427
0.474 1.039 0.427
0.463 1.036 0.432
0.46 1.053 0.433
0.456 1.069 0.435
0 0 0
0 0 0
0.482 1.223 0.424
0.457 1.185 0.434
0.454 1.207 0.436
0.474 1.3 0.427
0.533 1.515 0.403
0.599 1.766 0.376
0.597 1.811 0.377
0.577 1.797 0.385
0.557 1.783 0.393
0.537 1.77 0.401
0.52 1.765 0.408
0.501 1.751 0.416
0.482 1.736 0.424
0.463 1.722 0.432
0.447 1.716 0.439
0.43 1.706 0.446
0.411 1.687 0.453
0.397 1.687 0.459
0.375 1.652 0.468
0.364 1.665 0.473
0.347 1.65 0.48
0.33 1.634 0.487
0.315 1.627 0.493
0.299 1.61 0.499
0.284 1.602 0.505
0.27 1.595 0.511
0.256 1.586 0.517
0.242 1.578 0.523
0.228 1.57 0.529
0.213 1.551 0.535
0.199 1.543 0.541
0.186 1.535 0.546
0.173 1.526 0.552
0.16 1.526 0.557
0.147 1.514 0.562
0.134 1.512 0.567
0 0 0
0.076 0.813 0.591
0.069 0.803 0.594
0.064 0.849 0.596
0.057 0.841 0.599
0.05 0.838 0.602
0.043 0.816 0.605
0.037 0.54 0.608
0.037 -0.103 0.608
0.053 -1.98 0.601
0.069 -2.002 0.595
0.086 -2.017 0.588
0.103 -2.038 0.581
0.071 -0.855 0.594
0.08 -0.901 0.59
0.086 -0.864 0.588
0.094 -0.891 0.584
0.098 -0.848 0.583
0 0 0
0.238 -2.254 0.526
0.229 -1.977 0.53
0.24 -1.93 0.525
0.254 -1.914 0.519
0.273 -1.942 0.511
0.347 -2.386 0.482
0.373 -2.429 0.471
0.399 -2.467 0.461
0.425 -2.504 0.45
0.451 -2.538 0.439
0 0 0
0.475 -2.432 0.43
0.506 -2.491 0.417
0 0 0
0.563 -2.562 0.394
0.59 -2.586 0.383
0 0 0
0.574 -2.327 0.389
0.586 -2.293 0.384
0.605 -2.288 0.377
0.611 -2.235 0.374
0.627 -2.223 0.368
0.643 -2.208 0.361
0.66 -2.201 0.354
0.675 -2.186 0.348
0.692 -2.177 0.341
0.707 -2.164 0.335
0.723 -2.152 0.329
0.683 -1.971 0.345
0.603 -1.679 0.378
0.615 -1.67 0.373
0.634 -1.68 0.365
0.78 -2.037 0.306
0.82 -2.094 0.289
0.839 -2.09 0.282
0.854 -2.079 0.275
0.88 -2.094 0.265
0.968 -2.257 0.229
1.186 -2.722 0.141
1.185 -2.658 0.141
1.199 -2.63 0.135
1.209 -2.594 0.131
1.199 -2.517 0.135
1.156 -2.372 0.153
1.217 -2.448 0.128
1.315 -2.596 0.088
1.435 -2.781 0.039
1.439 -2.731 0.038
1.438 -2.675 0.038
1.443 -2.63 0.036
1.457 -2.602 0.03
1.46 -2.558 0.029
1.459 -2.506 0.029
1.455 -2.45 0.031
1.46 -2.412 0.029
1.429 -2.315 0.042
1.434 -2.279 0.04
1.42 -2.214 0.045
1.426 -2.182 0.043
1.428 -2.145 0.042
1.427 -2.104 0.042
1.426 -2.065 0.043
1.421 -2.02 0.045
1.414 -1.973 0.048
1.422 -1.949 0.044
1.42 -1.911 0.045
1.427 -1.887 0.043
1.429 -1.856 0.042
1.431 -1.826 0.041
1.425 -1.786 0.043
1.43 -1.761 0.041
1.425 -1.724 0.043
1.427 -1.696 0.043
1.426 -1.665 0.043
1.43 -1.642 0.041
1.426 -1.608 0.043
1.429 -1.584 0.042
1.429 -1.556 0.042
1.435 -1.536 0.039
1.429 -1.503 0.042
1.433 -1.482 0.04
1.432 -1.455 0.04
1.436 -1.433 0.039
1.432 -1.405 0.04
1.44 -1.388 0.037
1.434 -1.358 0.04
1.437 -1.337 0.039
1.432 -1.309 0.04
1.433 -1.288 0.04
1.43 -1.262 0.041
1.433 -1.242 0.04
1.43 -1.218 0.041
1.439 -1.204 0.038
1.435 -1.18 0.039
1.435 -1.158 0.039
1.434 -1.137 0.04
1.443 -1.123 0.036
1.436 -1.097 0.039
1.442 -1.082 0.037
1.439 -1.06 0.038
1.439 -1.04 0.038
1.433 -1.017 0.04
1.445 -1.006 0.035
1.434 -0.98 0.04
1.438 -0.964 0.038
1.44 -0.947 0.037
1.44 -0.928 0.037
1.438 -0.909 0.038
1.439 -0.892 0.038
1.439 -0.874 0.038
1.438 -0.856 0.038
1.443 -0.842 0.036
1.446 -0.826 0.035
1.434 -0.802 0.039
1.442 -0.79 0.037
1.436 -0.77 0.039
1.434 -0.752 0.04
1.437 -0.737 0.038
1.439 -0.722 0.038
1.439 -0.706 0.038
1.436 -0.688 0.039
1.438 -0.674 0.038
1.447 -0.662 0.034
1.444 -0.645 0.036
1.44 -0.628 0.037
1.442 -0.613 0.036
1.442 -0.597 0.037
1.443 -0.583 0.036
1.443 -0.568 0.036
1.44 -0.551 0.037
1.437 -0.535 0.038
1.437 -0.521 0.038
1.439 -0.506 0.038
1.443 -0.493 0.036
1.436 -0.476 0.039
1.442 -0.464 0.037
1.441 -0.449 0.037
1.44 -0.434 0.037
1.439 -0.42 0.038
1.433 -0.404 0.04
1.435 -0.39 0.039
1.427 -0.374 0.042
1.438 -0.363 0.038
1.439 -0.35 0.037
1.435 -0.335 0.039
1.437 -0.321 0.039
1.429 -0.306 0.042
1.431 -0.293 0.041
1.436 -0.28 0.039
1.438 -0.267 0.038
1.44 -0.254 0.037
1.442 -0.24 0.036
1.438 -0.226 0.038
1.442 -0.213 0.036
1.437 -0.199 0.038
1.436 -0.185 0.039
1.444 -0.173 0.036
1.437 -0.159 0.038
1.436 -0.145 0.039
1.436 -0.132 0.039
1.44 -0.119 0.037
1.438 -0.106 0.038
1.444 -0.093 0.036
1.439 -0.079 0.038
1.44 -0.066 0.037
1.434 -0.053 0.04
1.443 -0.04 0.036
1.433 -0.026 0.04
1.439 -0.013 0.038
1.438 -0 0.038
1.435 0.013 0.039
1.44 0.026 0.037
1.444 0.04 0.035
1.437 0.053 0.038
1.438 0.066 0.038
1.434 0.079 0.04
1.437 0.092 0.038
1.432 0.105 0.04
1.436 0.119 0.039
1.435 0.132 0.039
1.444 0.146 0.036
1.44 0.159 0.037
1.448 0.174 0.034
1.443 0.186 0.036
1.443 0.2 0.036
1.441 0.213 0.037
1.441 0.227 0.037
1.432 0.239 0.04
1.44 0.254 0.037
1.436 0.266 0.039
1.442 0.281 0.036
1.44 0.294 0.037
1.447 0.31 0.034
1.447 0.324 0.034
1.449 0.338 0.033
1.446 0.351 0.035
1.446 0.365 0.035
1.449 0.38 0.034
1.455 0.396 0.031
1.443 0.407 0.036
1.448 0.423 0.034
1.444 0.436 0.035
1.45 0.452 0.033
1.446 0.465 0.035
1.443 0.479 0.036
1.447 0.495 0.034
1.452 0.511 0.032
1.444 0.523 0.036
1.452 0.541 0.032
1.439 0.551 0.038
1.443 0.568 0.036
1.445 0.583 0.035
1.445 0.599 0.035
1.442 0.613 0.036
1.447 0.631 0.034
1.452 0.649 0.032
1.45 0.664 0.033
1.448 0.678 0.034
1.457 0.699 0.03
1.447 0.71 0.034
1.448 0.727 0.034
1.454 0.746 0.032
1.454 0.763 0.031
1.447 0.776 0.034
1.449 0.794 0.034
1.45 0.811 0.033
1.452 0.829 0.033
1.453 0.847 0.032
1.454 0.866 0.032
1.451 0.882 0.033
1.457 0.903 0.03
1.448 0.915 0.034
1.459 0.941 0.029
1.448 0.952 0.034
1.456 0.976 0.031
1.45 0.991 0.033
1.456 1.014 0.031
1.495 1.062 0.015
1.496 1.082 0.015
1.489 1.098 0.017
1.491 1.12 0.017
1.485 1.136 0.019
1.46 1.137 0.029
1.451 1.151 0.033
1.454 1.174 0.031
1.454 1.196 0.031
1.458 1.22 0.03
1.451 1.236 0.033
1.453 1.26 0.032
1.448 1.279 0.034
1.443 1.296 0.036
1.44 1.317 0.037
1.442 1.342 0.036
1.45 1.374 0.033
1.462 1.41 0.028
1.459 1.432 0.029
1.45 1.448 0.033
1.437 1.459 0.039
1.439 1.488 0.037
1.434 1.508 0.04
1.441 1.543 0.037
1.438 1.566 0.038
1.425 1.58 0.043
1.367 1.54 0.067
1.311 1.502 0.089
1.257 1.463 0.112
1.202 1.422 0.134
1.172 1.41 0.146
1.15 1.407 0.155
1.144 1.425 0.157
1.132 1.434 0.162
1.12 1.445 0.167
1.084 1.422 0.182
1.03 1.372 0.204
0.966 1.307 0.23
0.983 1.356 0.223
0.97 1.361 0.229
0.952 1.361 0.235
0.947 1.377 0.238
0.94 1.393 0.241
0.934 1.409 0.243
0.929 1.428 0.245
0.922 1.444 0.248
0.91 1.452 0.253
0.904 1.47 0.255
0.888 1.471 0.262
0.86 1.451 0.273
0 0 0
0.594 1.021 0.381
0.572 1 0.39
0.559 0.997 0.395
0.557 1.013 0.396
0.537 0.994 0.405
0 0 0
0.503 0.967 0.418
0.514 1.012 0.414
0.505 1.015 0.417
0.496 1.017 0.421
0.485 1.015 0.426
0.477 1.019 0.429
0.471 1.029 0.431
0.468 1.045 0.433
0.46 1.051 0.436
0 0 0
0 0 0
0 0 0
0.465 1.175 0.433
0.459 1.188 0.436
0.464 1.234 0.434
0.503 1.383 0.418
0.552 1.571 0.398
0.612 1.805 0.374
0.601 1.821 0.378
0.578 1.797 0.388
0.558 1.783 0.396
0.54 1.779 0.403
0.518 1.756 0.412
0.502 1.751 0.419
0.483 1.736 0.426
0.464 1.722 0.434
0.447 1.715 0.441
0.43 1.703 0.448
0.414 1.699 0.454
0.397 1.687 0.461
0.382 1.68 0.467
0.364 1.665 0.475
0.348 1.65 0.481
0.331 1.634 0.488
0.316 1.627 0.494
0.301 1.62 0.5
0.285 1.603 0.507
0.271 1.595 0.513
0.256 1.587 0.518
0.242 1.579 0.524
0.227 1.561 0.53
0.213 1.551 0.536
0.2 1.544 0.542
0.186 1.535 0.547
0.173 1.526 0.552
0.16 1.526 0.557
0.148 1.526 0.563
0.135 1.517 0.568
0 0 0
0.076 0.807 0.592
0.069 0.798 0.595
0.064 0.839 0.597
0.057 0.841 0.599
0.05 0.83 0.602
0.043 0.816 0.605
0.037 0.558 0.608
0.037 -0.097 0.608
0.053 -1.98 0.602
0.069 -2.002 0.595
0.086 -2.026 0.588
0.103 -2.036 0.582
0.071 -0.853 0.594
0.08 -0.897 0.591
0.085 -0.856 0.589
0.094 -0.883 0.585
0.099 -0.852 0.583
0 0 0
0.238 -2.256 0.528
0.228 -1.961 0.532
0.24 -1.922 0.527
0.256 -1.924 0.521
0.277 -1.965 0.512
0.347 -2.378 0.484
0.374 -2.429 0.474
0.4 -2.467 0.464
0.426 -2.504 0.453
0.451 -2.531 0.443
0 0 0
0 0 0
0.504 -2.472 0.422
0 0 0
0.56 -2.543 0.4
0.587 -2.566 0.389
0 0 0
0.591 -2.393 0.387
0.592 -2.313 0.387
0.609 -2.298 0.38
0.613 -2.236 0.379
0.629 -2.223 0.372
0.641 -2.198 0.367
0.659 -2.192 0.36
0.677 -2.187 0.353
0.692 -2.17 0.347
0.709 -2.164 0.34
0.722 -2.143 0.335
0.675 -1.942 0.354
0.604 -1.677 0.382
0.618 -1.673 0.377
0.64 -1.691 0.368
0.793 -2.067 0.307
0.824 -2.096 0.295
0.841 -2.09 0.288
0.857 -2.081 0.281
0.885 -2.101 0.27
0.979 -2.277 0.233
1.199 -2.745 0.145
1.191 -2.664 0.149
1.209 -2.646 0.141
1.215 -2.601 0.139
1.229 -2.575 0.133
1.161 -2.375 0.161
1.24 -2.487 0.129
1.358 -2.674 0.082
1.453 -2.807 0.044
1.46 -2.763 0.042
1.456 -2.701 0.043
1.457 -2.648 0.043
1.48 -2.637 0.034
1.475 -2.576 0.036
1.478 -2.532 0.034
1.473 -2.475 0.036
1.478 -2.435 0.034
1.439 -2.324 0.05
1.449 -2.297 0.046
1.434 -2.229 0.052
1.442 -2.201 0.049
1.438 -2.154 0.05
1.444 -2.124 0.048
1.444 -2.086 0.048
1.441 -2.043 0.049
1.432 -1.993 0.053
1.437 -1.964 0.051
1.439 -1.931 0.05
1.445 -1.906 0.048
1.445 -1.872 0.047
1.446 -1.84 0.047
1.439 -1.799 0.05
1.443 -1.773 0.048
1.441 -1.739 0.049
1.445 -1.713 0.048
1.439 -1.677 0.05
1.448 -1.657 0.046
1.442 -1.622 0.049
1.451 -1.605 0.045
1.446 -1.571 0.047
1.447 -1.545 0.047
1.446 -1.517 0.047
1.457 -1.502 0.043
1.451 -1.471 0.045
1.453 -1.446 0.045
1.454 -1.423 0.044
1.459 -1.403 0.042
1.453 -1.372 0.044
1.458 -1.353 0.043
1.448 -1.321 0.046
1.447 -1.296 0.047
1.454 -1.28 0.044
1.449 -1.253 0.046
1.454 -1.235 0.044
1.454 -1.214 0.044
1.453 -1.191 0.045
1.453 -1.169 0.044
1.452 -1.148 0.045
1.455 -1.13 0.044
1.452 -1.107 0.045
1.46 -1.093 0.041
1.447 -1.063 0.047
1.462 -1.054 0.041
1.456 -1.031 0.043
1.46 -1.014 0.042
1.455 -0.991 0.044
1.46 -0.976 0.041
1.46 -0.958 0.041
1.457 -0.937 0.043
1.452 -0.915 0.045
1.459 -0.902 0.042
1.458 -0.883 0.042
1.462 -0.868 0.041
1.457 -0.847 0.043
1.464 -0.834 0.04
1.456 -0.812 0.043
1.461 -0.798 0.041
1.451 -0.776 0.045
1.448 -0.758 0.046
1.45 -0.742 0.046
1.457 -0.729 0.043
1.455 -0.712 0.044
1.457 -0.697 0.043
1.454 -0.679 0.044
1.453 -0.663 0.044
1.459 -0.65 0.042
1.456 -0.633 0.043
1.458 -0.618 0.042
1.459 -0.603 0.042
1.454 -0.586 0.044
1.458 -0.572 0.042
1.458 -0.557 0.042
1.462 -0.543 0.041
1.457 -0.526 0.043
1.459 -0.512 0.042
1.453 -0.495 0.044
1.462 -0.484 0.041
1.453 -0.466 0.044
1.456 -0.452 0.043
1.451 -0.437 0.045
1.464 -0.426 0.04
1.454 -0.409 0.044
1.458 -0.396 0.042
1.453 -0.38 0.044
1.459 -0.368 0.042
1.448 -0.351 0.046
1.454 -0.338 0.044
1.448 -0.323 0.046
1.453 -0.31 0.044
1.451 -0.296 0.045
1.455 -0.283 0.043
1.461 -0.27 0.041
1.453 -0.255 0.044
1.451 -0.241 0.045
1.465 -0.23 0.039
1.454 -0.214 0.044
1.462 -0.202 0.041
1.455 -0.187 0.044
1.456 -0.174 0.043
1.461 -0.161 0.041
1.46 -0.148 0.042
1.455 -0.134 0.043
1.455 -0.12 0.044
1.457 -0.107 0.043
1.462 -0.094 0.041
1.457 -0.08 0.043
1.457 -0.067 0.043
1.453 -0.053 0.044
1.457 -0.04 0.043
1.451 -0.027 0.045
1.458 -0.013 0.042
1.454 -0 0.044
1.454 0.013 0.044
1.456 0.027 0.043
1.457 0.04 0.043
