# .PCD v0.7 - Point Cloud Data file format
VERSION 0.7
FIELDS x y z
SIZE 4 4 4
TYPE F F F
COUNT 1 1 1
WIDTH 2508
HEIGHT 1
VIEWPOINT 0 0 0 1 0 0 0
POINTS 2508
DATA ascii
3.348 2.571 3.315
3.331 2.609 3.302
3.31 2.644 3.285
3.299 2.686 3.276
3.277 2.72 3.258
3.259 2.757 3.243
3.24 2.793 3.228
3.222 2.83 3.213
3.204 2.867 3.199
3.185 2.903 3.184
3.17 2.943 3.172
3.15 2.978 3.156
1.654 1.588 1.955
1.631 1.594 1.936
1.62 1.612 1.928
1.616 1.637 1.924
1.155 1.188 1.554
1.069 1.119 1.486
1.062 1.131 1.479
1.054 1.142 1.473
1.052 1.161 1.472
1.044 1.172 1.465
1.036 1.184 1.459
1.034 1.202 1.457
1.026 1.213 1.45
1.017 1.225 1.444
1.009 1.236 1.437
1.006 1.254 1.435
0.997 1.265 1.428
0.989 1.276 1.421
0.98 1.287 1.414
0.976 1.304 1.411
0.973 1.323 1.408
0.965 1.334 1.401
0.928 1.306 1.372
0.907 1.299 1.355
0.94 1.37 1.381
0.932 1.382 1.375
0.922 1.393 1.367
0.917 1.41 1.363
0.908 1.42 1.356
0.903 1.438 1.352
0.927 1.503 1.371
0.898 1.482 1.348
0.873 1.467 1.328
0.864 1.478 1.321
0.86 1.499 1.318
0.853 1.513 1.312
0.843 1.524 1.304
0.837 1.542 1.299
0.827 1.551 1.291
0.82 1.567 1.285
0.813 1.584 1.28
0.808 1.605 1.276
0.797 1.612 1.266
0.79 1.631 1.262
0.783 1.648 1.256
0.779 1.672 1.252
0.771 1.688 1.246
0.759 1.696 1.237
0.278 0.617 0.85
0.263 0.594 0.838
0.258 0.597 0.834
0.254 0.6 0.831
0.241 0.579 0.821
0.234 0.575 0.815
0.236 0.591 0.816
0.245 0.629 0.824
0 0 0
0 0 0
0.246 0.677 0.824
0.242 0.68 0.821
0.262 0.758 0.837
0 0 0
0.191 0.571 0.78
0.195 0.6 0.784
0.189 0.596 0.779
0.186 0.6 0.776
0.182 0.602 0.773
0.181 0.615 0.772
0.179 0.625 0.771
0.175 0.627 0.767
0.17 0.629 0.764
0.168 0.64 0.762
0.164 0.644 0.759
0.162 0.653 0.757
0.158 0.658 0.754
0.157 0.675 0.753
0.145 0.64 0.743
0.143 0.656 0.742
0.145 0.689 0.743
0.14 0.69 0.74
0.137 0.703 0.737
0.135 0.719 0.736
0.131 0.725 0.732
0.124 0.711 0.726
0.118 0.707 0.722
0.11 0.688 0.716
0.104 0.68 0.711
0.1 0.681 0.707
0.094 0.673 0.702
0.088 0.664 0.698
0.084 0.664 0.694
0.079 0.665 0.691
0.074 0.656 0.686
0.069 0.657 0.683
0.064 0.645 0.678
0.06 0.649 0.675
0.055 0.639 0.671
0.051 0.647 0.668
0.046 0.637 0.664
0.042 0.644 0.66
0.037 0.644 0.657
0.033 0.634 0.653
0.028 0.626 0.649
0.024 0.615 0.646
0.019 0.597 0.642
0.015 0.567 0.639
0.011 0.522 0.636
0.011 -0.097 0.636
0.025 -2.09 0.647
0.04 -2.119 0.659
0.055 -2.149 0.671
0.07 -2.171 0.684
0.085 -2.193 0.696
0.101 -2.222 0.709
0.118 -2.252 0.723
0.135 -2.281 0.736
0.152 -2.31 0.75
0.171 -2.353 0.766
0.19 -2.394 0.781
0.121 -1.355 0.726
0.123 -1.265 0.727
0.13 -1.249 0.732
0.128 -1.149 0.731
0.137 -1.154 0.738
0.141 -1.123 0.742
0.148 -1.115 0.747
0.156 -1.116 0.754
0.162 -1.107 0.759
0.149 -0.961 0.748
0.149 -0.915 0.748
0.157 -0.926 0.755
0.163 -0.92 0.759
0.168 -0.913 0.763
0.172 -0.896 0.766
0.177 -0.891 0.771
0.184 -0.897 0.777
0.19 -0.892 0.781
0.533 -2.51 1.06
0.531 -2.416 1.058
0.495 -2.174 1.029
0.573 -2.444 1.092
0.591 -2.442 1.106
0.605 -2.428 1.118
0.623 -2.424 1.132
0.637 -2.408 1.143
0.653 -2.401 1.157
0.669 -2.391 1.169
0.682 -2.376 1.181
0.698 -2.368 1.194
0.716 -2.365 1.208
0.731 -2.354 1.22
0.761 -2.391 1.244
0.852 -2.614 1.318
0.926 -2.776 1.378
0.963 -2.82 1.408
1.043 -2.986 1.473
1.132 -3.168 1.545
1.225 -3.353 1.621
2.429 -6.527 2.597
2.457 -6.457 2.62
2.483 -6.384 2.641
2.506 -6.306 2.66
2.527 -6.223 2.677
2.55 -6.15 2.696
2.576 -6.084 2.717
2.6 -6.014 2.736
2.621 -5.941 2.753
2.735 -6.076 2.846
3.131 -6.822 3.167
3.178 -6.786 3.205
3.223 -6.75 3.242
3.273 -6.722 3.282
3.317 -6.681 3.317
3.363 -6.646 3.355
3.409 -6.61 3.392
3.453 -6.572 3.428
3.502 -6.541 3.468
3.546 -6.502 3.504
3.595 -6.471 3.543
3.639 -6.43 3.579
3.682 -6.389 3.614
3.73 -6.356 3.653
3.778 -6.321 3.692
3.821 -6.279 3.726
3.868 -6.244 3.765
3.915 -6.209 3.803
3.962 -6.172 3.841
4.009 -6.135 3.879
4.056 -6.098 3.917
4.102 -6.06 3.955
4.154 -6.03 3.997
4.199 -5.99 4.033
4.246 -5.951 4.071
4.297 -5.918 4.112
4.341 -5.876 4.148
4.393 -5.842 4.19
4.442 -5.807 4.231
4.488 -5.764 4.267
4.539 -5.729 4.309
4.526 -5.615 4.299
4.322 -5.268 4.133
4.501 -5.392 4.278
4.555 -5.361 4.322
4.604 -5.325 4.361
4.651 -5.286 4.4
4.699 -5.247 4.438
4.746 -5.207 4.477
4.8 -5.174 4.521
4.846 -5.133 4.558
4.898 -5.096 4.6
4.952 -5.06 4.644
5.04 -5.06 4.715
5.243 -5.17 4.88
5.303 -5.135 4.928
5.357 -5.093 4.972
5.409 -5.05 5.015
5.462 -5.007 5.058
5.514 -4.962 5.1
5.573 -4.923 5.148
5.625 -4.876 5.19
5.682 -4.833 5.236
5.738 -4.789 5.282
5.756 -4.713 5.296
5.787 -4.647 5.321
5.749 -4.527 5.29
5.785 -4.467 5.32
5.754 -4.356 5.295
5.79 -4.296 5.324
5.77 -4.196 5.308
5.782 -4.119 5.318
5.751 -4.013 5.292
5.779 -3.949 5.315
5.751 -3.848 5.292
5.778 -3.784 5.314
5.752 -3.686 5.293
5.784 -3.626 5.319
5.757 -3.529 5.297
5.785 -3.467 5.319
5.749 -3.367 5.291
5.78 -3.308 5.316
5.748 -3.212 5.29
5.79 -3.159 5.324
5.776 -3.075 5.312
5.95 -3.09 5.453
6.286 -3.183 5.726
6.23 -3.074 5.681
6.13 -2.946 5.6
6.031 -2.821 5.519
1.834 -0.832 2.115
1.814 -0.799 2.098
1.82 -0.779 2.103
1.812 -0.754 2.097
1.804 -0.728 2.09
1.793 -0.702 2.082
1.79 -0.679 2.079
1.787 -0.656 2.076
1.792 -0.636 2.081
1.788 -0.613 2.077
1.785 -0.591 2.075
1.789 -0.571 2.078
1.785 -0.548 2.075
1.797 -0.531 2.084
1.799 -0.511 2.087
1.802 -0.49 2.089
1.812 -0.472 2.097
1.815 -0.452 2.1
1.828 -0.434 2.11
1.84 -0.415 2.119
1.852 -0.397 2.13
5.195 -1.057 4.841
5.152 -0.989 4.806
5.124 -0.925 4.783
5.085 -0.86 4.752
5.057 -0.798 4.729
5.023 -0.735 4.702
4.996 -0.675 4.68
4.961 -0.614 4.651
4.946 -0.556 4.639
4.92 -0.498 4.618
4.882 -0.439 4.587
4.851 -0.381 4.562
4.821 -0.325 4.538
4.806 -0.27 4.525
4.765 -0.214 4.492
4.733 -0.159 4.466
4.699 -0.105 4.438
4.676 -0.052 4.42
4.649 -0 4.398
4.628 0.052 4.381
4.601 0.103 4.359
4.578 0.154 4.341
4.55 0.204 4.318
4.524 0.254 4.297
4.495 0.303 4.273
4.472 0.351 4.255
4.445 0.399 4.232
4.428 0.448 4.219
4.394 0.494 4.191
4.376 0.541 4.177
4.352 0.588 4.158
4.326 0.633 4.136
4.307 0.679 4.12
4.287 0.725 4.104
4.258 0.769 4.081
4.238 0.814 4.065
4.217 0.858 4.047
4.197 0.902 4.031
4.173 0.945 4.012
4.163 0.991 4.004
4.136 1.032 3.982
4.1 1.071 3.953
4.089 1.116 3.944
4.066 1.158 3.925
4.042 1.198 3.906
4.027 1.241 3.893
4.001 1.281 3.872
3.985 1.323 3.859
3.962 1.363 3.841
3.947 1.405 3.828
3.92 1.444 3.807
3.903 1.485 3.793
3.885 1.525 3.779
3.86 1.563 3.758
3.842 1.603 3.744
3.824 1.643 3.729
3.801 1.68 3.71
3.781 1.719 3.694
3.755 1.755 3.673
3.744 1.797 3.664
3.725 1.836 3.649
3.705 1.874 3.633
3.686 1.912 3.617
3.666 1.949 3.601
3.645 1.986 3.583
3.625 2.023 3.567
3.606 2.061 3.552
3.592 2.102 3.541
3.571 2.138 3.524
3.549 2.173 3.506
3.529 2.209 3.49
3.509 2.246 3.473
3.496 2.287 3.463
3.47 2.318 3.442
3.448 2.353 3.424
3.431 2.391 3.41
3.41 2.426 3.394
3.394 2.465 3.38
3.376 2.502 3.365
3.359 2.54 3.352
3.342 2.577 3.338
3.319 2.61 3.319
3.305 2.65 3.308
3.287 2.688 3.293
3.269 2.724 3.279
3.25 2.761 3.264
3.233 2.799 3.25
3.208 2.83 3.23
3.192 2.868 3.216
3.177 2.908 3.204
3.158 2.944 3.189
3.137 2.979 3.172
1.703 1.642 2.008
1.631 1.601 1.95
1.613 1.612 1.935
1.615 1.643 1.937
1.143 1.181 1.554
1.071 1.125 1.496
1.057 1.131 1.485
1.056 1.149 1.483
1.048 1.161 1.477
1.04 1.172 1.47
1.032 1.184 1.464
1.029 1.202 1.462
1.021 1.213 1.455
1.013 1.225 1.449
1.005 1.236 1.442
0.996 1.247 1.435
0.993 1.265 1.433
0.985 1.276 1.426
0.976 1.287 1.419
0.972 1.304 1.416
0.968 1.322 1.412
0.961 1.335 1.407
0.931 1.316 1.382
0.913 1.313 1.368
0.935 1.368 1.385
0.932 1.389 1.383
0.923 1.4 1.376
0.913 1.41 1.368
0.904 1.42 1.36
0.904 1.445 1.36
0.922 1.502 1.375
0.894 1.482 1.352
0.868 1.465 1.331
0.86 1.478 1.325
0.856 1.497 1.321
0.848 1.511 1.315
0.838 1.522 1.307
0.833 1.539 1.302
0.826 1.557 1.297
0.815 1.564 1.288
0.809 1.583 1.284
0.803 1.601 1.278
0.796 1.619 1.273
0.789 1.635 1.267
0.781 1.651 1.261
0.772 1.663 1.253
0.768 1.688 1.25
0.757 1.697 1.241
0.271 0.604 0.847
0.264 0.599 0.841
0.253 0.586 0.832
0.252 0.597 0.832
0.237 0.572 0.819
0.232 0.57 0.815
0.233 0.587 0.816
0.232 0.597 0.815
0.263 0.695 0.84
0 0 0
0.255 0.706 0.834
0.246 0.696 0.826
0 0 0
0 0 0
0.189 0.568 0.781
0.194 0.597 0.784
0.189 0.597 0.78
0.185 0.6 0.777
0.184 0.612 0.776
0.18 0.615 0.773
0.178 0.625 0.771
0.174 0.627 0.768
0.172 0.638 0.766
0.168 0.641 0.763
0.164 0.644 0.76
0.161 0.654 0.758
0.158 0.659 0.755
0.154 0.667 0.752
0.142 0.632 0.742
0.141 0.649 0.742
0.146 0.697 0.745
0.139 0.688 0.74
0.137 0.702 0.738
0.134 0.717 0.736
0.13 0.724 0.733
0.125 0.72 0.728
0.117 0.706 0.722
0.11 0.688 0.716
0.104 0.68 0.711
0.098 0.672 0.707
0.094 0.673 0.703
0.089 0.674 0.699
0.083 0.664 0.695
0.079 0.665 0.691
0.073 0.656 0.687
0.069 0.657 0.683
0.064 0.647 0.679
0.059 0.649 0.675
0.054 0.64 0.671
0.05 0.639 0.668
0.045 0.637 0.664
0.041 0.635 0.66
0.037 0.634 0.657
0.032 0.633 0.653
0.028 0.624 0.65
0.023 0.615 0.646
0.019 0.597 0.642
0.015 0.567 0.639
0.011 0.493 0.636
0.011 -0.097 0.636
0.025 -2.09 0.648
0.039 -2.119 0.659
0.054 -2.139 0.672
0.069 -2.172 0.684
0.084 -2.183 0.697
0.1 -2.222 0.71
0.117 -2.252 0.723
0.134 -2.28 0.737
0.151 -2.309 0.751
0.169 -2.35 0.767
0.102 -1.226 0.711
0.118 -1.328 0.725
0.121 -1.252 0.727
0.129 -1.247 0.733
0.126 -1.132 0.731
0.134 -1.142 0.738
0.139 -1.113 0.742
0.146 -1.11 0.748
0.154 -1.109 0.754
0.156 -1.069 0.756
0.146 -0.949 0.748
0.15 -0.927 0.75
0.155 -0.917 0.755
0.161 -0.918 0.76
0.165 -0.905 0.763
0.171 -0.897 0.768
0.176 -0.892 0.772
0.181 -0.885 0.776
0.19 -0.897 0.783
0.532 -2.522 1.065
0.538 -2.464 1.07
0.513 -2.271 1.05
0.572 -2.456 1.098
0.588 -2.445 1.111
0.602 -2.429 1.123
0.619 -2.424 1.137
0.634 -2.415 1.15
0.649 -2.401 1.161
0.664 -2.391 1.174
0.68 -2.384 1.188
0.695 -2.37 1.199
0.71 -2.362 1.212
0.726 -2.352 1.225
0.755 -2.387 1.249
0.84 -2.595 1.319
0.91 -2.744 1.376
0.953 -2.809 1.412
1.03 -2.967 1.476
1.117 -3.146 1.547
1.209 -3.33 1.623
2.418 -6.537 2.618
2.442 -6.458 2.638
2.468 -6.385 2.66
2.491 -6.306 2.678
2.515 -6.231 2.698
2.535 -6.15 2.715
2.561 -6.086 2.736
2.584 -6.013 2.755
2.606 -5.942 2.773
2.706 -6.048 2.856
3.112 -6.822 3.19
3.158 -6.786 3.228
3.208 -6.759 3.269
3.251 -6.718 3.305
3.298 -6.684 3.343
3.343 -6.647 3.38
3.392 -6.619 3.421
3.437 -6.58 3.457
3.481 -6.541 3.494
3.525 -6.502 3.53
3.573 -6.471 3.57
3.617 -6.43 3.606
3.665 -6.397 3.645
3.708 -6.356 3.68
3.755 -6.321 3.719
3.797 -6.279 3.754
3.85 -6.252 3.797
3.892 -6.209 3.832
3.943 -6.18 3.874
3.985 -6.135 3.908
4.036 -6.105 3.951
4.083 -6.069 3.989
4.129 -6.03 4.027
4.174 -5.99 4.064
4.225 -5.958 4.106
4.271 -5.918 4.144
4.321 -5.884 4.185
4.371 -5.849 4.226
4.415 -5.807 4.263
4.465 -5.771 4.304
4.517 -5.736 4.347
4.525 -5.647 4.353
4.425 -5.426 4.271
4.48 -5.399 4.317
4.528 -5.362 4.356
4.575 -5.324 4.395
4.623 -5.286 4.434
4.676 -5.254 4.478
4.724 -5.214 4.517
4.77 -5.174 4.555
4.823 -5.139 4.599
4.869 -5.096 4.637
4.922 -5.06 4.68
5.003 -5.053 4.747
5.217 -5.176 4.924
5.27 -5.134 4.967
5.324 -5.093 5.012
5.376 -5.05 5.055
5.435 -5.012 5.103
5.487 -4.968 5.146
5.54 -4.923 5.189
5.596 -4.881 5.236
5.632 -4.82 5.265
5.671 -4.762 5.297
5.638 -4.644 5.27
5.66 -4.573 5.288
5.639 -4.468 5.271
5.668 -4.404 5.295
5.649 -4.302 5.279
5.668 -4.231 5.295
5.641 -4.127 5.272
5.685 -4.074 5.308
5.643 -3.961 5.274
5.669 -3.898 5.296
5.638 -3.795 5.27
5.664 -3.732 5.292
5.646 -3.64 5.277
5.677 -3.58 5.302
5.646 -3.482 5.277
5.671 -3.419 5.297
5.639 -3.323 5.27
5.66 -3.258 5.288
5.635 -3.168 5.268
5.665 -3.109 5.292
5.646 -3.024 5.277
5.694 -2.975 5.316
5.657 -2.881 5.285
6.197 -3.076 5.73
6.147 -2.972 5.689
6.015 -2.831 5.581
6.052 -2.771 5.611
1.821 -0.807 2.127
1.809 -0.779 2.116
1.812 -0.758 2.12
1.8 -0.731 2.11
1.79 -0.705 2.101
1.779 -0.679 2.092
1.783 -0.658 2.096
1.782 -0.636 2.094
1.779 -0.614 2.092
1.774 -0.591 2.088
1.778 -0.571 2.092
1.774 -0.548 2.088
1.786 -0.531 2.098
1.788 -0.511 2.1
1.799 -0.492 2.108
1.807 -0.473 2.115
1.809 -0.453 2.117
1.814 -0.433 2.121
1.813 -0.412 2.12
5.194 -1.124 4.904
5.166 -1.058 4.882
5.133 -0.992 4.854
5.103 -0.927 4.83
5.06 -0.861 4.794
5.046 -0.801 4.783
5.002 -0.737 4.746
4.98 -0.677 4.728
4.954 -0.617 4.707
4.915 -0.556 4.674
4.894 -0.498 4.658
4.859 -0.439 4.628
4.83 -0.382 4.605
4.796 -0.325 4.577
4.774 -0.269 4.559
4.742 -0.214 4.532
4.712 -0.159 4.508
4.675 -0.105 4.477
4.654 -0.052 4.459
4.626 -0 4.437
4.603 0.052 4.418
4.582 0.103 4.401
4.55 0.154 4.374
4.523 0.204 4.352
4.505 0.254 4.337
4.476 0.303 4.313
4.451 0.352 4.293
4.423 0.4 4.27
4.4 0.448 4.251
4.375 0.495 4.23
4.356 0.542 4.214
4.333 0.588 4.195
4.306 0.634 4.174
4.288 0.68 4.159
4.261 0.725 4.136
4.24 0.77 4.119
4.219 0.815 4.101
4.191 0.858 4.078
4.171 0.902 4.062
4.155 0.947 4.049
4.137 0.991 4.034
4.118 1.034 4.019
4.085 1.074 3.991
4.064 1.116 3.974
4.048 1.159 3.961
4.026 1.201 3.943
4.003 1.242 3.924
3.985 1.284 3.909
3.962 1.324 3.89
3.939 1.363 3.871
3.923 1.405 3.857
3.897 1.444 3.836
3.879 1.485 3.822
3.863 1.526 3.808
3.846 1.566 3.794
3.82 1.603 3.773
3.803 1.644 3.759
3.777 1.68 3.737
3.767 1.723 3.729
3.741 1.759 3.707
3.722 1.798 3.692
3.702 1.836 3.676
3.681 1.873 3.659
3.663 1.912 3.644
3.644 1.949 3.628
3.624 1.987 3.611
3.611 2.028 3.601
3.591 2.065 3.584
3.571 2.102 3.568
3.55 2.138 3.551
3.535 2.178 3.539
3.515 2.214 3.522
3.494 2.25 3.505
3.482 2.291 3.495
3.449 2.318 3.467
3.432 2.357 3.454
3.417 2.396 3.441
3.395 2.43 3.423
3.379 2.469 3.41
3.363 2.507 3.396
3.34 2.54 3.377
3.322 2.577 3.363
3.305 2.616 3.349
3.288 2.653 3.335
3.269 2.689 3.319
3.249 2.724 3.303
3.231 2.761 3.288
3.208 2.794 3.269
3.195 2.835 3.258
3.178 2.873 3.244
3.157 2.908 3.227
3.139 2.944 3.212
3.123 2.984 3.199
1.692 1.641 2.02
1.621 1.601 1.962
1.611 1.62 1.954
1.604 1.642 1.948
1.129 1.174 1.557
1.058 1.119 1.499
1.051 1.131 1.492
1.049 1.149 1.491
1.041 1.161 1.485
1.039 1.179 1.483
1.031 1.19 1.476
1.023 1.202 1.47
1.014 1.213 1.463
1.007 1.225 1.456
0.998 1.235 1.449
0.99 1.247 1.443
0.982 1.258 1.436
0.979 1.276 1.433
0.97 1.287 1.426
0.966 1.304 1.423
0.962 1.322 1.419
0.956 1.336 1.414
0.917 1.304 1.382
0.929 1.345 1.392
0.933 1.374 1.395
0.924 1.385 1.388
0.917 1.4 1.382
0.908 1.41 1.375
0.903 1.428 1.371
0.898 1.445 1.367
0.921 1.51 1.386
0.888 1.482 1.359
0.864 1.467 1.339
0.854 1.477 1.331
0.85 1.497 1.327
0.843 1.513 1.322
0.832 1.52 1.313
0.827 1.539 1.309
0.82 1.555 1.303
0.814 1.573 1.298
0.804 1.583 1.29
0.798 1.602 1.285
0.791 1.618 1.279
0.785 1.636 1.273
0.777 1.653 1.267
0.768 1.666 1.26
0.763 1.689 1.256
0.752 1.697 1.246
0.735 1.694 1.233
0.265 0.607 0.846
0.252 0.587 0.834
0.247 0.587 0.83
0.238 0.579 0.824
0.23 0.569 0.816
0.229 0.58 0.816
0.227 0.588 0.814
0.242 0.643 0.826
0 0 0
0.254 0.708 0.836
0.25 0.713 0.833
0 0 0
0 0 0
0.186 0.563 0.78
0.193 0.6 0.786
0.187 0.597 0.781
0.184 0.601 0.779
0.183 0.614 0.778
0.179 0.615 0.774
0.177 0.625 0.773
0.172 0.627 0.769
0.171 0.638 0.768
0.166 0.64 0.764
0.162 0.644 0.761
0.16 0.653 0.759
0.157 0.661 0.756
0.154 0.672 0.754
0.141 0.633 0.744
0.143 0.664 0.745
0.143 0.688 0.745
0.14 0.698 0.742
0.135 0.7 0.739
0.133 0.717 0.737
0.129 0.724 0.734
0.122 0.709 0.728
0.116 0.705 0.723
0.108 0.678 0.716
0.103 0.68 0.712
0.097 0.672 0.707
0.093 0.673 0.704
0.087 0.664 0.699
0.083 0.664 0.695
0.078 0.665 0.692
0.073 0.656 0.687
0.067 0.647 0.683
0.064 0.657 0.68
0.059 0.648 0.676
0.054 0.639 0.671
0.05 0.647 0.668
0.045 0.637 0.664
0.041 0.635 0.661
0.036 0.634 0.657
0.032 0.632 0.653
0.027 0.625 0.65
0.023 0.615 0.646
0.019 0.597 0.643
0.014 0.567 0.639
0.011 0.513 0.636
0.01 -0.093 0.636
0.024 -2.09 0.648
0.039 -2.119 0.66
0.053 -2.139 0.672
0.069 -2.172 0.685
0.083 -2.183 0.697
0.1 -2.224 0.711
0.116 -2.252 0.724
0.133 -2.28 0.738
0.15 -2.309 0.753
0.168 -2.355 0.768
0.102 -1.243 0.713
0.116 -1.307 0.724
0.12 -1.25 0.727
0.127 -1.24 0.734
0.124 -1.121 0.731
0.132 -1.128 0.738
0.137 -1.104 0.742
0.144 -1.102 0.748
0.154 -1.122 0.756
0.153 -1.058 0.756
0.145 -0.944 0.748
0.15 -0.935 0.752
0.154 -0.922 0.756
0.159 -0.912 0.76
0.163 -0.899 0.764
0.169 -0.897 0.769
0.174 -0.889 0.773
0.177 -0.869 0.775
0.685 -3.402 1.2
0.532 -2.537 1.072
0.537 -2.474 1.076
0.556 -2.479 1.092
0.569 -2.458 1.103
0.583 -2.442 1.115
0.598 -2.428 1.127
0.614 -2.422 1.141
0.63 -2.415 1.154
0.645 -2.401 1.166
0.66 -2.391 1.179
0.674 -2.376 1.19
0.689 -2.366 1.203
0.706 -2.362 1.217
0.721 -2.35 1.23
0.748 -2.381 1.253
0.83 -2.578 1.321
0.897 -2.724 1.377
0.945 -2.803 1.417
1.024 -2.967 1.483
1.111 -3.148 1.556
1.198 -3.318 1.628
2.403 -6.537 2.636
2.43 -6.466 2.658
2.453 -6.385 2.677
2.475 -6.305 2.696
2.5 -6.232 2.716
2.523 -6.159 2.736
2.55 -6.096 2.759
2.568 -6.014 2.774
2.593 -5.95 2.795
2.682 -6.03 2.868
3.097 -6.83 3.216
3.143 -6.795 3.254
3.188 -6.759 3.292
3.233 -6.721 3.329
3.279 -6.686 3.367
3.323 -6.648 3.404
3.368 -6.61 3.442
3.416 -6.58 3.482
3.46 -6.541 3.519
3.508 -6.511 3.559
3.552 -6.471 3.596
3.595 -6.43 3.632
3.643 -6.397 3.671
3.69 -6.364 3.711
3.732 -6.321 3.746
3.78 -6.288 3.786
3.826 -6.252 3.825
3.873 -6.216 3.864
3.919 -6.18 3.903
3.966 -6.144 3.942
4.012 -6.106 3.98
4.058 -6.069 4.019
4.104 -6.03 4.057
4.154 -5.998 4.099
4.2 -5.958 4.137
4.249 -5.924 4.178
4.295 -5.884 4.216
4.344 -5.849 4.258
4.394 -5.814 4.3
4.438 -5.771 4.336
4.489 -5.736 4.379
4.514 -5.668 4.4
4.413 -5.445 4.315
4.459 -5.406 4.354
4.506 -5.369 4.393
4.553 -5.331 4.433
4.595 -5.286 4.468
4.648 -5.254 4.512
4.695 -5.214 4.551
4.742 -5.174 4.59
4.794 -5.139 4.634
4.846 -5.103 4.677
4.897 -5.066 4.72
4.972 -5.052 4.783
5.192 -5.182 4.966
5.246 -5.141 5.011
5.298 -5.099 5.055
5.351 -5.057 5.099
5.403 -5.013 5.142
5.454 -4.968 5.185
5.502 -4.919 5.225
5.548 -4.868 5.264
5.532 -4.763 5.25
5.551 -4.689 5.266
5.52 -4.575 5.241
5.55 -4.511 5.265
5.534 -4.411 5.252
5.561 -4.346 5.275
5.532 -4.239 5.251
5.56 -4.175 5.274
5.529 -4.069 5.248
5.566 -4.013 5.279
5.54 -3.913 5.257
5.566 -3.85 5.279
5.542 -3.753 5.259
5.567 -3.69 5.28
5.541 -3.594 5.258
5.555 -3.525 5.27
5.525 -3.428 5.244
5.55 -3.366 5.265
5.524 -3.275 5.244
5.552 -3.215 5.267
5.532 -3.129 5.251
5.554 -3.066 5.268
5.544 -2.987 5.261
5.577 -2.931 5.288
5.537 -2.837 5.254
5.574 -2.783 5.285
5.54 -2.694 5.257
6.074 -2.876 5.704
6.034 -2.78 5.67
5.974 -2.676 5.62
1.817 -0.788 2.146
1.797 -0.756 2.129
1.8 -0.735 2.131
1.778 -0.704 2.113
1.776 -0.682 2.112
1.774 -0.659 2.11
1.764 -0.634 2.102
1.762 -0.612 2.1
1.766 -0.592 2.103
1.767 -0.571 2.104
1.771 -0.551 2.108
1.774 -0.531 2.11
1.785 -0.513 2.119
1.794 -0.494 2.127
1.805 -0.476 2.136
1.802 -0.454 2.133
1.792 -0.43 2.125
5.247 -1.203 5.012
5.199 -1.132 4.972
5.148 -1.06 4.929
5.118 -0.995 4.904
5.08 -0.929 4.873
5.053 -0.865 4.85
5.013 -0.801 4.817
4.994 -0.74 4.801
4.957 -0.678 4.77
4.928 -0.617 4.745
4.896 -0.557 4.719
4.871 -0.499 4.698
4.84 -0.44 4.672
4.814 -0.383 4.65
4.78 -0.326 4.622
4.753 -0.27 4.599
4.719 -0.214 4.571
4.693 -0.16 4.549
4.66 -0.106 4.522
4.629 -0.053 4.496
4.605 -0 4.476
4.583 0.052 4.457
4.555 0.103 4.434
4.531 0.154 4.414
4.503 0.204 4.39
4.478 0.254 4.37
4.456 0.304 4.351
4.432 0.352 4.331
4.41 0.401 4.313
4.38 0.448 4.288
4.356 0.495 4.268
4.337 0.543 4.252
4.308 0.589 4.227
4.289 0.635 4.212
4.262 0.68 4.189
4.242 0.726 4.173
4.221 0.771 4.155
4.194 0.815 4.132
4.173 0.859 4.115
4.153 0.903 4.098
4.13 0.947 4.079
4.12 0.993 4.07
4.093 1.034 4.048
4.059 1.073 4.019
4.045 1.118 4.008
4.023 1.159 3.989
4.001 1.201 3.971
3.986 1.244 3.959
3.962 1.284 3.938
3.938 1.324 3.918
3.916 1.364 3.9
3.9 1.406 3.886
3.881 1.447 3.871
3.865 1.488 3.857
3.839 1.526 3.836
3.822 1.566 3.822
3.798 1.604 3.801
3.78 1.644 3.787
3.762 1.684 3.771
3.744 1.723 3.756
3.724 1.762 3.74
3.706 1.801 3.724
3.687 1.839 3.708
3.668 1.878 3.693
3.649 1.916 3.677
3.629 1.954 3.66
3.61 1.991 3.644
3.589 2.028 3.626
3.575 2.068 3.615
3.549 2.102 3.593
3.535 2.142 3.581
3.514 2.178 3.564
3.494 2.214 3.547
3.48 2.255 3.536
3.461 2.291 3.52
3.434 2.323 3.497
3.413 2.358 3.48
3.396 2.396 3.466
3.379 2.433 3.451
3.364 2.472 3.438
3.342 2.507 3.42
3.325 2.545 3.406
3.302 2.577 3.386
3.286 2.616 3.373
3.268 2.653 3.358
3.251 2.69 3.344
3.231 2.726 3.328
3.213 2.762 3.312
3.194 2.798 3.296
3.175 2.834 3.28
3.158 2.872 3.267
3.139 2.908 3.25
3.125 2.949 3.239
3.103 2.982 3.221
1.675 1.635 2.027
1.611 1.601 1.974
1.601 1.62 1.965
1.594 1.642 1.96
1.112 1.162 1.556
1.058 1.125 1.511
1.05 1.137 1.505
1.043 1.149 1.499
1.035 1.161 1.492
1.032 1.178 1.49
1.019 1.184 1.479
1.017 1.202 1.477
1.008 1.213 1.47
1.001 1.225 1.463
0.998 1.243 1.461
0.989 1.254 1.454
0.981 1.265 1.447
0.973 1.276 1.44
0.964 1.287 1.433
0.96 1.304 1.43
0.957 1.323 1.427
0.949 1.335 1.421
0.91 1.303 1.388
0.931 1.356 1.405
0.926 1.373 1.401
0.921 1.39 1.397
0.907 1.393 1.385
0.902 1.41 1.381
0.898 1.428 1.378
0.893 1.445 1.373
0.915 1.51 1.392
0.883 1.482 1.365
0.859 1.467 1.345
0.848 1.475 1.336
0.845 1.497 1.333
0.838 1.513 1.328
0.827 1.52 1.319
0.822 1.539 1.314
0.815 1.555 1.309
0.81 1.574 1.304
0.804 1.592 1.299
0.793 1.602 1.29
0.786 1.618 1.284
0.779 1.635 1.279
0.773 1.653 1.273
0.764 1.668 1.266
0.755 1.681 1.258
0.748 1.698 1.252
0.732 1.697 1.239
0.262 0.604 0.846
0.253 0.595 0.839
0.243 0.584 0.831
0.241 0.591 0.829
0.229 0.572 0.819
0.222 0.565 0.813
0.222 0.578 0.813
0.224 0.596 0.814
0.246 0.673 0.833
0.251 0.703 0.837
0 0 0
0 0 0
0 0 0
0.185 0.564 0.782
0.193 0.606 0.789
0.187 0.598 0.783
0.183 0.602 0.78
0.182 0.614 0.779
0.178 0.616 0.776
0.173 0.616 0.772
0.171 0.627 0.77
0.169 0.638 0.769
0.165 0.641 0.766
0.164 0.653 0.764
0.159 0.654 0.76
0.154 0.653 0.756
0.153 0.673 0.756
0.142 0.638 0.746
0.14 0.653 0.744
0.142 0.686 0.746
0.137 0.686 0.742
0.134 0.7 0.74
0.132 0.717 0.738
0.128 0.724 0.735
0.121 0.709 0.729
0.114 0.695 0.723
0.107 0.678 0.717
0.101 0.671 0.712
0.097 0.672 0.708
0.092 0.673 0.704
0.086 0.664 0.7
0.082 0.663 0.696
0.078 0.665 0.692
0.072 0.656 0.688
0.068 0.657 0.684
0.063 0.648 0.68
0.058 0.648 0.676
0.054 0.65 0.672
0.049 0.647 0.669
0.045 0.637 0.665
0.04 0.635 0.661
0.036 0.634 0.657
0.032 0.633 0.654
0.027 0.625 0.65
0.023 0.615 0.646
0.018 0.596 0.643
0.014 0.567 0.639
0.01 0.504 0.636
0.01 -0.103 0.636
0.024 -2.09 0.648
0.038 -2.119 0.66
0.053 -2.139 0.672
0.068 -2.172 0.685
0.083 -2.183 0.698
0.099 -2.222 0.711
0.115 -2.252 0.725
0.132 -2.28 0.739
0.15 -2.318 0.754
0.167 -2.35 0.769
0.116 -1.445 0.726
0.114 -1.297 0.724
0.119 -1.248 0.728
0.126 -1.232 0.734
0.122 -1.115 0.731
0.128 -1.097 0.736
0.137 -1.112 0.743
0.144 -1.105 0.749
0.153 -1.116 0.757
0.15 -1.039 0.754
0.143 -0.936 0.748
0.149 -0.935 0.753
0.153 -0.92 0.757
0.157 -0.906 0.76
0.162 -0.899 0.765
0.168 -0.897 0.77
0.175 -0.898 0.775
0.174 -0.863 0.775
0.682 -3.399 1.203
0.536 -2.568 1.08
0.538 -2.493 1.082
0.551 -2.469 1.093
0.567 -2.46 1.106
0.581 -2.444 1.118
0.597 -2.438 1.132
0.612 -2.422 1.144
0.628 -2.415 1.157
0.641 -2.399 1.169
0.657 -2.391 1.182
0.673 -2.384 1.196
0.686 -2.365 1.206
0.703 -2.362 1.221
0.718 -2.352 1.234
0.743 -2.374 1.255
0.822 -2.565 1.321
0.887 -2.703 1.376
0.937 -2.791 1.419
1.016 -2.958 1.486
1.098 -3.123 1.554
1.184 -3.294 1.627
2.396 -6.546 2.65
2.42 -6.467 2.671
2.446 -6.393 2.692
2.468 -6.312 2.711
2.493 -6.241 2.732
2.513 -6.159 2.749
2.539 -6.095 2.771
2.561 -6.022 2.789
2.582 -5.95 2.808
2.659 -6.003 2.872
3.084 -6.83 3.231
3.13 -6.795 3.27
3.175 -6.759 3.308
3.22 -6.722 3.346
3.269 -6.694 3.387
3.309 -6.648 3.421
3.357 -6.619 3.462
3.401 -6.58 3.499
3.45 -6.55 3.54
3.494 -6.511 3.577
3.537 -6.471 3.613
3.584 -6.438 3.654
3.627 -6.397 3.69
3.674 -6.364 3.729
3.722 -6.33 3.769
3.764 -6.288 3.805
3.81 -6.252 3.844
3.857 -6.216 3.883
3.903 -6.18 3.922
3.949 -6.144 3.962
4 -6.114 4.004
4.041 -6.068 4.039
4.091 -6.037 4.082
4.136 -5.997 4.119
4.187 -5.965 4.162
4.231 -5.924 4.2
4.276 -5.884 4.238
4.326 -5.849 4.28
4.376 -5.814 4.322
4.425 -5.778 4.364
4.47 -5.736 4.402
4.505 -5.68 4.431
4.398 -5.449 4.34
4.44 -5.406 4.376
4.487 -5.369 4.416
4.534 -5.331 4.455
4.581 -5.293 4.495
4.628 -5.254 4.535
4.681 -5.221 4.579
4.727 -5.18 4.619
4.779 -5.145 4.663
4.825 -5.103 4.701
4.877 -5.067 4.745
4.945 -5.045 4.802
5.17 -5.182 4.992
5.223 -5.141 5.037
5.277 -5.1 5.082
5.328 -5.057 5.126
5.379 -5.011 5.168
5.427 -4.964 5.21
5.444 -4.888 5.224
5.466 -4.816 5.242
5.435 -4.699 5.216
5.453 -4.626 5.232
5.44 -4.527 5.22
5.462 -4.458 5.239
5.44 -4.355 5.22
5.461 -4.287 5.238
5.427 -4.176 5.209
5.456 -4.115 5.234
5.431 -4.014 5.213
5.463 -3.956 5.24
5.434 -3.854 5.215
5.479 -3.806 5.253
5.457 -3.711 5.235
5.471 -3.641 5.246
5.441 -3.544 5.221
5.458 -3.477 5.235
5.435 -3.386 5.216
5.457 -3.324 5.235
5.438 -3.237 5.218
5.46 -3.175 5.237
5.445 -3.093 5.224
5.465 -3.031 5.242
5.447 -2.947 5.226
5.473 -2.889 5.248
5.437 -2.798 5.218
5.469 -2.743 5.245
5.435 -2.654 5.216
5.468 -2.6 5.244
5.445 -2.519 5.225
5.965 -2.683 5.663
5.901 -2.579 5.609
1.804 -0.763 2.151
1.796 -0.737 2.143
1.783 -0.709 2.133
1.782 -0.687 2.132
1.766 -0.659 2.119
1.749 -0.631 2.104
1.754 -0.612 2.108
1.754 -0.59 2.108
1.762 -0.572 2.115
1.764 -0.551 2.116
1.774 -0.533 2.125
1.783 -0.514 2.133
1.792 -0.496 2.14
1.796 -0.475 2.144
1.808 -0.457 2.154
5.273 -1.277 5.079
5.25 -1.209 5.06
5.21 -1.139 5.026
5.178 -1.071 4.999
5.141 -1.004 4.968
5.074 -0.931 4.912
5.046 -0.868 4.887
4.996 -0.801 4.845
4.984 -0.742 4.835
4.94 -0.678 4.799
4.91 -0.617 4.773
4.879 -0.558 4.747
4.858 -0.499 4.729
4.83 -0.441 4.705
4.803 -0.384 4.682
4.768 -0.326 4.653
4.741 -0.27 4.63
4.716 -0.215 4.609
4.679 -0.16 4.578
4.646 -0.106 4.55
4.624 -0.053 4.531
4.587 -0 4.5
4.563 0.052 4.48
4.545 0.104 4.465
4.522 0.155 4.445
4.493 0.205 4.42
4.467 0.255 4.399
4.441 0.304 4.377
4.418 0.353 4.357
4.391 0.401 4.335
4.367 0.449 4.314
4.344 0.496 4.295
4.319 0.543 4.274
4.297 0.59 4.255
4.277 0.636 4.238
4.253 0.682 4.218
4.232 0.727 4.2
4.202 0.771 4.175
4.184 0.816 4.16
4.164 0.861 4.143
4.135 0.903 4.118
4.121 0.949 4.107
4.111 0.995 4.098
4.076 1.034 4.069
4.048 1.075 4.045
4.036 1.12 4.035
4.019 1.163 4.021
3.991 1.203 3.997
3.976 1.246 3.984
3.951 1.286 3.963
3.929 1.327 3.945
3.906 1.366 3.925
3.89 1.408 3.912
3.865 1.447 3.89
3.847 1.487 3.875
3.824 1.526 3.856
3.807 1.567 3.841
3.789 1.607 3.826
3.772 1.647 3.812
3.753 1.686 3.796
3.734 1.726 3.78
3.709 1.762 3.759
3.691 1.801 3.744
3.672 1.84 3.727
3.654 1.878 3.712
3.634 1.916 3.695
3.614 1.954 3.679
3.594 1.991 3.662
3.575 2.028 3.645
3.56 2.068 3.633
3.54 2.105 3.616
3.52 2.142 3.599
3.505 2.182 3.587
3.488 2.22 3.572
3.473 2.26 3.56
3.454 2.296 3.543
3.419 2.323 3.514
3.4 2.359 3.498
3.384 2.397 3.484
3.366 2.434 3.469
3.349 2.472 3.455
3.335 2.512 3.443
3.317 2.549 3.428
3.294 2.582 3.409
3.278 2.621 3.395
3.254 2.653 3.375
3.237 2.69 3.36
3.219 2.728 3.345
3.208 2.77 3.336
3.188 2.805 3.319
3.169 2.841 3.303
3.144 2.872 3.282
3.137 2.919 3.276
3.111 2.949 3.254
3.094 2.986 3.239
1.667 1.634 2.035
1.604 1.601 1.982
1.594 1.62 1.973
1.588 1.642 1.968
1.103 1.159 1.559
1.053 1.125 1.517
1.046 1.137 1.51
1.038 1.149 1.504
1.03 1.161 1.497
1.028 1.178 1.495
1.02 1.19 1.488
1.012 1.201 1.482
1.004 1.213 1.475
0.996 1.224 1.468
0.988 1.236 1.462
0.985 1.254 1.459
0.977 1.265 1.452
0.968 1.276 1.445
0.964 1.293 1.442
0.956 1.304 1.434
0.954 1.324 1.433
0.946 1.337 1.426
0.911 1.309 1.397
0.93 1.36 1.412
0.921 1.372 1.405
0.919 1.393 1.404
0.907 1.4 1.394
0.898 1.41 1.386
0.894 1.428 1.382
0.893 1.453 1.381
0.907 1.502 1.393
0.874 1.474 1.366
0.855 1.467 1.349
0.85 1.486 1.345
0.84 1.495 1.337
0.834 1.511 1.331
0.829 1.53 1.327
0.818 1.538 1.318
0.813 1.557 1.314
0.806 1.573 1.308
0.799 1.59 1.302
0.789 1.599 1.293
0.782 1.616 1.288
0.776 1.635 1.283
0.769 1.653 1.277
0.762 1.67 1.271
0.752 1.682 1.262
0.744 1.698 1.256
0.73 1.699 1.243
0.705 1.675 1.223
0.254 0.601 0.842
0.239 0.577 0.83
0.24 0.591 0.83
0.227 0.569 0.819
0.221 0.567 0.814
0.215 0.562 0.809
0.218 0.583 0.811
0.229 0.629 0.821
0.253 0.715 0.841
0 0 0
0 0 0
0 0 0
0.183 0.561 0.782
0.192 0.606 0.79
0.186 0.599 0.784
0.182 0.603 0.782
0.181 0.615 0.78
0.177 0.616 0.777
0.172 0.616 0.773
0.171 0.629 0.772
0.169 0.638 0.77
0.164 0.64 0.766
0.16 0.644 0.763
0.158 0.655 0.761
0.155 0.662 0.759
0.151 0.665 0.755
0.144 0.656 0.749
0.139 0.653 0.745
0.141 0.686 0.746
0.138 0.694 0.744
0.133 0.698 0.74
0.132 0.717 0.739
0.127 0.722 0.735
0.12 0.708 0.729
0.115 0.705 0.724
0.106 0.678 0.717
0.102 0.68 0.713
0.097 0.681 0.71
0.091 0.672 0.705
0.087 0.673 0.701
0.081 0.664 0.696
0.076 0.655 0.692
0.072 0.656 0.688
0.067 0.648 0.684
0.062 0.648 0.68
0.058 0.648 0.676
0.053 0.639 0.672
0.049 0.647 0.669
0.044 0.636 0.665
0.04 0.634 0.661
0.036 0.634 0.657
0.031 0.632 0.654
0.027 0.634 0.65
0.022 0.614 0.646
0.018 0.596 0.643
0.014 0.556 0.639
0.01 0.503 0.636
0.01 -0.113 0.636
0.024 -2.09 0.648
0.038 -2.119 0.66
0.052 -2.139 0.673
0.067 -2.162 0.685
0.082 -2.183 0.698
0.098 -2.222 0.712
0.114 -2.252 0.726
0.131 -2.28 0.74
0.148 -2.317 0.755
0.166 -2.344 0.77
0.113 -1.414 0.725
0.112 -1.286 0.724
0.118 -1.245 0.728
0.124 -1.221 0.734
0.121 -1.113 0.732
0.127 -1.101 0.737
0.137 -1.12 0.745
0.143 -1.108 0.75
0.15 -1.102 0.756
0.144 -0.999 0.751
0.142 -0.937 0.749
0.148 -0.933 0.754
0.151 -0.913 0.757
0.157 -0.91 0.762
0.161 -0.9 0.766
0.167 -0.897 0.771
0.175 -0.904 0.777
0.172 -0.858 0.775
0.674 -3.384 1.206
0.535 -2.579 1.086
0.535 -2.494 1.086
0.548 -2.472 1.097
0.563 -2.46 1.11
0.58 -2.454 1.124
0.591 -2.428 1.134
0.608 -2.422 1.148
0.623 -2.414 1.162
0.638 -2.401 1.174
0.653 -2.391 1.187
0.668 -2.383 1.201
0.682 -2.366 1.212
0.698 -2.362 1.226
0.713 -2.352 1.239
0.738 -2.375 1.26
0.811 -2.546 1.322
0.874 -2.682 1.377
0.925 -2.772 1.421
1.007 -2.948 1.49
1.088 -3.117 1.56
1.153 -3.227 1.615
2.384 -6.555 2.671
2.408 -6.476 2.691
2.43 -6.393 2.71
2.455 -6.321 2.732
2.48 -6.25 2.753
2.5 -6.167 2.77
2.527 -6.105 2.793
2.548 -6.031 2.811
2.569 -5.958 2.829
2.625 -5.965 2.877
3.065 -6.83 3.254
3.11 -6.794 3.292
3.155 -6.759 3.331
3.2 -6.722 3.37
3.248 -6.694 3.411
3.292 -6.657 3.449
3.336 -6.619 3.487
3.385 -6.589 3.528
3.428 -6.55 3.566
3.471 -6.511 3.603
3.514 -6.471 3.639
3.562 -6.438 3.68
3.604 -6.397 3.716
3.651 -6.364 3.756
3.698 -6.33 3.797
3.745 -6.295 3.837
3.786 -6.252 3.872
3.832 -6.216 3.911
3.878 -6.18 3.951
3.929 -6.151 3.994
3.975 -6.114 4.034
4.02 -6.075 4.073
4.065 -6.037 4.111
4.111 -5.998 4.15
4.16 -5.965 4.193
4.204 -5.924 4.231
4.255 -5.891 4.274
4.304 -5.856 4.316
4.348 -5.814 4.354
4.398 -5.778 4.396
4.447 -5.743 4.439
4.485 -5.692 4.472
4.378 -5.459 4.379
4.412 -5.406 4.409
4.464 -5.376 4.454
4.506 -5.331 4.489
4.553 -5.293 4.529
4.599 -5.254 4.569
4.652 -5.221 4.614
4.698 -5.18 4.653
4.749 -5.145 4.698
4.801 -5.109 4.742
4.852 -5.073 4.786
4.913 -5.045 4.838
5.144 -5.188 5.036
5.197 -5.148 5.082
5.243 -5.1 5.121
5.294 -5.056 5.165
5.329 -4.996 5.194
5.355 -4.929 5.217
5.325 -4.811 5.191
5.351 -4.745 5.214
5.338 -4.645 5.202
5.356 -4.572 5.218
5.337 -4.469 5.201
5.358 -4.401 5.219
5.317 -4.283 5.185
5.344 -4.221 5.208
5.322 -4.121 5.188
5.349 -4.06 5.212
5.332 -3.965 5.197
5.358 -3.904 5.219
5.342 -3.813 5.206
5.35 -3.739 5.212
5.338 -3.653 5.202
5.372 -3.598 5.231
5.341 -3.5 5.205
5.358 -3.435 5.219
5.332 -3.343 5.197
5.354 -3.282 5.216
5.336 -3.196 5.2
5.357 -3.135 5.218
5.341 -3.053 5.205
5.36 -2.991 5.221
5.33 -2.902 5.196
5.356 -2.844 5.217
5.328 -2.759 5.193
5.352 -2.701 5.214
5.326 -2.618 5.192
5.353 -2.561 5.215
5.317 -2.475 5.184
5.356 -2.425 5.218
5.342 -2.35 5.206
1.798 -0.765 2.168
1.778 -0.734 2.152
1.779 -0.713 2.153
1.78 -0.69 2.153
1.755 -0.659 2.132
1.744 -0.633 2.122
1.733 -0.608 2.113
1.737 -0.588 2.117
1.745 -0.57 2.123
1.755 -0.552 2.131
1.77 -0.535 2.145
1.783 -0.518 2.156
1.788 -0.498 2.16
1.776 -0.473 2.15
1.791 -0.456 2.162
5.226 -1.273 5.107
5.233 -1.213 5.112
5.198 -1.143 5.082
5.17 -1.076 5.058
5.135 -1.009 5.028
5.094 -0.941 4.993
5.061 -0.876 4.965
4.98 -0.804 4.896
4.958 -0.743 4.877
4.905 -0.678 4.831
4.88 -0.618 4.809
4.843 -0.557 4.778
4.836 -0.5 4.772
4.801 -0.441 4.742
4.779 -0.384 4.723
4.748 -0.327 4.696
4.718 -0.271 4.671
4.695 -0.215 4.651
4.665 -0.161 4.626
4.625 -0.106 4.591
4.594 -0.053 4.564
4.568 -0 4.542
4.544 0.052 4.521
4.518 0.104 4.5
4.494 0.155 4.479
4.47 0.205 4.459
4.446 0.255 4.438
4.42 0.304 4.416
4.391 0.353 4.39
4.369 0.401 4.372
4.345 0.449 4.351
4.324 0.497 4.333
4.298 0.544 4.311
4.275 0.59 4.291
4.25 0.636 4.27
4.231 0.683 4.254
4.205 0.727 4.231
4.182 0.772 4.212
4.156 0.816 4.189
4.138 0.861 4.174
4.117 0.905 4.156
4.096 0.949 4.138
4.084 0.994 4.128
4.057 1.036 4.105
4.031 1.077 4.082
4.016 1.121 4.069
3.992 1.163 4.049
3.973 1.205 4.033
3.95 1.246 4.013
3.934 1.288 3.999
3.91 1.328 3.978
3.888 1.368 3.959
3.865 1.408 3.94
3.849 1.45 3.926
3.832 1.491 3.912
3.807 1.529 3.89
3.79 1.57 3.876
3.774 1.611 3.862
3.748 1.647 3.839
3.73 1.687 3.824
3.712 1.726 3.809
3.693 1.766 3.793
3.675 1.805 3.777
3.656 1.843 3.76
3.637 1.882 3.744
3.617 1.919 3.727
3.597 1.957 3.711
3.579 1.995 3.695
3.558 2.032 3.677
3.539 2.069 3.661
3.519 2.106 3.644
3.504 2.146 3.631
3.483 2.181 3.612
3.466 2.22 3.598
3.451 2.26 3.585
3.431 2.296 3.568
3.405 2.328 3.546
3.386 2.364 3.53
3.37 2.402 3.515
3.352 2.44 3.501
3.337 2.479 3.487
3.312 2.511 3.466
3.297 2.55 3.453
3.28 2.588 3.439
3.264 2.626 3.425
3.239 2.658 3.404
3.222 2.695 3.389
3.206 2.734 3.375
3.187 2.77 3.359
3.169 2.806 3.343
3.151 2.843 3.328
3.132 2.879 3.311
3.111 2.913 3.293
3.092 2.949 3.277
1.632 1.58 2.026
1.654 1.632 2.045
1.6 1.607 1.999
1.584 1.619 1.985
1.565 1.629 1.969
1.089 1.15 1.561
1.046 1.125 1.524
1.039 1.137 1.518
1.031 1.149 1.511
1.024 1.161 1.505
1.022 1.179 1.503
1.013 1.19 1.496
1.006 1.202 1.49
0.998 1.213 1.483
0.995 1.231 1.481
0.981 1.235 1.468
0.979 1.254 1.466
0.97 1.265 1.459
0.962 1.276 1.452
0.958 1.293 1.449
0.95 1.304 1.441
0.948 1.325 1.44
0.939 1.335 1.432
0.93 1.346 1.425
0.927 1.365 1.422
0.917 1.374 1.414
0.91 1.388 1.407
0.902 1.4 1.4
0.898 1.418 1.397
0.888 1.428 1.389
0.892 1.46 1.392
0.901 1.502 1.4
0.865 1.468 1.369
0.848 1.465 1.355
0.845 1.486 1.351
0.835 1.495 1.343
0.828 1.511 1.337
0.823 1.53 1.333
0.817 1.546 1.328
0.806 1.555 1.319
0.801 1.574 1.314
0.791 1.583 1.305
0.787 1.608 1.303
0.781 1.625 1.297
0.771 1.635 1.288
0.765 1.655 1.283
0.757 1.671 1.277
0.75 1.688 1.27
0.74 1.699 1.262
0.725 1.699 1.249
0.702 1.679 1.229
0.253 0.602 0.844
0.242 0.588 0.835
0.233 0.576 0.827
0.23 0.581 0.825
0.218 0.562 0.814
0.214 0.563 0.811
0.211 0.567 0.808
0.216 0.596 0.813
0.237 0.672 0.831
0 0 0
0 0 0
0 0 0
0.182 0.561 0.784
0.19 0.602 0.79
0.182 0.592 0.784
0.181 0.603 0.783
0.177 0.605 0.779
0.176 0.616 0.778
0.171 0.617 0.774
0.17 0.629 0.773
0.165 0.63 0.769
0.163 0.641 0.768
0.162 0.653 0.766
0.157 0.655 0.762
0.152 0.655 0.758
0.15 0.668 0.757
0.146 0.671 0.753
0.139 0.656 0.747
0.137 0.673 0.745
0.136 0.692 0.744
0.132 0.695 0.74
0.13 0.716 0.739
0.126 0.722 0.736
0.119 0.708 0.73
0.112 0.695 0.724
0.105 0.678 0.718
0.101 0.68 0.714
0.095 0.671 0.709
0.091 0.673 0.705
0.086 0.672 0.701
0.081 0.663 0.697
0.075 0.655 0.692
0.071 0.656 0.689
0.066 0.647 0.684
0.062 0.648 0.68
0.057 0.648 0.677
0.052 0.639 0.672
0.049 0.647 0.669
0.044 0.637 0.665
0.039 0.634 0.661
0.035 0.634 0.658
0.031 0.632 0.654
0.026 0.625 0.65
0.022 0.614 0.647
0.018 0.596 0.643
0.014 0.567 0.639
0.01 0.503 0.636
0.01 -0.103 0.636
0.023 -2.09 0.648
0.038 -2.119 0.66
0.052 -2.139 0.673
0.067 -2.172 0.686
0.082 -2.183 0.699
0.098 -2.222 0.712
0.114 -2.252 0.726
0.13 -2.28 0.741
0.148 -2.316 0.755
0.165 -2.348 0.771
0.11 -1.372 0.723
0.112 -1.286 0.725
0.116 -1.239 0.729
0.121 -1.204 0.733
0.121 -1.119 0.733
0.127 -1.104 0.738
0.137 -1.127 0.746
0.141 -1.1 0.75
0.149 -1.102 0.757
0.141 -0.987 0.75
0.141 -0.939 0.75
0.146 -0.928 0.754
0.149 -0.908 0.757
0.156 -0.909 0.763
0.161 -0.9 0.767
0.166 -0.897 0.772
0.173 -0.899 0.777
0.172 -0.862 0.777
0.672 -3.387 1.209
0.535 -2.592 1.091
0.533 -2.494 1.089
0.547 -2.476 1.101
0.561 -2.46 1.113
0.575 -2.444 1.125
0.591 -2.439 1.139
0.605 -2.422 1.151
0.621 -2.415 1.165
0.637 -2.408 1.179
0.65 -2.391 1.19
0.666 -2.383 1.204
0.681 -2.375 1.217
0.695 -2.36 1.229
0.71 -2.352 1.242
0.736 -2.376 1.264
0.799 -2.521 1.32
0.864 -2.661 1.375
0.917 -2.76 1.422
0.995 -2.928 1.489
1.083 -3.116 1.565
1.122 -3.154 1.599
2.372 -6.551 2.681
2.398 -6.477 2.703
2.423 -6.402 2.725
2.445 -6.322 2.744
2.47 -6.251 2.766
2.493 -6.176 2.785
2.516 -6.104 2.805
2.537 -6.031 2.824
2.562 -5.965 2.845
2.606 -5.947 2.883
3.052 -6.83 3.269
3.097 -6.795 3.308
3.142 -6.759 3.347
3.19 -6.731 3.389
3.234 -6.694 3.427
3.278 -6.657 3.465
3.327 -6.628 3.507
3.37 -6.589 3.545
3.414 -6.55 3.582
3.457 -6.511 3.619
3.504 -6.479 3.66
3.551 -6.446 3.701
3.593 -6.405 3.738
3.636 -6.364 3.774
3.682 -6.33 3.815
3.729 -6.295 3.855
3.775 -6.26 3.895
3.821 -6.224 3.935
3.867 -6.188 3.975
3.912 -6.151 4.014
3.958 -6.114 4.054
4.004 -6.076 4.093
4.049 -6.037 4.132
4.098 -6.005 4.174
4.143 -5.965 4.213
4.187 -5.924 4.251
4.237 -5.891 4.294
4.286 -5.856 4.337
4.335 -5.821 4.379
4.385 -5.786 4.423
4.428 -5.743 4.46
4.475 -5.702 4.501
4.366 -5.468 4.407
4.398 -5.412 4.434
4.446 -5.376 4.475
4.493 -5.338 4.516
4.539 -5.3 4.556
4.585 -5.26 4.596
4.632 -5.221 4.637
4.684 -5.187 4.681
4.735 -5.151 4.725
4.781 -5.109 4.765
4.831 -5.072 4.809
4.891 -5.044 4.861
5.122 -5.188 5.061
5.175 -5.148 5.107
5.216 -5.095 5.142
5.257 -5.041 5.177
5.242 -4.936 5.165
5.262 -4.864 5.182
5.235 -4.749 5.158
5.26 -4.684 5.18
5.243 -4.581 5.166
5.271 -4.519 5.19
5.24 -4.406 5.162
5.26 -4.339 5.18
5.232 -4.232 5.156
5.253 -4.167 5.174
5.23 -4.066 5.154
5.257 -4.006 5.177
5.237 -3.911 5.16
5.269 -3.856 5.188
5.245 -3.76 5.167
5.271 -3.699 5.189
5.251 -3.609 5.173
5.27 -3.545 5.189
5.253 -3.458 5.174
5.268 -3.392 5.187
5.243 -3.301 5.165
5.265 -3.241 5.185
5.244 -3.155 5.166
5.271 -3.098 5.189
5.241 -3.008 5.164
5.26 -2.947 5.18
5.232 -2.861 5.156
5.259 -2.805 5.179
5.227 -2.718 5.152
5.252 -2.661 5.173
5.225 -2.579 5.15
5.256 -2.525 5.177
5.243 -2.451 5.165
5.261 -2.391 5.181
5.234 -2.312 5.157
5.263 -2.257 5.183
5.26 -2.189 5.18
1.766 -0.71 2.156
1.782 -0.694 2.17
1.753 -0.661 2.145
1.734 -0.633 2.129
1.725 -0.608 2.12
1.722 -0.586 2.118
1.734 -0.569 2.128
1.737 -0.548 2.131
1.762 -0.535 2.153
1.79 -0.522 2.177
1.783 -0.498 2.171
5.307 -1.425 5.221
5.222 -1.34 5.147
5.188 -1.269 5.118
5.145 -1.197 5.08
5.115 -1.13 5.055
5.13 -1.073 5.068
5.111 -1.008 5.051
5.074 -0.941 5.02
5.056 -0.879 5.003
4.992 -0.809 4.948
4.975 -0.748 4.933
4.901 -0.68 4.869
4.871 -0.619 4.844
4.833 -0.558 4.81
4.808 -0.499 4.789
4.789 -0.442 4.772
4.762 -0.384 4.749
4.733 -0.327 4.724
4.707 -0.271 4.701
4.678 -0.216 4.677
4.654 -0.161 4.655
4.615 -0.106 4.622
4.584 -0.053 4.595
4.559 -0 4.573
4.527 0.052 4.546
4.507 0.104 4.528
4.483 0.155 4.508
4.456 0.205 4.484
4.433 0.255 4.464
4.407 0.305 4.442
4.383 0.354 4.421
4.36 0.402 4.401
4.341 0.451 4.385
4.313 0.498 4.361
4.289 0.545 4.339
4.264 0.591 4.319
4.24 0.637 4.297
4.213 0.683 4.274
4.194 0.728 4.257
4.172 0.774 4.239
4.153 0.819 4.222
4.127 0.862 4.2
4.099 0.905 4.175
4.085 0.95 4.163
4.073 0.996 4.153
4.04 1.036 4.124
4.014 1.077 4.102
4.006 1.123 4.095
3.984 1.165 4.075
3.956 1.205 4.051
3.941 1.248 4.039
3.917 1.288 4.017
3.901 1.331 4.004
3.878 1.371 3.984
3.855 1.41 3.964
3.832 1.45 3.944
3.816 1.491 3.93
3.798 1.532 3.915
3.774 1.57 3.894
3.758 1.611 3.88
3.739 1.65 3.864
3.722 1.69 3.849
3.703 1.73 3.833
3.678 1.766 3.811
3.667 1.808 3.802
3.64 1.843 3.778
3.622 1.882 3.762
3.601 1.919 3.745
3.582 1.957 3.728
3.564 1.995 3.712
3.545 2.033 3.696
3.524 2.069 3.678
3.511 2.11 3.667
3.49 2.146 3.648
3.476 2.187 3.636
3.452 2.22 3.615
3.436 2.26 3.602
3.417 2.296 3.585
3.397 2.332 3.568
3.378 2.368 3.551
3.361 2.407 3.537
3.34 2.441 3.518
3.324 2.48 3.505
3.299 2.512 3.483
3.283 2.55 3.469
3.267 2.588 3.455
3.25 2.626 3.441
3.233 2.663 3.425
3.215 2.7 3.41
3.197 2.737 3.395
3.179 2.774 3.379
3.157 2.807 3.36
3.139 2.844 3.344
3.125 2.885 3.333
3.105 2.92 3.315
3.09 2.96 3.302
1.616 1.572 2.027
1.641 1.626 2.048
1.593 1.607 2.006
1.582 1.625 1.997
1.307 1.365 1.759
1.079 1.145 1.562
1.042 1.125 1.529
1.034 1.137 1.523
1.033 1.155 1.521
1.019 1.161 1.51
1.017 1.179 1.508
1.009 1.19 1.501
1.001 1.202 1.495
0.993 1.213 1.488
0.991 1.231 1.485
0.982 1.242 1.478
0.975 1.254 1.471
0.966 1.265 1.464
0.963 1.282 1.461
0.954 1.293 1.454
0.946 1.304 1.446
0.945 1.327 1.446
0.935 1.336 1.437
0.93 1.351 1.432
0.921 1.362 1.424
0.917 1.38 1.421
0.906 1.389 1.412
0.898 1.4 1.405
0.894 1.418 1.401
0.884 1.428 1.393
0.893 1.469 1.401
0.897 1.502 1.404
0.862 1.468 1.374
0.846 1.467 1.36
0.841 1.486 1.356
0.831 1.495 1.347
0.825 1.511 1.341
0.819 1.529 1.337
0.813 1.546 1.332
0.804 1.557 1.323
0.797 1.573 1.317
0.791 1.59 1.312
0.784 1.608 1.306
0.774 1.618 1.298
0.767 1.635 1.292
0.761 1.653 1.286
0.754 1.671 1.28
0.748 1.69 1.275
0.733 1.69 1.262
0.722 1.699 1.253
0.7 1.682 1.234
0.253 0.604 0.846
0.245 0.599 0.84
0.23 0.572 0.827
0.229 0.581 0.826
0.219 0.566 0.817
0.21 0.556 0.81
0.211 0.572 0.811
0.211 0.585 0.811
0.224 0.636 0.821
0 0 0
0 0 0
0 0 0
0.179 0.554 0.783
0.19 0.606 0.792
0.184 0.6 0.787
0.18 0.604 0.784
0.177 0.606 0.781
0.175 0.617 0.779
0.173 0.627 0.777
0.169 0.629 0.774
0.165 0.631 0.77
0.162 0.641 0.768
0.158 0.644 0.765
0.156 0.655 0.763
0.152 0.655 0.759
0.148 0.66 0.756
0.147 0.679 0.755
0.135 0.642 0.745
0.134 0.662 0.744
0.136 0.698 0.746
0.131 0.694 0.741
0.129 0.715 0.74
0.126 0.721 0.736
0.119 0.708 0.73
0.112 0.695 0.725
0.105 0.677 0.718
0.1 0.68 0.715
0.095 0.671 0.71
0.09 0.673 0.706
0.084 0.662 0.701
0.08 0.663 0.697
0.075 0.654 0.693
0.071 0.656 0.689
0.066 0.657 0.685
0.06 0.638 0.68
0.057 0.649 0.677
0.052 0.639 0.673
0.048 0.647 0.669
0.043 0.635 0.665
0.039 0.635 0.662
0.035 0.633 0.658
0.031 0.632 0.654
0.026 0.625 0.65
0.022 0.615 0.647
0.018 0.596 0.643
0.013 0.567 0.639
0.01 0.513 0.636
0.009 -0.098 0.636
0.023 -2.09 0.648
0.037 -2.119 0.661
0.052 -2.139 0.673
0.066 -2.162 0.686
0.081 -2.183 0.699
0.097 -2.222 0.713
0.113 -2.251 0.727
0.129 -2.28 0.741
0.146 -2.315 0.756
0.093 -1.277 0.71
0.108 -1.362 0.723
0.11 -1.273 0.725
0.116 -1.243 0.73
0.12 -1.195 0.733
0.121 -1.125 0.734
0.126 -1.104 0.739
0.136 -1.126 0.747
0.14 -1.093 0.751
0.146 -1.086 0.756
0.139 -0.975 0.75
0.139 -0.934 0.75
0.144 -0.923 0.755
0.149 -0.91 0.758
0.155 -0.91 0.764
0.16 -0.901 0.768
0.165 -0.897 0.773
0.174 -0.913 0.781
0.171 -0.865 0.778
0.666 -3.378 1.213
0.533 -2.599 1.096
0.529 -2.495 1.093
0.543 -2.476 1.105
0.557 -2.46 1.117
0.57 -2.442 1.129
0.585 -2.428 1.142
0.601 -2.424 1.156
0.617 -2.415 1.17
0.63 -2.399 1.181
0.646 -2.391 1.195
0.661 -2.384 1.209
0.677 -2.375 1.222
0.69 -2.36 1.234
0.706 -2.354 1.248
0.731 -2.376 1.27
0.787 -2.5 1.32
0.854 -2.648 1.378
0.911 -2.76 1.428
0.989 -2.928 1.497
1.071 -3.101 1.569
1.101 -3.116 1.595
2.36 -6.561 2.702
2.383 -6.478 2.721
2.411 -6.411 2.746
2.433 -6.331 2.765
2.454 -6.251 2.784
2.477 -6.176 2.804
2.503 -6.112 2.826
2.524 -6.038 2.845
2.545 -5.965 2.864
2.581 -5.928 2.895
3.036 -6.839 3.295
3.081 -6.803 3.334
3.125 -6.767 3.373
3.169 -6.731 3.412
3.213 -6.694 3.451
3.262 -6.666 3.493
3.305 -6.628 3.531
3.349 -6.589 3.569
3.392 -6.55 3.607
3.439 -6.519 3.649
3.481 -6.479 3.686
3.528 -6.446 3.727
3.57 -6.405 3.764
3.617 -6.372 3.805
3.663 -6.338 3.846
3.705 -6.295 3.882
3.75 -6.26 3.923
3.796 -6.224 3.963
3.842 -6.188 4.003
3.887 -6.151 4.043
3.933 -6.114 4.083
3.982 -6.083 4.126
4.027 -6.044 4.165
4.071 -6.005 4.204
4.121 -5.972 4.248
4.165 -5.932 4.287
4.214 -5.898 4.33
4.258 -5.856 4.369
4.307 -5.821 4.411
4.357 -5.786 4.455
4.405 -5.75 4.498
4.447 -5.705 4.535
4.34 -5.47 4.44
4.37 -5.412 4.467
4.417 -5.376 4.508
4.464 -5.338 4.549
4.515 -5.306 4.595
4.556 -5.26 4.63
4.608 -5.227 4.676
4.653 -5.187 4.716
4.704 -5.151 4.76
4.756 -5.116 4.806
4.806 -5.078 4.85
4.859 -5.043 4.897
5.088 -5.187 5.097
5.137 -5.143 5.141
5.136 -5.049 5.14
5.164 -4.985 5.165
5.132 -4.864 5.137
5.164 -4.804 5.164
5.137 -4.69 5.14
5.166 -4.63 5.166
5.135 -4.516 5.139
5.164 -4.456 5.164
5.138 -4.349 5.141
5.164 -4.288 5.165
5.135 -4.181 5.139
5.156 -4.116 5.157
5.14 -4.022 5.143
5.164 -3.961 5.165
5.142 -3.865 5.145
5.167 -3.805 5.167
5.146 -3.712 5.149
5.173 -3.654 5.172
5.151 -3.563 5.153
5.169 -3.499 5.168
5.137 -3.403 5.14
5.17 -3.35 5.17
5.157 -3.268 5.158
5.169 -3.203 5.169
5.147 -3.116 5.149
5.167 -3.056 5.167
5.133 -2.965 5.137
5.152 -2.905 5.154
5.128 -2.822 5.132
5.147 -2.763 5.149
5.129 -2.684 5.134
5.146 -2.625 5.149
5.134 -2.55 5.138
5.156 -2.493 5.157
5.14 -2.418 5.143
5.163 -2.362 5.163
5.135 -2.283 5.139
5.15 -2.223 5.152
5.131 -2.149 5.135
5.167 -2.099 5.167
1.766 -0.693 2.18
1.745 -0.662 2.161
1.727 -0.634 2.145
1.719 -0.61 2.138
1.717 -0.588 2.136
1.722 -0.568 2.14
1.725 -0.548 2.143
1.756 -0.537 2.171
1.759 -0.516 2.173
5.323 -1.503 5.304
5.301 -1.433 5.284
5.201 -1.343 5.197
5.174 -1.274 5.174
5.131 -1.202 5.135
5.093 -1.132 5.102
5.057 -1.064 5.07
5.026 -0.998 5.043
5.013 -0.936 5.031
4.994 -0.873 5.015
4.953 -0.808 4.979
4.94 -0.748 4.967
4.894 -0.683 4.927
4.867 -0.623 4.903
4.828 -0.561 4.869
4.795 -0.501 4.84
4.766 -0.443 4.815
4.735 -0.385 4.788
4.708 -0.328 4.763
4.679 -0.271 4.738
4.656 -0.216 4.718
4.625 -0.161 4.691
4.583 -0.106 4.654
4.558 -0.053 4.632
4.531 -0 4.608
4.507 0.052 4.587
4.484 0.104 4.567
4.462 0.155 4.548
4.433 0.206 4.522
4.41 0.256 4.502
4.381 0.305 4.477
4.36 0.354 4.458
4.337 0.403 4.438
4.321 0.452 4.423
4.286 0.498 4.393
4.268 0.546 4.377
4.238 0.592 4.351
4.22 0.639 4.335
4.193 0.684 4.312
4.175 0.73 4.295
4.152 0.775 4.275
4.133 0.82 4.259
4.1 0.862 4.23
4.079 0.906 4.211
4.066 0.952 4.2
4.046 0.996 4.182
4.023 1.038 4.162
3.996 1.08 4.138
3.981 1.124 4.125
3.965 1.167 4.111
3.939 1.208 4.088
3.923 1.251 4.074
3.899 1.291 4.053
3.876 1.331 4.033
3.858 1.373 4.017
3.836 1.412 3.997
3.815 1.452 3.979
3.798 1.494 3.964
3.772 1.531 3.942
3.755 1.572 3.927
3.732 1.61 3.906
3.723 1.654 3.898
3.698 1.69 3.876
3.68 1.73 3.861
3.661 1.769 3.844
3.643 1.808 3.829
3.624 1.847 3.811
