# .PCD v0.7 - Point Cloud Data file format
VERSION 0.7
FIELDS x y z
SIZE 4 4 4
TYPE F F F
COUNT 1 1 1
WIDTH 2519
HEIGHT 1
VIEWPOINT 0 0 0 1 0 0 0
POINTS 2519
DATA ascii
0.926 1.025 0.991
0.927 1.045 0.991
0.921 1.057 0.99
0.909 1.06 0.988
0.891 1.055 0.985
0.794 0.943 0.967
0.763 0.918 0.962
0.74 0.904 0.958
0.712 0.88 0.953
0.694 0.871 0.949
0.672 0.855 0.945
0.653 0.841 0.942
0.635 0.831 0.939
0.615 0.814 0.935
0.6 0.806 0.932
0.582 0.793 0.929
0.567 0.784 0.927
0.547 0.765 0.923
0.534 0.758 0.921
0.521 0.751 0.918
0.503 0.734 0.915
0.492 0.729 0.913
0.478 0.718 0.911
0.467 0.713 0.909
0.455 0.704 0.907
0.442 0.693 0.904
0.431 0.687 0.902
0.422 0.683 0.901
0.411 0.674 0.899
0.399 0.664 0.897
0.388 0.654 0.895
0.379 0.65 0.893
0.37 0.646 0.892
0.361 0.64 0.89
0.349 0.626 0.888
0.344 0.628 0.887
0.332 0.613 0.885
0.328 0.618 0.884
0.318 0.61 0.882
0.31 0.602 0.881
0.302 0.596 0.879
0.296 0.596 0.878
0.288 0.589 0.877
0.281 0.584 0.876
0.275 0.583 0.874
0.267 0.576 0.873
0.261 0.571 0.872
0.256 0.574 0.871
0.248 0.564 0.87
0.241 0.558 0.868
0.234 0.55 0.867
0.23 0.552 0.866
0.223 0.544 0.865
0.217 0.543 0.864
0.211 0.536 0.863
0.205 0.529 0.862
0.2 0.528 0.861
0.195 0.527 0.86
0.189 0.522 0.859
0.184 0.521 0.858
0.179 0.516 0.857
0.174 0.511 0.856
0.169 0.506 0.855
0.164 0.503 0.855
0.159 0.502 0.854
0.155 0.501 0.853
0.15 0.502 0.852
0.145 0.489 0.851
0.141 0.496 0.851
0.136 0.488 0.85
0.132 0.493 0.849
0.127 0.486 0.848
0.123 0.475 0.847
0.119 0.474 0.847
0.114 0.474 0.846
0.11 0.469 0.845
0.106 0.47 0.844
0.102 0.466 0.844
0.098 0.459 0.843
0.094 0.463 0.842
0.094 -6.928 0.843
0.153 -6.959 0.854
0.213 -6.926 0.865
0.271 -6.903 0.876
0.33 -6.879 0.887
0.393 -6.979 0.899
0.479 -7.473 0.915
0.557 -7.7 0.929
0.622 -7.69 0.941
0.697 -7.798 0.955
0.783 -8.019 0.971
0.876 -8.265 0.988
0.975 -8.526 1.007
1.08 -8.808 1.027
0.142 -0.396 0.852
0.146 -0.404 0.853
0.15 -0.404 0.853
0.153 -0.402 0.854
0.156 -0.403 0.855
0.159 -0.396 0.855
0.163 -0.399 0.856
0.166 -0.397 0.856
0.169 -0.396 0.857
0.172 -0.392 0.857
0.175 -0.387 0.858
0.179 -0.39 0.859
0.182 -0.389 0.859
0.185 -0.387 0.86
0.189 -0.389 0.861
0.192 -0.386 0.861
0.195 -0.385 0.862
0.199 -0.386 0.862
0.201 -0.381 0.863
0.206 -0.384 0.864
0.21 -0.385 0.864
0.211 -0.377 0.865
0.213 -0.372 0.865
0.217 -0.375 0.866
0.22 -0.373 0.866
0.223 -0.37 0.867
0.226 -0.369 0.867
0.228 -0.366 0.868
0.231 -0.363 0.868
0.236 -0.367 0.869
0.238 -0.363 0.87
0.24 -0.359 0.87
0.247 -0.367 0.871
0.25 -0.365 0.872
0.253 -0.364 0.872
0.257 -0.365 0.873
0.261 -0.365 0.874
0.266 -0.366 0.875
0.267 -0.36 0.875
0.271 -0.362 0.876
0.273 -0.357 0.876
0.278 -0.359 0.877
0.28 -0.356 0.877
0.287 -0.361 0.879
0.289 -0.358 0.879
0.291 -0.355 0.88
0.293 -0.351 0.88
0.297 -0.351 0.881
0.301 -0.351 0.881
0.304 -0.35 0.882
0.306 -0.345 0.882
0.313 -0.35 0.884
0.313 -0.344 0.884
0.319 -0.347 0.885
0.318 -0.338 0.885
0.325 -0.343 0.886
0.328 -0.341 0.887
0.336 -0.345 0.888
0.338 -0.341 0.888
0.344 -0.344 0.889
0.349 -0.344 0.89
0.35 -0.34 0.891
0.356 -0.342 0.892
0.358 -0.338 0.892
0.364 -0.34 0.893
0.363 -0.332 0.893
0.372 -0.338 0.895
0.377 -0.338 0.896
0.385 -0.34 0.897
0.389 -0.339 0.898
0.393 -0.338 0.899
0.432 -0.376 0.906
0.608 -0.561 0.939
0.934 -0.9 0.999
0.935 -0.886 0.999
0.963 -0.9 1.005
0.978 -0.899 1.007
0.982 -0.888 1.008
1 -0.89 1.011
1.009 -0.883 1.013
1.019 -0.878 1.015
1.037 -0.879 1.018
1.049 -0.875 1.021
1.058 -0.867 1.022
1.072 -0.865 1.025
6.684 -5.726 2.07
5.809 -4.878 1.907
5.952 -4.912 1.933
6.946 -5.644 2.118
7.024 -5.607 2.133
7.119 -5.583 2.15
7.171 -5.524 2.16
7.059 -5.339 2.139
7.121 -5.289 2.151
7.153 -5.217 2.157
7.28 -5.214 2.18
6.923 -4.864 2.114
7.206 -4.972 2.167
7.238 -4.902 2.173
7.329 -4.871 2.189
7.657 -4.996 2.251
7.7 -4.929 2.259
7.682 -4.823 2.255
7.77 -4.785 2.272
7.716 -4.659 2.262
6.179 -3.646 1.976
6.151 -3.557 1.97
6.108 -3.461 1.962
6.077 -3.374 1.957
6.035 -3.281 1.949
6.008 -3.199 1.944
7.852 -4.108 2.287
7.814 -4.001 2.28
7.774 -3.895 2.272
7.734 -3.79 2.265
7.693 -3.687 2.257
7.656 -3.587 2.25
7.621 -3.489 2.244
7.283 -3.256 2.181
7.204 -3.145 2.166
7.161 -3.052 2.158
7.139 -2.968 2.154
7.108 -2.883 2.148
7.078 -2.799 2.143
7.089 -2.731 2.145
7.264 -2.727 2.178
7.317 -2.674 2.187
7.289 -2.592 2.182
7.251 -2.507 2.175
7.22 -2.425 2.169
7.189 -2.345 2.163
6.833 -2.161 2.097
6.697 -2.054 2.072
6.615 -1.965 2.057
3.656 -1.039 1.506
3.656 -1.005 1.506
3.682 -0.978 1.511
6.845 -1.776 2.099
6.965 -1.743 2.122
3.801 -0.905 1.533
3.8 -0.87 1.533
3.801 -0.836 1.533
3.822 -0.806 1.537
6.836 -1.395 2.098
6.812 -1.328 2.093
6.781 -1.261 2.088
6.758 -1.195 2.083
6.732 -1.13 2.078
6.707 -1.065 2.074
5.909 -0.884 1.925
5.936 -0.835 1.93
5.96 -0.786 1.935
5.884 -0.723 1.921
5.471 -0.623 1.844
5.448 -0.572 1.839
5.416 -0.521 1.834
5.388 -0.471 1.828
5.367 -0.422 1.824
5.346 -0.374 1.821
5.311 -0.325 1.814
5.307 -0.278 1.813
5.403 -0.236 1.831
5.47 -0.191 1.844
5.552 -0.145 1.859
5.53 -0.097 1.855
5.547 -0.048 1.858
5.454 -0 1.84
4.66 0.041 1.693
4.642 0.081 1.689
4.623 0.121 1.686
4.612 0.161 1.684
4.603 0.2 1.682
4.581 0.239 1.678
4.569 0.278 1.676
4.56 0.318 1.674
4.539 0.356 1.67
4.518 0.394 1.666
4.505 0.432 1.664
4.494 0.47 1.662
4.482 0.509 1.66
4.486 0.549 1.66
5.613 0.739 1.87
5.586 0.785 1.865
5.573 0.833 1.863
5.555 0.88 1.859
5.53 0.925 1.855
5.538 0.976 1.856
5.787 1.073 1.903
5.887 1.145 1.921
4.9 0.995 1.737
5.848 1.244 1.914
0 0 0
5.81 1.342 1.907
5.788 1.391 1.903
5.777 1.441 1.901
5.756 1.49 1.897
5.655 1.516 1.878
5.515 1.529 1.852
5.695 1.634 1.885
5.677 1.682 1.882
5.659 1.731 1.879
5.48 1.728 1.845
5.182 1.682 1.79
5.49 1.837 1.847
5.401 1.859 1.831
5.112 1.808 1.777
5.093 1.851 1.773
5.021 1.874 1.76
4.988 1.911 1.754
5.105 2.008 1.776
4.847 1.954 1.728
4.851 2.004 1.728
4.822 2.042 1.723
4.979 2.161 1.752
4.937 2.194 1.744
4.91 2.233 1.739
4.728 2.198 1.705
4.692 2.231 1.699
3.285 1.583 1.437
3.218 1.584 1.424
2.761 1.382 1.339
2.73 1.396 1.334
2.724 1.422 1.332
2.712 1.446 1.33
2.703 1.471 1.329
2.675 1.486 1.323
2.621 1.484 1.313
2.613 1.509 1.312
2.607 1.536 1.311
2.593 1.558 1.308
2.585 1.583 1.307
2.578 1.61 1.305
2.452 1.558 1.282
2.562 1.662 1.302
2.544 1.681 1.299
2.53 1.703 1.296
1.574 1.054 1.118
1.563 1.066 1.116
1.56 1.083 1.116
1.55 1.096 1.114
1.552 1.118 1.114
1.519 1.112 1.108
1.444 1.073 1.094
1.396 1.054 1.085
1.338 1.025 1.075
1.293 1.006 1.066
1.255 0.991 1.059
1.217 0.975 1.052
1.194 0.973 1.048
1.105 0.91 1.031
0 0 0
0 0 0
0 0 0
0.987 0.862 1.009
0.974 0.865 1.007
0.977 0.882 1.007
0.972 0.894 1.006
0.978 0.915 1.007
0.944 0.896 1.001
0.969 0.939 1.006
0.963 0.948 1.005
0.952 0.953 1.003
0.956 0.974 1.003
0.949 0.983 1.002
0.948 0.999 1.002
0.937 1.004 1
0.923 1.006 0.997
0.92 1.019 0.997
0.92 1.038 0.997
0.917 1.053 0.996
0.91 1.063 0.995
0.89 1.055 0.991
0.792 0.943 0.973
0.761 0.917 0.967
0.739 0.904 0.963
0.717 0.889 0.959
0.693 0.871 0.954
0.672 0.855 0.95
0.651 0.841 0.947
0.63 0.824 0.943
0.613 0.814 0.94
0.598 0.805 0.937
0.581 0.793 0.934
0.561 0.775 0.93
0.546 0.765 0.927
0.533 0.759 0.925
0.519 0.75 0.922
0.507 0.742 0.92
0.491 0.729 0.917
0.477 0.718 0.914
0.468 0.715 0.912
0.455 0.705 0.91
0.445 0.702 0.908
0.435 0.695 0.906
0.421 0.683 0.904
0.409 0.672 0.902
0.399 0.665 0.9
0.387 0.654 0.897
0.378 0.65 0.896
0.369 0.644 0.894
0.361 0.642 0.893
0.351 0.633 0.891
0.343 0.629 0.889
0.336 0.625 0.888
0.327 0.618 0.886
0.319 0.612 0.885
0.309 0.602 0.883
0.304 0.603 0.882
0.296 0.599 0.881
0.287 0.589 0.879
0.28 0.583 0.878
0.274 0.581 0.876
0.267 0.576 0.875
0.26 0.572 0.874
0.256 0.574 0.873
0.248 0.566 0.872
0.24 0.556 0.87
0.236 0.56 0.869
0.229 0.551 0.868
0.224 0.552 0.867
0.217 0.544 0.866
0.213 0.546 0.865
0.206 0.538 0.864
0.199 0.528 0.863
0.194 0.525 0.862
0.189 0.52 0.861
0.184 0.523 0.86
0.179 0.517 0.859
0.173 0.512 0.858
0.168 0.507 0.857
0.164 0.505 0.856
0.159 0.501 0.855
0.154 0.501 0.854
0.15 0.502 0.853
0.144 0.49 0.852
0.14 0.486 0.851
0.136 0.49 0.851
0.131 0.484 0.85
0.126 0.476 0.849
0.122 0.473 0.848
0.118 0.472 0.847
0.114 0.473 0.847
0.11 0.471 0.846
0.106 0.469 0.845
0.102 0.456 0.844
0.098 0.458 0.844
0.094 0.459 0.843
0.094 -6.926 0.843
0.153 -6.959 0.855
0.212 -6.925 0.866
0.271 -6.903 0.877
0.33 -6.878 0.888
0.393 -6.979 0.9
0.477 -7.454 0.916
0.556 -7.703 0.931
0.622 -7.687 0.944
0.696 -7.795 0.958
0.784 -8.03 0.974
0.875 -8.262 0.992
0.973 -8.514 1.01
0.14 -0.415 0.852
0.142 -0.402 0.852
0.146 -0.404 0.853
0.15 -0.407 0.854
0.153 -0.403 0.854
0.155 -0.395 0.855
0.159 -0.396 0.856
0.163 -0.4 0.856
0.166 -0.398 0.857
0.169 -0.396 0.858
0.172 -0.393 0.858
0.175 -0.388 0.859
0.179 -0.392 0.859
0.182 -0.389 0.86
0.185 -0.389 0.861
0.189 -0.39 0.861
0.191 -0.384 0.862
0.195 -0.384 0.862
0.196 -0.378 0.863
0.201 -0.382 0.864
0.205 -0.384 0.864
0.207 -0.378 0.865
0.212 -0.382 0.866
0.215 -0.381 0.866
0.219 -0.382 0.867
0.222 -0.381 0.868
0.222 -0.369 0.868
0.226 -0.369 0.868
0.228 -0.367 0.869
0.229 -0.359 0.869
0.235 -0.365 0.87
0.237 -0.363 0.871
0.242 -0.365 0.871
0.244 -0.36 0.872
0.249 -0.365 0.873
0.252 -0.363 0.873
0.257 -0.364 0.874
0.261 -0.365 0.875
0.264 -0.364 0.876
0.266 -0.36 0.876
0.27 -0.361 0.877
0.272 -0.357 0.877
0.277 -0.358 0.878
0.28 -0.357 0.879
0.282 -0.353 0.879
0.288 -0.357 0.88
0.291 -0.355 0.881
0.293 -0.351 0.881
0.298 -0.353 0.882
0.297 -0.345 0.882
0.3 -0.343 0.882
0.306 -0.346 0.884
0.309 -0.344 0.884
0.312 -0.343 0.885
0.314 -0.339 0.885
0.317 -0.337 0.886
0.326 -0.344 0.887
0.328 -0.341 0.888
0.337 -0.347 0.889
0.339 -0.344 0.89
0.344 -0.344 0.891
0.348 -0.344 0.892
0.35 -0.34 0.892
0.355 -0.341 0.893
0.357 -0.337 0.893
0.364 -0.34 0.895
0.367 -0.338 0.895
0.368 -0.332 0.895
0.376 -0.337 0.897
0.379 -0.334 0.897
0.388 -0.339 0.899
0.392 -0.337 0.9
0.433 -0.377 0.908
0.618 -0.572 0.943
0.933 -0.901 1.003
0.964 -0.917 1.009
0.969 -0.907 1.01
0.995 -0.917 1.014
1 -0.906 1.015
1.007 -0.898 1.017
1.021 -0.896 1.02
1.023 -0.883 1.02
1.044 -0.886 1.024
1.044 -0.871 1.024
1.064 -0.874 1.028
1.069 -0.863 1.029
6.644 -5.694 2.088
6.719 -5.659 2.102
6.761 -5.595 2.11
6.904 -5.614 2.137
6.962 -5.562 2.149
7.076 -5.553 2.17
7.134 -5.499 2.181
7.155 -5.416 2.185
7.26 -5.398 2.205
7.248 -5.291 2.203
7.289 -5.225 2.211
6.712 -4.717 2.101
7.201 -4.972 2.194
7.241 -4.907 2.201
7.317 -4.866 2.216
7.671 -5.009 2.283
7.685 -4.923 2.286
7.673 -4.821 2.284
7.764 -4.785 2.301
7.848 -4.742 2.317
6.165 -3.64 1.997
6.144 -3.555 1.993
6.101 -3.46 1.985
6.073 -3.374 1.979
6.031 -3.281 1.971
5.996 -3.194 1.965
7.854 -4.112 2.318
7.809 -4.001 2.309
7.768 -3.895 2.302
7.722 -3.787 2.293
7.687 -3.687 2.286
7.656 -3.589 2.28
7.615 -3.489 2.273
7.276 -3.255 2.208
7.198 -3.145 2.193
7.164 -3.055 2.187
7.131 -2.967 2.181
7.1 -2.881 2.175
7.071 -2.798 2.169
7.105 -2.74 2.176
7.275 -2.733 2.208
7.313 -2.675 2.215
7.275 -2.589 2.208
7.248 -2.508 2.203
7.214 -2.425 2.196
7.183 -2.345 2.19
6.571 -2.079 2.074
6.556 -2.011 2.071
3.681 -1.082 1.525
3.649 -1.038 1.519
3.653 -1.005 1.52
3.684 -0.979 1.526
6.843 -1.777 2.126
6.958 -1.742 2.148
3.798 -0.905 1.547
3.788 -0.868 1.545
3.785 -0.833 1.545
3.814 -0.805 1.55
6.821 -1.393 2.122
6.807 -1.328 2.119
6.766 -1.259 2.111
6.754 -1.195 2.109
6.727 -1.13 2.104
6.703 -1.066 2.099
5.907 -0.884 1.948
5.931 -0.835 1.952
5.956 -0.786 1.957
5.848 -0.719 1.937
5.466 -0.623 1.864
5.443 -0.572 1.86
5.413 -0.521 1.854
5.384 -0.471 1.849
5.36 -0.422 1.844
5.334 -0.373 1.839
5.305 -0.324 1.834
5.301 -0.278 1.833
5.383 -0.235 1.848
5.474 -0.191 1.866
5.554 -0.146 1.881
5.528 -0.097 1.876
5.611 -0.049 1.892
5.682 -0 1.905
4.648 0.04 1.709
4.639 0.081 1.707
4.62 0.121 1.703
4.61 0.161 1.701
4.599 0.2 1.699
4.579 0.239 1.696
4.568 0.279 1.693
4.557 0.318 1.691
4.536 0.356 1.687
4.514 0.394 1.683
4.501 0.432 1.681
4.49 0.47 1.679
4.469 0.507 1.675
4.443 0.544 1.67
5.597 0.737 1.889
5.582 0.785 1.886
5.568 0.833 1.883
5.543 0.879 1.879
5.525 0.925 1.875
5.536 0.977 1.877
5.775 1.072 1.923
5.874 1.144 1.942
4.889 0.993 1.754
5.836 1.242 1.934
5.141 1.139 1.802
5.804 1.342 1.928
5.784 1.391 1.925
5.707 1.425 1.91
5.613 1.453 1.892
5.646 1.514 1.898
5.525 1.533 1.875
5.626 1.615 1.894
5.677 1.683 1.904
5.581 1.708 1.886
5.378 1.696 1.847
5.102 1.656 1.795
5.471 1.831 1.865
5.555 1.914 1.881
5.109 1.808 1.796
5.066 1.842 1.788
5.037 1.881 1.783
5.065 1.942 1.788
5.139 2.023 1.802
4.916 1.983 1.76
4.988 2.064 1.773
4.866 2.062 1.75
5.09 2.211 1.793
4.814 2.139 1.74
4.777 2.173 1.733
4.707 2.19 1.72
4.826 2.298 1.743
3.387 1.635 1.469
3.226 1.59 1.439
2.774 1.39 1.353
2.73 1.397 1.344
2.715 1.419 1.341
2.71 1.446 1.34
2.703 1.472 1.339
2.682 1.491 1.335
2.626 1.488 1.324
2.611 1.509 1.322
2.605 1.536 1.32
2.591 1.558 1.318
2.582 1.583 1.316
2.576 1.61 1.315
2.547 1.622 1.309
2.558 1.66 1.312
2.54 1.68 1.308
2.537 1.709 1.308
1.574 1.055 1.124
1.561 1.066 1.122
1.559 1.084 1.122
1.549 1.096 1.12
1.544 1.112 1.119
1.511 1.107 1.113
1.442 1.072 1.099
1.397 1.055 1.091
1.343 1.03 1.081
1.293 1.006 1.071
1.256 0.992 1.064
1.215 0.975 1.056
1.193 0.973 1.052
0 0 0
0 0 0
0 0 0
0 0 0
0.989 0.865 1.013
0.969 0.861 1.01
0.968 0.875 1.009
0.966 0.888 1.009
0.966 0.904 1.009
0.967 0.921 1.009
0.971 0.941 1.01
0.952 0.937 1.006
0.948 0.949 1.006
0.94 0.956 1.004
0.955 0.991 1.007
0.942 0.993 1.004
0.939 1.008 1.004
0.924 1.007 1.001
0.925 1.026 1.001
0.918 1.037 1
0.923 1.061 1.001
0.908 1.061 0.998
0.893 1.061 0.995
0.792 0.944 0.976
0.761 0.918 0.97
0.739 0.904 0.966
0.716 0.888 0.962
0.693 0.871 0.957
0.671 0.855 0.953
0.65 0.84 0.949
0.63 0.825 0.945
0.613 0.814 0.942
0.597 0.804 0.939
0.58 0.793 0.936
0.565 0.783 0.933
0.546 0.766 0.929
0.538 0.768 0.928
0.514 0.741 0.923
0.506 0.742 0.922
0.491 0.729 0.919
0.481 0.727 0.917
0.466 0.713 0.914
0.454 0.704 0.912
0.445 0.703 0.91
0.43 0.687 0.907
0.42 0.682 0.905
0.408 0.672 0.903
0.399 0.666 0.901
0.386 0.654 0.899
0.378 0.65 0.897
0.369 0.644 0.895
0.361 0.642 0.894
0.351 0.633 0.892
0.343 0.629 0.891
0.335 0.623 0.889
0.326 0.616 0.887
0.318 0.61 0.886
0.309 0.602 0.884
0.303 0.603 0.883
0.294 0.593 0.881
0.29 0.596 0.88
0.279 0.581 0.878
0.274 0.582 0.877
0.266 0.576 0.876
0.26 0.572 0.875
0.253 0.565 0.873
0.248 0.566 0.873
0.24 0.557 0.871
0.236 0.561 0.87
0.229 0.554 0.869
0.222 0.545 0.868
0.217 0.544 0.867
0.21 0.535 0.865
0.206 0.537 0.865
0.199 0.528 0.863
0.194 0.526 0.862
0.188 0.521 0.861
0.183 0.516 0.86
0.179 0.518 0.859
0.173 0.514 0.858
0.168 0.509 0.857
0.164 0.507 0.857
0.158 0.501 0.856
0.154 0.501 0.855
0.149 0.493 0.854
0.144 0.492 0.853
0.14 0.486 0.852
0.136 0.49 0.851
0.131 0.485 0.85
0.127 0.483 0.85
0.123 0.482 0.849
0.118 0.479 0.848
0.114 0.47 0.847
0.11 0.469 0.846
0.106 0.469 0.846
0.101 0.46 0.845
0.097 0.457 0.844
0.094 0.465 0.843
0.093 -6.927 0.844
0.153 -6.96 0.856
0.212 -6.924 0.867
0.271 -6.903 0.879
0.329 -6.876 0.89
0.392 -6.98 0.903
0.477 -7.463 0.92
0.555 -7.694 0.935
0.621 -7.687 0.948
0.696 -7.801 0.963
0.781 -8.014 0.98
0.874 -8.269 0.998
0.973 -8.53 1.018
0.137 -0.392 0.853
0.142 -0.402 0.853
0.146 -0.405 0.854
0.15 -0.409 0.855
0.152 -0.404 0.856
0.156 -0.401 0.856
0.158 -0.396 0.857
0.162 -0.399 0.858
0.166 -0.398 0.858
0.168 -0.394 0.859
0.172 -0.393 0.859
0.174 -0.389 0.86
0.177 -0.384 0.86
0.18 -0.382 0.861
0.183 -0.382 0.862
0.189 -0.39 0.863
0.193 -0.392 0.864
0.194 -0.384 0.864
0.198 -0.386 0.865
0.201 -0.383 0.865
0.205 -0.384 0.866
0.207 -0.378 0.866
0.211 -0.38 0.867
0.215 -0.381 0.868
0.219 -0.382 0.869
0.222 -0.382 0.869
0.221 -0.368 0.869
0.225 -0.369 0.87
0.227 -0.365 0.87
0.228 -0.358 0.871
0.233 -0.363 0.872
0.235 -0.359 0.872
0.243 -0.37 0.874
0.245 -0.365 0.874
0.251 -0.37 0.875
0.251 -0.361 0.875
0.256 -0.365 0.876
0.26 -0.365 0.877
0.265 -0.366 0.878
0.268 -0.365 0.878
0.269 -0.359 0.879
0.272 -0.357 0.879
0.277 -0.359 0.88
0.279 -0.357 0.881
0.287 -0.363 0.882
0.288 -0.359 0.882
0.291 -0.357 0.883
0.293 -0.353 0.883
0.294 -0.348 0.884
0.301 -0.352 0.885
0.304 -0.35 0.886
0.311 -0.355 0.887
0.308 -0.343 0.886
0.311 -0.342 0.887
0.318 -0.346 0.888
0.317 -0.337 0.888
0.324 -0.343 0.89
0.323 -0.335 0.889
0.337 -0.348 0.892
0.338 -0.343 0.892
0.343 -0.344 0.893
0.348 -0.345 0.894
0.349 -0.34 0.895
0.355 -0.341 0.896
0.356 -0.337 0.896
0.359 -0.334 0.896
0.367 -0.338 0.898
0.366 -0.332 0.898
0.376 -0.337 0.9
0.384 -0.34 0.901
0.387 -0.339 0.902
0.39 -0.336 0.903
0.439 -0.384 0.912
0.629 -0.585 0.95
0.931 -0.899 1.009
0.953 -0.907 1.014
0.976 -0.916 1.018
0.98 -0.904 1.019
0.989 -0.897 1.021
1.006 -0.898 1.024
1.023 -0.899 1.028
1.032 -0.892 1.029
1.036 -0.881 1.03
1.053 -0.881 1.034
1.059 -0.871 1.035
1.075 -0.87 1.038
1.077 -0.857 1.038
6.704 -5.654 2.15
6.745 -5.589 2.158
6.876 -5.598 2.184
6.937 -5.549 2.196
7.034 -5.527 2.215
6.213 -4.787 2.053
7.199 -5.458 2.248
6.363 -4.729 2.083
7.333 -5.362 2.275
7.245 -5.2 2.257
6.664 -4.69 2.142
7.198 -4.978 2.248
7.228 -4.906 2.254
7.313 -4.871 2.271
7.68 -5.022 2.343
7.676 -4.924 2.342
7.662 -4.821 2.34
7.753 -4.785 2.357
7.848 -4.75 2.376
6.158 -3.642 2.042
6.13 -3.553 2.037
6.095 -3.461 2.03
6.062 -3.372 2.023
6.022 -3.281 2.016
5.992 -3.197 2.01
6.036 -3.153 2.018
6.104 -3.122 2.032
6.18 -3.093 2.047
6.244 -3.058 2.059
6.325 -3.03 2.075
7.633 -3.584 2.334
6.732 -3.084 2.156
7.257 -3.251 2.259
6.932 -3.031 2.195
7.149 -3.053 2.238
7.104 -2.96 2.229
7.09 -2.881 2.226
7.06 -2.798 2.221
7.127 -2.752 2.234
7.259 -2.731 2.26
7.294 -2.672 2.267
7.265 -2.589 2.261
7.226 -2.504 2.253
7.206 -2.426 2.249
7.002 -2.288 2.209
6.673 -2.115 2.144
6.643 -2.041 2.138
3.686 -1.085 1.554
3.636 -1.036 1.544
3.643 -1.003 1.545
3.684 -0.981 1.553
6.893 -1.792 2.188
6.94 -1.74 2.197
3.784 -0.903 1.573
3.782 -0.868 1.573
3.782 -0.834 1.573
3.798 -0.803 1.576
6.811 -1.393 2.171
6.789 -1.327 2.167
6.767 -1.261 2.163
6.742 -1.195 2.158
6.719 -1.13 2.153
6.694 -1.066 2.148
5.898 -0.884 1.991
5.923 -0.835 1.996
5.947 -0.786 2.001
5.805 -0.715 1.973
5.459 -0.623 1.904
5.428 -0.572 1.898
5.404 -0.521 1.893
5.366 -0.47 1.886
5.345 -0.421 1.882
5.329 -0.373 1.879
5.295 -0.324 1.872
5.3 -0.278 1.873
5.379 -0.235 1.888
5.466 -0.191 1.906
5.553 -0.146 1.923
5.608 -0.098 1.934
5.573 -0.049 1.927
5.68 -0 1.948
4.65 0.041 1.744
4.624 0.081 1.739
4.613 0.121 1.737
4.603 0.161 1.735
4.592 0.2 1.733
4.572 0.239 1.729
4.561 0.279 1.727
4.542 0.317 1.723
4.53 0.356 1.721
4.509 0.394 1.716
4.497 0.432 1.714
4.476 0.47 1.71
4.464 0.508 1.708
4.465 0.547 1.708
5.591 0.738 1.93
5.575 0.785 1.927
5.56 0.833 1.924
5.534 0.878 1.919
5.517 0.925 1.916
5.526 0.976 1.917
5.767 1.072 1.965
5.866 1.144 1.985
4.888 0.994 1.791
5.827 1.242 1.977
5.486 1.219 1.909
5.796 1.342 1.971
5.777 1.391 1.967
5.747 1.437 1.961
5.647 1.464 1.941
5.567 1.495 1.925
5.702 1.586 1.952
5.564 1.599 1.925
5.557 1.65 1.924
5.589 1.713 1.93
5.235 1.652 1.86
0 0 0
5.48 1.837 1.908
5.488 1.894 1.91
5.299 1.879 1.873
5.065 1.845 1.826
5.219 1.953 1.857
5.182 1.991 1.849
5.167 2.037 1.847
5.023 2.03 1.818
5.02 2.08 1.818
5.029 2.136 1.819
4.978 2.165 1.809
4.829 2.149 1.78
4.925 2.245 1.799
4.894 2.282 1.793
5.008 2.389 1.815
3.56 1.724 1.529
3.228 1.593 1.463
2.763 1.386 1.371
2.726 1.397 1.364
2.719 1.423 1.363
2.705 1.445 1.36
2.691 1.468 1.357
2.671 1.487 1.353
2.622 1.488 1.344
2.609 1.51 1.341
2.601 1.536 1.339
2.588 1.558 1.337
2.578 1.583 1.335
2.564 1.604 1.332
2.559 1.632 1.331
2.552 1.659 1.33
2.536 1.68 1.327
2.524 1.703 1.324
1.571 1.055 1.136
1.56 1.066 1.134
1.556 1.083 1.133
1.547 1.096 1.131
1.542 1.113 1.13
1.513 1.11 1.124
1.44 1.072 1.11
1.386 1.048 1.099
1.341 1.03 1.09
1.296 1.011 1.082
1.252 0.991 1.073
1.214 0.975 1.065
1.191 0.973 1.061
0 0 0
0 0 0
0 0 0
1.002 0.863 1.023
0.976 0.854 1.018
0.968 0.861 1.017
0.967 0.875 1.016
0.965 0.888 1.016
0.967 0.906 1.016
0.974 0.929 1.018
0.958 0.929 1.015
0.954 0.941 1.014
0.947 0.95 1.013
0.939 0.957 1.011
0.964 1.004 1.016
0.964 1.021 1.016
0.953 1.026 1.014
0.941 1.03 1.012
0.936 1.042 1.01
0.941 1.067 1.011
0.926 1.067 1.009
0.926 1.087 1.008
0.902 1.075 1.004
0.796 0.95 0.983
0.76 0.919 0.976
0.738 0.904 0.971
0.715 0.888 0.967
0.691 0.871 0.962
0.67 0.855 0.958
0.649 0.84 0.954
0.631 0.828 0.95
0.611 0.813 0.946
0.597 0.805 0.943
0.579 0.793 0.94
0.565 0.784 0.937
0.545 0.766 0.933
0.531 0.758 0.93
0.517 0.748 0.928
0.501 0.735 0.924
0.485 0.721 0.921
0.476 0.718 0.919
0.466 0.714 0.918
0.452 0.703 0.915
0.444 0.702 0.913
0.429 0.686 0.91
0.42 0.682 0.908
0.408 0.673 0.906
0.398 0.665 0.904
0.386 0.654 0.902
0.377 0.649 0.9
0.367 0.643 0.898
0.36 0.641 0.897
0.351 0.634 0.895
0.342 0.627 0.893
0.334 0.623 0.892
0.325 0.616 0.89
0.32 0.618 0.889
0.311 0.61 0.887
0.303 0.603 0.885
0.294 0.593 0.883
0.287 0.589 0.882
0.282 0.591 0.881
0.273 0.582 0.879
0.266 0.576 0.878
0.26 0.573 0.877
0.253 0.566 0.875
0.247 0.565 0.874
0.242 0.566 0.873
0.233 0.551 0.872
0.229 0.553 0.871
0.224 0.555 0.87
0.216 0.544 0.868
0.21 0.537 0.867
0.205 0.538 0.866
0.199 0.528 0.865
0.193 0.525 0.864
0.187 0.518 0.863
0.184 0.526 0.862
0.178 0.518 0.861
0.173 0.514 0.86
0.168 0.509 0.859
0.163 0.508 0.858
0.159 0.51 0.857
0.154 0.5 0.856
0.148 0.493 0.855
0.144 0.493 0.854
0.139 0.489 0.853
0.135 0.488 0.852
0.131 0.485 0.851
0.127 0.489 0.851
0.122 0.472 0.85
0.118 0.48 0.849
0.113 0.469 0.848
0.109 0.468 0.847
0.105 0.469 0.846
0.101 0.46 0.845
0.097 0.457 0.845
0.093 0.457 0.844
0.093 -6.929 0.845
0.152 -6.968 0.857
0.211 -6.926 0.869
0.27 -6.912 0.881
0.329 -6.887 0.893
0.392 -6.982 0.906
0.476 -7.463 0.923
0.554 -7.7 0.939
0.619 -7.684 0.953
0.694 -7.795 0.968
0.781 -8.024 0.986
0.872 -8.255 1.004
0.97 -8.519 1.025
0.138 -0.401 0.854
0.141 -0.399 0.854
0.145 -0.405 0.855
0.148 -0.401 0.856
0.152 -0.404 0.857
0.156 -0.406 0.858
0.158 -0.396 0.858
0.162 -0.398 0.859
0.165 -0.397 0.859
0.168 -0.392 0.86
0.171 -0.394 0.861
0.174 -0.389 0.861
0.177 -0.386 0.862
0.181 -0.39 0.863
0.185 -0.39 0.863
0.188 -0.39 0.864
0.19 -0.383 0.865
0.194 -0.385 0.865
0.196 -0.38 0.866
0.2 -0.382 0.867
0.204 -0.384 0.867
0.206 -0.378 0.868
0.211 -0.381 0.869
0.214 -0.381 0.87
0.215 -0.374 0.87
0.219 -0.373 0.87
0.223 -0.374 0.871
0.224 -0.367 0.871
0.226 -0.364 0.872
0.231 -0.367 0.873
0.233 -0.362 0.873
0.236 -0.363 0.874
0.243 -0.369 0.875
0.245 -0.365 0.876
0.25 -0.37 0.877
0.25 -0.361 0.877
0.258 -0.369 0.878
0.26 -0.365 0.879
0.262 -0.363 0.879
0.264 -0.358 0.88
0.268 -0.359 0.881
0.27 -0.355 0.881
0.28 -0.367 0.883
0.279 -0.358 0.883
0.281 -0.353 0.883
0.284 -0.352 0.884
0.291 -0.357 0.885
0.293 -0.354 0.886
0.298 -0.355 0.887
0.3 -0.352 0.887
0.303 -0.35 0.888
0.305 -0.346 0.888
0.308 -0.344 0.889
0.311 -0.342 0.889
0.317 -0.346 0.891
0.32 -0.344 0.891
0.322 -0.34 0.892
0.328 -0.342 0.893
0.336 -0.348 0.895
0.337 -0.343 0.895
0.342 -0.343 0.896
0.348 -0.346 0.897
0.348 -0.34 0.897
0.353 -0.34 0.898
0.361 -0.344 0.9
0.362 -0.34 0.9
0.361 -0.333 0.9
0.365 -0.331 0.9
0.379 -0.342 0.903
0.383 -0.341 0.904
0.386 -0.339 0.905
0.389 -0.336 0.905
0.453 -0.401 0.918
0.679 -0.641 0.965
1.048 -1.028 1.041
0.96 -0.916 1.022
0.97 -0.912 1.025
0.982 -0.908 1.027
0.997 -0.907 1.03
1.005 -0.9 1.032
1.019 -0.897 1.035
1.022 -0.885 1.035
1.043 -0.888 1.039
1.056 -0.885 1.042
1.062 -0.875 1.043
1.073 -0.87 1.046
1.085 -0.865 1.048
6.697 -5.657 2.2
6.632 -5.503 2.186
6.829 -5.568 2.227
6.193 -4.953 2.096
6.156 -4.836 2.089
6.214 -4.795 2.101
6.284 -4.763 2.115
6.355 -4.73 2.13
6.418 -4.691 2.143
6.503 -4.668 2.16
0 0 0
7.178 -4.971 2.298
7.218 -4.906 2.307
7.303 -4.872 2.324
7.677 -5.028 2.401
7.662 -4.923 2.398
7.648 -4.82 2.395
7.739 -4.783 2.414
7.834 -4.748 2.433
6.151 -3.643 2.088
6.114 -3.548 2.08
6.086 -3.461 2.074
6.047 -3.369 2.067
6.005 -3.277 2.058
5.978 -3.194 2.052
6.03 -3.155 2.063
6.097 -3.123 2.077
6.179 -3.098 2.093
6.246 -3.064 2.107
6.313 -3.029 2.121
6.522 -3.06 2.164
6.474 -2.969 2.154
6.682 -2.995 2.197
6.654 -2.912 2.191
6.849 -2.928 2.231
6.837 -2.852 2.229
7.01 -2.853 2.264
7 -2.777 2.262
7.115 -2.752 2.285
7.246 -2.73 2.312
7.282 -2.671 2.32
7.255 -2.589 2.314
7.216 -2.504 2.306
7.194 -2.425 2.302
6.771 -2.215 2.215
6.599 -2.094 2.18
6.689 -2.059 2.198
6.554 -1.954 2.17
3.638 -1.038 1.572
3.639 -1.004 1.572
3.673 -0.979 1.579
3.578 -0.92 1.56
6.931 -1.74 2.248
3.793 -0.907 1.604
3.778 -0.869 1.601
3.776 -0.834 1.6
3.785 -0.801 1.602
6.803 -1.394 2.221
6.779 -1.327 2.217
6.748 -1.259 2.21
6.725 -1.194 2.206
6.709 -1.13 2.202
6.674 -1.064 2.195
5.888 -0.884 2.034
5.913 -0.835 2.039
5.938 -0.786 2.044
5.717 -0.705 1.999
5.49 -0.628 1.952
5.415 -0.571 1.937
5.399 -0.522 1.933
5.366 -0.471 1.927
5.411 -0.427 1.936
5.321 -0.373 1.917
5.356 -0.329 1.925
5.284 -0.278 1.91
5.375 -0.235 1.928
5.454 -0.191 1.945
5.549 -0.146 1.964
5.598 -0.098 1.974
5.627 -0.049 1.98
5.758 -0 2.007
4.644 0.041 1.778
4.625 0.081 1.775
4.606 0.121 1.771
4.597 0.161 1.769
4.587 0.2 1.767
4.566 0.239 1.763
4.544 0.278 1.758
4.535 0.317 1.756
4.515 0.355 1.752
4.501 0.394 1.749
4.48 0.431 1.745
4.467 0.469 1.742
4.456 0.507 1.74
5.576 0.687 1.97
5.583 0.738 1.971
5.558 0.784 1.966
5.542 0.831 1.963
5.525 0.878 1.959
5.51 0.925 1.956
5.517 0.976 1.958
5.776 1.075 2.011
5.857 1.144 2.027
4.909 1 1.833
5.819 1.242 2.02
5.479 1.219 1.95
5.78 1.34 2.012
5.761 1.389 2.008
5.749 1.44 2.005
5.728 1.488 2.001
5.696 1.533 1.994
5.694 1.586 1.994
5.633 1.622 1.981
5.509 1.638 1.956
5.536 1.699 1.961
5.145 1.626 1.881
0 0 0
5.414 1.818 1.937
5.303 1.831 1.914
5.258 1.867 1.905
5.181 1.89 1.889
5.241 1.965 1.901
5.205 2.003 1.894
5.13 2.026 1.878
5.027 2.035 1.857
4.997 2.074 1.851
5.06 2.153 1.864
5.352 2.334 1.924
5.067 2.261 1.865
5.048 2.305 1.861
5.05 2.359 1.862
5.208 2.491 1.894
3.562 1.727 1.556
3.226 1.595 1.488
2.744 1.379 1.389
2.722 1.397 1.384
2.707 1.419 1.381
2.701 1.446 1.38
2.695 1.472 1.379
2.668 1.487 1.373
2.618 1.488 1.363
2.605 1.51 1.36
2.597 1.536 1.358
2.584 1.559 1.356
2.574 1.583 1.354
2.559 1.604 1.351
2.553 1.631 1.349
2.546 1.657 1.348
2.533 1.68 1.345
2.529 1.709 1.345
1.567 1.054 1.147
1.564 1.071 1.146
1.554 1.083 1.144
1.544 1.096 1.142
1.539 1.113 1.141
1.511 1.111 1.136
1.44 1.074 1.121
1.387 1.051 1.11
1.338 1.03 1.1
1.293 1.01 1.091
1.252 0.993 1.083
1.218 0.981 1.075
1.194 0.977 1.07
0 0 0
0 0 0
0 0 0
1 0.863 1.031
0.977 0.856 1.026
0.97 0.865 1.025
0.967 0.877 1.024
0.964 0.889 1.023
0.954 0.894 1.021
0.963 0.92 1.023
0.949 0.921 1.02
0.953 0.941 1.021
0.936 0.939 1.018
0.936 0.956 1.018
0.946 0.984 1.02
0.958 1.016 1.022
0.944 1.017 1.019
0.928 1.016 1.016
0.924 1.029 1.015
0.929 1.054 1.016
0.915 1.055 1.013
0.92 1.08 1.014
0.897 1.069 1.01
0.796 0.952 0.989
0.757 0.916 0.981
0.738 0.906 0.977
0.712 0.887 0.972
0.69 0.87 0.967
0.668 0.855 0.963
0.648 0.84 0.958
0.624 0.82 0.954
0.61 0.813 0.951
0.596 0.805 0.948
0.578 0.793 0.944
0.563 0.784 0.941
0.548 0.773 0.938
0.529 0.757 0.934
0.517 0.75 0.932
0.503 0.741 0.929
0.489 0.729 0.926
0.474 0.716 0.923
0.465 0.714 0.921
0.455 0.71 0.919
0.438 0.692 0.916
0.428 0.686 0.913
0.418 0.68 0.911
0.41 0.68 0.91
0.397 0.665 0.907
0.385 0.654 0.905
0.375 0.648 0.903
0.367 0.643 0.901
0.359 0.639 0.899
0.35 0.633 0.897
0.341 0.627 0.895
0.333 0.622 0.894
0.324 0.615 0.892
0.316 0.608 0.89
0.308 0.602 0.889
0.302 0.603 0.888
0.294 0.596 0.886
0.286 0.588 0.884
0.278 0.581 0.883
0.273 0.582 0.881
0.265 0.576 0.88
0.259 0.572 0.879
0.254 0.574 0.878
0.246 0.565 0.876
0.239 0.556 0.875
0.232 0.55 0.873
0.228 0.554 0.872
0.221 0.545 0.871
0.216 0.545 0.87
0.21 0.537 0.869
0.205 0.538 0.868
0.198 0.528 0.866
0.193 0.526 0.865
0.189 0.529 0.864
0.184 0.525 0.863
0.176 0.509 0.862
0.172 0.513 0.861
0.167 0.506 0.86
0.163 0.509 0.859
0.159 0.509 0.858
0.153 0.502 0.857
0.149 0.501 0.856
0.144 0.493 0.855
0.139 0.49 0.854
0.135 0.49 0.853
0.13 0.483 0.852
0.126 0.479 0.851
0.122 0.482 0.851
0.117 0.473 0.85
0.113 0.469 0.849
0.109 0.468 0.848
0.105 0.469 0.847
0.101 0.463 0.846
0.097 0.458 0.845
0.093 0.456 0.845
0.093 -6.938 0.845
0.152 -6.96 0.858
0.211 -6.925 0.87
0.269 -6.902 0.883
0.328 -6.888 0.895
0.391 -6.982 0.909
0.476 -7.473 0.927
0.553 -7.694 0.943
0.619 -7.696 0.957
0.692 -7.789 0.973
0.779 -8.024 0.991
0.87 -8.25 1.011
0.967 -8.509 1.031
0.135 -0.384 0.854
0.141 -0.404 0.856
0.145 -0.406 0.856
0.148 -0.402 0.857
0.152 -0.405 0.858
0.155 -0.402 0.859
0.158 -0.396 0.859
0.16 -0.392 0.86
0.163 -0.389 0.86
0.167 -0.392 0.861
0.169 -0.385 0.862
0.174 -0.389 0.862
0.178 -0.395 0.864
0.18 -0.389 0.864
0.183 -0.383 0.864
0.186 -0.381 0.865
0.192 -0.391 0.866
0.193 -0.384 0.867
0.195 -0.379 0.867
0.199 -0.381 0.868
0.204 -0.385 0.869
0.204 -0.373 0.869
0.211 -0.382 0.87
0.213 -0.379 0.871
0.215 -0.373 0.871
0.218 -0.372 0.872
0.22 -0.368 0.872
0.224 -0.369 0.873
0.226 -0.364 0.874
0.227 -0.358 0.874
0.232 -0.362 0.875
0.239 -0.371 0.876
0.24 -0.364 0.877
0.244 -0.364 0.877
0.25 -0.37 0.879
0.253 -0.368 0.879
0.257 -0.369 0.88
0.259 -0.365 0.881
0.263 -0.365 0.881
0.267 -0.366 0.882
0.268 -0.36 0.883
0.275 -0.365 0.884
0.276 -0.359 0.884
0.278 -0.357 0.885
0.284 -0.361 0.886
0.284 -0.353 0.886
0.286 -0.349 0.886
0.294 -0.356 0.888
0.298 -0.356 0.889
0.299 -0.351 0.889
0.303 -0.35 0.89
0.305 -0.348 0.89
0.306 -0.342 0.891
0.311 -0.344 0.892
0.31 -0.336 0.892
0.318 -0.342 0.893
0.321 -0.34 0.894
0.321 -0.334 0.894
0.336 -0.349 0.897
0.336 -0.343 0.897
0.345 -0.349 0.899
0.343 -0.34 0.899
0.352 -0.345 0.9
0.353 -0.34 0.901
0.36 -0.344 0.902
0.362 -0.34 0.903
0.365 -0.338 0.903
0.37 -0.338 0.904
0.373 -0.336 0.905
0.377 -0.334 0.906
0.386 -0.339 0.908
0.385 -0.332 0.908
0.459 -0.409 0.923
0.745 -0.715 0.984
1.062 -1.045 1.052
1.084 -1.05 1.056
1.049 -0.995 1.049
0.984 -0.911 1.035
1.076 -0.988 1.054
1.037 -0.932 1.046
1.133 -1.01 1.067
1.031 -0.895 1.045
1.037 -0.884 1.046
1.049 -0.881 1.049
1.057 -0.873 1.051
1.076 -0.874 1.055
1.078 -0.861 1.055
6.691 -5.66 2.25
6.57 -5.459 2.224
6.263 -5.109 2.159
6.185 -4.955 2.142
6.192 -4.872 2.143
6.224 -4.81 2.15
6.281 -4.768 2.162
0 0 0
6.421 -4.701 2.192
6.517 -4.685 2.213
6.797 -4.8 2.272
7.161 -4.967 2.35
7.217 -4.913 2.362
7.319 -4.89 2.383
7.664 -5.027 2.457
7.65 -4.923 2.454
7.642 -4.823 2.452
7.737 -4.789 2.472
7.825 -4.75 2.491
6.138 -3.641 2.132
6.108 -3.551 2.126
6.069 -3.457 2.117
6.032 -3.366 2.109
5.996 -3.277 2.102
5.969 -3.194 2.096
6.016 -3.153 2.106
6.088 -3.123 2.121
6.157 -3.091 2.136
6.236 -3.063 2.153
6.314 -3.034 2.169
6.387 -3.001 2.185
6.47 -2.971 2.202
6.544 -2.937 2.218
6.628 -2.905 2.236
6.708 -2.871 2.253
6.791 -2.837 2.271
6.877 -2.802 2.289
6.955 -2.764 2.306
7.122 -2.759 2.341
7.226 -2.727 2.363
7.272 -2.672 2.373
7.233 -2.585 2.365
7.204 -2.504 2.359
7.174 -2.422 2.352
6.626 -2.17 2.236
6.579 -2.091 2.226
6.518 -2.009 2.213
6.488 -1.937 2.206
3.63 -1.037 1.598
3.575 -0.987 1.586
3.592 -0.959 1.59
3.57 -0.919 1.585
3.618 -0.899 1.596
3.791 -0.908 1.632
3.769 -0.868 1.628
3.749 -0.829 1.623
3.749 -0.795 1.624
3.731 -0.757 1.62
6.76 -1.325 2.264
6.736 -1.259 2.259
6.715 -1.194 2.255
6.697 -1.13 2.251
6.662 -1.064 2.243
5.88 -0.884 2.077
5.905 -0.835 2.082
5.928 -0.786 2.087
5.916 -0.731 2.085
5.965 -0.684 2.095
5.57 -0.589 2.011
5.762 -0.558 2.052
5.541 -0.487 2.005
6.445 -0.511 2.197
5.49 -0.386 1.994
6.418 -0.396 2.191
5.439 -0.286 1.983
5.515 -0.242 1.999
5.486 -0.193 1.993
5.602 -0.148 2.018
5.635 -0.099 2.025
5.714 -0.05 2.042
6.265 -0 2.159
4.626 0.04 1.81
4.617 0.081 1.808
4.599 0.121 1.804
4.589 0.161 1.802
4.57 0.2 1.798
4.549 0.239 1.794
4.537 0.278 1.791
4.527 0.317 1.789
4.506 0.355 1.785
4.495 0.394 1.782
4.483 0.432 1.78
4.461 0.469 1.775
4.45 0.508 1.773
5.57 0.688 2.011
5.573 0.738 2.012
5.558 0.785 2.009
5.534 0.831 2.003
5.518 0.879 2
5.501 0.925 1.996
5.509 0.976 1.998
5.77 1.076 2.054
5.848 1.144 2.07
4.925 1.005 1.874
5.81 1.242 2.062
5.54 1.235 2.005
5.772 1.34 2.054
5.751 1.389 2.05
5.732 1.437 2.045
5.719 1.488 2.043
5.699 1.536 2.038
5.674 1.583 2.033
5.661 1.633 2.03
5.512 1.641 1.999
5.452 1.675 1.986
5.267 1.668 1.947
4.98 1.624 1.885
5.157 1.732 1.923
5.485 1.898 1.993
5.141 1.828 1.92
5.146 1.88 1.921
5.239 1.967 1.94
5.265 2.03 1.946
5.172 2.045 1.926
4.989 2.023 1.887
4.977 2.068 1.885
5 2.13 1.89
5.302 2.316 1.954
5.382 2.408 1.971
5.361 2.455 1.966
5.347 2.505 1.963
5.209 2.495 1.934
3.556 1.727 1.582
3.229 1.599 1.513
2.767 1.393 1.415
2.72 1.398 1.404
2.702 1.419 1.401
2.697 1.446 1.4
2.683 1.468 1.397
2.665 1.488 1.393
2.613 1.488 1.382
2.601 1.51 1.379
2.594 1.536 1.378
2.58 1.559 1.375
2.57 1.583 1.373
2.555 1.604 1.369
2.549 1.631 1.368
2.544 1.659 1.367
2.536 1.685 1.365
2.524 1.708 1.363
1.563 1.053 1.158
1.553 1.065 1.156
1.544 1.078 1.154
1.542 1.096 1.154
1.537 1.113 1.153
1.509 1.111 1.147
1.441 1.077 1.132
1.386 1.052 1.121
1.348 1.039 1.112
1.302 1.02 1.103
1.261 1.002 1.094
1.244 1.005 1.09
1.186 0.972 1.078
1.096 0.908 1.059
0 0 0
0 0 0
0 0 0
0.989 0.869 1.036
0.969 0.865 1.032
0.959 0.871 1.03
0.969 0.896 1.032
0.96 0.902 1.03
0.955 0.913 1.029
0.948 0.922 1.027
0.943 0.932 1.026
0.936 0.941 1.025
0.937 0.959 1.025
0.925 0.962 1.023
0.938 0.995 1.025
0.919 0.989 1.021
0.923 1.012 1.022
0.903 1.005 1.018
0.907 1.028 1.019
0.894 1.031 1.016
0.903 1.061 1.018
0.877 1.046 1.012
0.788 0.943 0.993
0.756 0.917 0.987
0.741 0.912 0.983
0.711 0.887 0.977
0.688 0.87 0.972
0.667 0.855 0.968
0.646 0.839 0.963
0.629 0.829 0.959
0.607 0.81 0.955
0.594 0.805 0.952
0.577 0.793 0.948
0.561 0.782 0.945
0.546 0.772 0.942
0.528 0.757 0.938
0.516 0.749 0.935
0.501 0.738 0.932
0.488 0.729 0.929
0.474 0.719 0.927
0.464 0.713 0.924
0.451 0.703 0.921
0.442 0.701 0.92
0.427 0.686 0.916
0.418 0.683 0.915
0.41 0.68 0.913
0.396 0.665 0.91
0.387 0.662 0.908
0.379 0.658 0.906
0.369 0.65 0.904
0.358 0.639 0.902
0.349 0.633 0.9
0.34 0.627 0.898
0.332 0.622 0.896
0.324 0.615 0.894
0.315 0.609 0.893
0.307 0.602 0.891
0.301 0.601 0.89
0.293 0.596 0.888
0.285 0.587 0.886
0.28 0.591 0.885
0.272 0.582 0.883
0.265 0.576 0.882
0.258 0.57 0.88
0.251 0.563 0.879
0.246 0.565 0.878
0.238 0.556 0.876
0.234 0.56 0.875
0.227 0.552 0.874
0.221 0.546 0.873
0.216 0.545 0.871
0.209 0.537 0.87
0.204 0.537 0.869
0.198 0.528 0.868
0.193 0.526 0.867
0.187 0.519 0.865
0.182 0.516 0.864
0.178 0.519 0.863
0.172 0.511 0.862
0.168 0.513 0.861
0.162 0.506 0.86
0.158 0.508 0.859
0.153 0.501 0.858
0.148 0.501 0.857
0.143 0.494 0.856
0.139 0.491 0.855
0.134 0.489 0.854
0.13 0.489 0.853
0.125 0.473 0.852
0.122 0.484 0.851
0.117 0.476 0.85
0.113 0.469 0.85
0.109 0.478 0.849
0.105 0.47 0.848
0.101 0.466 0.847
0.097 0.457 0.846
0.093 0.457 0.845
0.092 -6.929 0.846
0.152 -6.959 0.858
0.211 -6.925 0.871
0.269 -6.903 0.884
0.327 -6.877 0.896
0.39 -6.982 0.91
0.474 -7.453 0.928
0.552 -7.694 0.945
0.618 -7.687 0.959
0.692 -7.795 0.976
0.778 -8.02 0.994
0.871 -8.27 1.014
0.967 -8.514 1.035
0.135 -0.38 0.855
0.141 -0.407 0.856
0.145 -0.406 0.857
0.148 -0.402 0.858
0.15 -0.396 0.858
0.155 -0.401 0.859
0.157 -0.394 0.86
0.16 -0.392 0.86
0.165 -0.398 0.861
0.167 -0.391 0.862
0.171 -0.394 0.863
0.174 -0.39 0.863
0.176 -0.386 0.864
0.18 -0.389 0.865
0.185 -0.393 0.866
0.187 -0.388 0.866
0.189 -0.38 0.866
0.193 -0.384 0.867
0.197 -0.386 0.868
0.199 -0.382 0.869
0.203 -0.384 0.87
0.206 -0.381 0.87
0.209 -0.378 0.871
0.212 -0.378 0.872
0.214 -0.373 0.872
0.217 -0.372 0.873
0.221 -0.37 0.873
0.224 -0.369 0.874
0.226 -0.364 0.874
0.229 -0.365 0.875
0.234 -0.368 0.876
0.236 -0.363 0.877
0.236 -0.356 0.877
0.243 -0.364 0.878
0.246 -0.361 0.879
0.252 -0.366 0.88
0.256 -0.368 0.881
0.258 -0.363 0.882
0.258 -0.355 0.881
0.263 -0.358 0.883
0.268 -0.361 0.884
0.27 -0.356 0.884
0.276 -0.36 0.885
0.277 -0.355 0.886
0.279 -0.352 0.886
0.283 -0.352 0.887
0.29 -0.357 0.888
0.291 -0.352 0.889
0.292 -0.346 0.889
0.299 -0.351 0.89
0.302 -0.35 0.891
0.305 -0.349 0.892
0.307 -0.344 0.892
0.31 -0.343 0.893
0.315 -0.344 0.894
0.317 -0.341 0.894
0.32 -0.339 0.895
0.325 -0.34 0.896
0.335 -0.348 0.898
0.337 -0.344 0.899
0.344 -0.347 0.9
0.348 -0.347 0.901
0.351 -0.345 0.902
0.352 -0.34 0.902
0.359 -0.343 0.903
0.354 -0.331 0.902
0.364 -0.337 0.905
0.363 -0.33 0.904
0.374 -0.337 0.907
0.383 -0.342 0.909
0.385 -0.339 0.909
0.388 -0.336 0.91
0.413 -0.358 0.915
0.797 -0.773 0.998
1.445 -1.458 1.139
1.154 -1.125 1.076
1.362 -1.322 1.121
1.102 -1.033 1.064
1.283 -1.197 1.104
1.15 -1.045 1.075
1.324 -1.196 1.113
1.031 -0.895 1.049
1.048 -0.896 1.053
1.053 -0.885 1.054
5.515 -4.909 2.021
1.067 -0.867 1.057
6.605 -5.691 2.257
6.684 -5.659 2.274
6.402 -5.322 2.213
6.292 -5.137 2.19
6.207 -4.977 2.171
6.206 -4.888 2.171
0 0 0
0 0 0
0 0 0
0 0 0
0 0 0
6.734 -4.758 2.285
7.146 -4.961 2.375
7.256 -4.944 2.399
7.353 -4.917 2.419
7.685 -5.045 2.491
7.636 -4.917 2.481
7.625 -4.816 2.478
7.72 -4.783 2.499
7.808 -4.744 2.518
6.16 -3.657 2.161
6.095 -3.546 2.147
6.064 -3.457 2.14
6.031 -3.368 2.133
5.991 -3.277 2.124
5.961 -3.193 2.118
6.009 -3.151 2.128
6.078 -3.121 2.143
6.157 -3.094 2.16
6.231 -3.063 2.176
6.306 -3.033 2.193
6.379 -3 2.208
6.464 -2.971 2.227
6.536 -2.935 2.242
6.617 -2.903 2.26
6.712 -2.875 2.281
6.791 -2.839 2.298
6.871 -2.802 2.315
6.957 -2.767 2.334
7.137 -2.767 2.373
7.22 -2.727 2.391
7.267 -2.672 2.401
7.283 -2.605 2.404
7.198 -2.503 2.386
7.198 -2.433 2.386
6.631 -2.174 2.263
6.623 -2.107 2.261
6.532 -2.014 2.242
3.595 -1.062 1.605
3.565 -1.019 1.598
3.55 -0.981 1.595
3.559 -0.95 1.597
3.575 -0.922 1.601
3.622 -0.9 1.611
3.752 -0.899 1.639
3.742 -0.862 1.637
3.71 -0.821 1.63
3.716 -0.788 1.631
3.716 -0.754 1.631
3.752 -0.728 1.639
6.724 -1.258 2.283
6.707 -1.193 2.28
6.688 -1.129 2.275
6.654 -1.063 2.268
5.884 -0.886 2.101
5.898 -0.835 2.104
5.979 -0.793 2.122
5.938 -0.734 2.113
5.969 -0.685 2.12
6.011 -0.636 2.129
5.87 -0.569 2.098
5.885 -0.519 2.101
6.209 -0.493 2.172
6.437 -0.454 2.221
6.414 -0.396 2.216
5.899 -0.311 2.104
5.638 -0.248 2.048
5.624 -0.198 2.045
5.613 -0.148 2.042
5.609 -0.099 2.042
5.715 -0.05 2.064
6.269 -0 2.185
4.624 0.04 1.828
4.614 0.081 1.826
4.595 0.121 1.822
4.586 0.161 1.82
4.566 0.2 1.815
4.547 0.239 1.811
4.534 0.278 1.808
4.515 0.316 1.804
4.503 0.355 1.802
4.49 0.394 1.799
4.478 0.432 1.796
4.457 0.469 1.792
4.446 0.508 1.789
5.566 0.688 2.032
5.571 0.738 2.033
5.545 0.784 2.028
5.528 0.831 2.024
5.513 0.879 2.021
5.496 0.925 2.017
5.499 0.975 2.018
5.775 1.078 2.078
5.835 1.142 2.09
5.805 1.189 2.084
5.798 1.241 2.083
4.951 1.102 1.899
4.728 1.095 1.85
4.895 1.18 1.887
5.067 1.269 1.924
4.863 1.262 1.88
4.643 1.248 1.832
4.881 1.359 1.884
5.647 1.63 2.05
5.236 1.559 1.961
5.52 1.698 2.022
5.28 1.674 1.97
5.167 1.687 1.946
5.243 1.763 1.962
5.323 1.843 1.979
5.19 1.847 1.951
5.174 1.892 1.947
5.463 2.055 2.01
5.161 1.991 1.944
5.144 2.036 1.941
4.952 2.009 1.899
4.952 2.06 1.899
4.956 2.112 1.9
5.066 2.213 1.924
5.376 2.407 1.991
5.357 2.455 1.987
5.335 2.501 1.982
5.217 2.501 1.956
3.553 1.727 1.596
3.241 1.606 1.528
2.777 1.4 1.428
2.71 1.394 1.413
2.701 1.419 1.411
2.686 1.441 1.408
2.682 1.468 1.407
2.665 1.489 1.403
2.603 1.483 1.39
2.591 1.506 1.387
2.584 1.532 1.386
2.577 1.558 1.384
2.569 1.583 1.382
2.552 1.603 1.379
2.546 1.631 1.378
2.54 1.657 1.376
2.526 1.68 1.373
2.516 1.704 1.371
1.561 1.053 1.164
1.553 1.066 1.162
1.55 1.083 1.161
1.548 1.102 1.161
1.534 1.112 1.158
1.511 1.114 1.153
1.443 1.08 1.138
1.392 1.058 1.127
1.35 1.042 1.118
1.285 1.006 1.104
1.268 1.009 1.1
1.208 0.975 1.087
1.174 0.962 1.08
1.108 0.919 1.066
0 0 0
0 0 0
0 0 0
0.979 0.86 1.038
0.968 0.865 1.035
0.968 0.88 1.035
0.968 0.896 1.035
0.953 0.897 1.032
0.955 0.914 1.033
0.942 0.916 1.03
0.935 0.924 1.028
0.938 0.944 1.029
0.935 0.958 1.028
0.93 0.969 1.027
0.921 0.976 1.025
0.911 0.98 1.023
0.91 0.997 1.023
0.907 1.012 1.022
0.901 1.022 1.021
0.896 1.033 1.02
0.89 1.045 1.019
0.881 1.052 1.017
0.789 0.946 0.997
0.756 0.918 0.99
0.735 0.904 0.985
0.712 0.888 0.98
0.688 0.87 0.975
0.671 0.862 0.971
0.652 0.848 0.967
0.628 0.828 0.962
0.612 0.819 0.958
0.594 0.805 0.954
0.577 0.793 0.951
0.56 0.781 0.947
0.545 0.771 0.944
0.532 0.764 0.941
0.515 0.748 0.937
0.502 0.741 0.934
0.488 0.729 0.931
0.473 0.718 0.928
0.464 0.714 0.926
0.45 0.703 0.923
0.436 0.691 0.92
0.427 0.686 0.918
0.418 0.682 0.916
0.406 0.672 0.914
0.396 0.665 0.911
0.387 0.662 0.909
0.375 0.65 0.907
0.366 0.644 0.905
0.357 0.639 0.903
0.349 0.633 0.901
0.34 0.627 0.899
0.331 0.621 0.897
0.323 0.615 0.896
0.315 0.609 0.894
0.31 0.611 0.893
0.301 0.602 0.891
0.293 0.597 0.889
0.287 0.596 0.888
0.28 0.59 0.886
0.273 0.587 0.885
0.264 0.576 0.883
0.26 0.579 0.882
0.253 0.573 0.88
0.246 0.566 0.879
0.238 0.556 0.877
0.234 0.56 0.876
0.227 0.552 0.875
0.222 0.553 0.874
0.215 0.545 0.872
0.211 0.546 0.871
0.204 0.538 0.87
0.199 0.538 0.869
0.192 0.526 0.867
0.186 0.519 0.866
0.182 0.517 0.865
0.177 0.517 0.864
0.171 0.511 0.863
0.167 0.512 0.862
0.162 0.505 0.861
0.158 0.507 0.86
0.152 0.499 0.859
0.148 0.5 0.858
0.143 0.493 0.857
0.139 0.49 0.856
0.134 0.487 0.855
0.129 0.481 0.854
0.126 0.485 0.853
0.121 0.485 0.852
0.117 0.477 0.851
0.113 0.472 0.85
0.108 0.471 0.849
0.104 0.469 0.848
0.1 0.465 0.847
0.096 0.457 0.846
0.092 0.464 0.846
0.092 -6.93 0.846
0.151 -6.959 0.86
0.21 -6.925 0.873
0.269 -6.911 0.886
0.327 -6.885 0.899
0.389 -6.979 0.913
0.473 -7.454 0.932
0.551 -7.694 0.949
0.617 -7.687 0.964
0.69 -7.786 0.98
0.776 -8.015 1
0.868 -8.254 1.02
0.966 -8.519 1.042
0.136 -0.394 0.856
0.141 -0.407 0.857
0.144 -0.407 0.858
0.147 -0.4 0.859
0.15 -0.397 0.859
0.153 -0.397 0.86
0.156 -0.394 0.861
0.16 -0.394 0.862
0.164 -0.398 0.862
0.166 -0.391 0.863
0.17 -0.393 0.864
0.173 -0.389 0.864
0.175 -0.383 0.865
0.18 -0.389 0.866
0.182 -0.382 0.866
0.185 -0.38 0.867
0.188 -0.38 0.868
0.193 -0.386 0.869
0.196 -0.385 0.87
0.199 -0.382 0.87
0.203 -0.384 0.871
0.206 -0.382 0.872
0.208 -0.377 0.872
0.214 -0.384 0.874
0.217 -0.382 0.874
0.218 -0.373 0.874
0.22 -0.37 0.875
0.223 -0.369 0.876
0.225 -0.364 0.876
0.229 -0.366 0.877
0.231 -0.362 0.878
0.235 -0.363 0.878
0.239 -0.364 0.879
0.243 -0.365 0.88
0.249 -0.37 0.881
0.252 -0.368 0.882
0.256 -0.369 0.883
0.26 -0.37 0.884
0.262 -0.366 0.884
0.263 -0.359 0.885
0.268 -0.362 0.886
0.27 -0.357 0.886
0.275 -0.361 0.887
0.276 -0.355 0.888
0.283 -0.36 0.889
0.286 -0.359 0.89
0.285 -0.349 0.89
0.291 -0.353 0.891
0.296 -0.354 0.892
0.298 -0.351 0.893
0.3 -0.348 0.893
0.304 -0.348 0.894
0.305 -0.343 0.894
0.314 -0.35 0.896
0.313 -0.343 0.896
0.316 -0.341 0.897
0.32 -0.34 0.897
0.325 -0.342 0.899
0.334 -0.348 0.901
0.335 -0.343 0.901
0.338 -0.341 0.902
0.342 -0.34 0.902
0.345 -0.338 0.903
0.352 -0.341 0.905
0.353 -0.337 0.905
0.354 -0.332 0.905
0.358 -0.33 0.906
0.362 -0.33 0.907
0.379 -0.344 0.911
0.381 -0.341 0.911
0.383 -0.337 0.912
0.389 -0.337 0.913
0.394 -0.338 0.914
1.375 -1.41 1.134
1.472 -1.491 1.156
1.486 -1.48 1.159
1.513 -1.481 1.165
1.532 -1.476 1.169
1.54 -1.458 1.171
1.555 -1.448 1.175
1.57 -1.437 1.178
5.305 -4.982 2.016
5.374 -4.96 2.032
5.437 -4.932 2.046
5.501 -4.905 2.06
5.565 -4.876 2.075
6.593 -5.69 2.305
6.62 -5.614 2.311
6.492 -5.407 2.283
6.247 -5.108 2.228
6.192 -4.973 2.215
6.146 -4.847 2.205
0 0 0
0 0 0
0 0 0
0 0 0
0 0 0
6.613 -4.679 2.31
7.135 -4.961 2.427
7.313 -4.992 2.467
7.493 -5.02 2.507
7.651 -5.031 2.543
7.626 -4.919 2.537
7.618 -4.82 2.535
7.71 -4.785 2.556
6.868 -4.173 2.367
6.13 -3.645 2.201
6.089 -3.548 2.192
6.056 -3.458 2.185
6.023 -3.369 2.177
5.979 -3.276 2.167
5.956 -3.196 2.162
5.994 -3.149 2.171
6.073 -3.123 2.189
6.147 -3.094 2.205
6.216 -3.061 2.221
6.296 -3.033 2.239
6.369 -3 2.255
6.446 -2.968 2.272
6.531 -2.938 2.291
6.612 -2.905 2.309
6.698 -2.874 2.329
6.783 -2.84 2.348
6.86 -2.802 2.365
6.954 -2.77 2.386
7.117 -2.764 2.423
7.204 -2.725 2.443
7.573 -2.791 2.525
0 0 0
7.44 -2.593 2.495
0 0 0
6.638 -2.18 2.315
6.452 -2.055 2.274
6.536 -2.019 2.293
3.582 -1.059 1.629
3.562 -1.02 1.625
3.533 -0.978 1.619
3.537 -0.946 1.619
3.553 -0.917 1.623
3.614 -0.9 1.637
3.741 -0.898 1.665
3.713 -0.857 1.659
3.699 -0.819 1.656
3.699 -0.786 1.656
3.703 -0.753 1.657
3.73 -0.725 1.663
7.015 -1.315 2.4
6.742 -1.202 2.339
6.905 -1.168 2.375
6.672 -1.068 2.323
6.647 -1.004 2.318
5.931 -0.841 2.157
6.707 -0.893 2.331
5.976 -0.74 2.167
6.329 -0.728 2.246
6.138 -0.651 2.203
5.967 -0.58 2.165
5.855 -0.517 2.14
6.504 -0.517 2.285
6.423 -0.454 2.267
6.406 -0.396 2.263
5.865 -0.31 2.142
5.676 -0.25 2.099
5.622 -0.198 2.087
5.65 -0.149 2.094
5.596 -0.098 2.082
5.831 -0.051 2.134
4.691 -0 1.878
4.616 0.04 1.862
4.606 0.081 1.859
4.58 0.12 1.854
4.58 0.161 1.853
4.557 0.2 1.848
4.54 0.239 1.845
4.527 0.278 1.842
4.516 0.317 1.839
4.495 0.355 1.834
4.475 0.393 1.83
4.471 0.432 1.829
4.45 0.469 1.824
4.439 0.508 1.822
5.557 0.688 2.073
5.561 0.738 2.074
5.546 0.785 2.07
5.521 0.832 2.065
5.503 0.878 2.061
5.478 0.924 2.055
5.485 0.975 2.057
5.775 1.079 2.122
5.832 1.144 2.135
5.193 1.064 1.991
4.929 1.054 1.932
4.716 1.051 1.884
4.701 1.091 1.881
4.675 1.128 1.875
4.654 1.166 1.87
4.631 1.203 1.865
4.617 1.243 1.862
4.586 1.277 1.855
4.602 1.325 1.858
4.625 1.376 1.864
5.114 1.574 1.973
4.747 1.504 1.891
5.111 1.671 1.973
5.555 1.873 2.072
5.37 1.863 2.031
5.499 1.962 2.06
5.451 1.999 2.049
5.222 1.966 1.998
5.14 1.986 1.979
4.993 1.979 1.946
4.926 2.002 1.931
4.912 2.046 1.928
4.975 2.124 1.942
4.983 2.18 1.944
5.342 2.396 2.025
5.348 2.455 2.026
5.327 2.502 2.021
5.216 2.505 1.996
3.548 1.728 1.622
3.278 1.628 1.561
2.792 1.41 1.452
2.706 1.394 1.433
2.696 1.419 1.431
2.689 1.445 1.429
2.677 1.468 1.426
2.662 1.49 1.423
2.599 1.484 1.409
2.594 1.51 1.408
2.579 1.532 1.405
2.574 1.559 1.403
2.559 1.58 1.4
2.558 1.61 1.4
2.542 1.631 1.396
2.53 1.654 1.393
2.522 1.68 1.392
2.511 1.704 1.389
1.557 1.051 1.175
1.551 1.066 1.174
1.547 1.083 1.173
1.538 1.096 1.171
1.533 1.113 1.17
1.504 1.11 1.163
1.431 1.072 1.147
1.378 1.048 1.135
1.333 1.03 1.125
1.283 1.006 1.114
1.247 0.993 1.105
1.207 0.975 1.096
1.162 0.953 1.086
1.106 0.919 1.074
1.072 0.904 1.066
0 0 0
0 0 0
0 0 0
0.965 0.864 1.042
0.966 0.88 1.042
0.964 0.894 1.042
0.947 0.892 1.038
0.948 0.909 1.038
