# .PCD v0.7 - Point Cloud Data file format
VERSION 0.7
FIELDS x y z
SIZE 4 4 4
TYPE F F F
COUNT 1 1 1
WIDTH 2505
HEIGHT 1
VIEWPOINT 0 0 0 1 0 0 0
POINTS 2505
DATA ascii
1.948 0.449 1.654
1.707 0.407 1.551
1.692 0.42 1.545
1.631 0.419 1.519
1.611 0.429 1.511
1.597 0.441 1.505
1.572 0.449 1.494
1.591 0.47 1.502
1.562 0.476 1.49
1.606 0.506 1.509
1.535 0.498 1.479
1.503 0.502 1.465
1.509 0.518 1.467
1.522 0.538 1.473
1.525 0.555 1.474
1.53 0.573 1.476
1.537 0.591 1.479
1.54 0.608 1.48
1.547 0.627 1.483
1.554 0.646 1.486
1.563 0.666 1.49
1.57 0.686 1.493
1.573 0.704 1.495
1.584 0.726 1.499
1.588 0.745 1.501
1.593 0.765 1.503
1.59 0.781 1.502
1.601 0.805 1.507
1.613 0.829 1.512
1.622 0.852 1.515
1.617 0.868 1.513
1.638 0.899 1.522
1.664 0.933 1.533
1.677 0.96 1.539
1.694 0.991 1.546
1.7 1.015 1.548
1.723 1.05 1.558
1.727 1.073 1.56
1.724 1.093 1.558
2.638 1.735 1.947
2.471 1.653 1.875
2.289 1.557 1.798
2.31 1.602 1.807
2.307 1.63 1.806
2.31 1.664 1.807
2.316 1.699 1.81
2.323 1.736 1.813
2.325 1.77 1.814
2.337 1.812 1.819
2.334 1.843 1.818
2.345 1.886 1.822
2.355 1.929 1.826
2.424 2.023 1.855
2.423 2.059 1.855
2.39 2.067 1.841
2.416 2.127 1.852
2.381 2.133 1.837
2.395 2.184 1.843
2.44 2.266 1.863
2.416 2.283 1.852
2.322 2.229 1.812
2.297 2.244 1.802
2.25 2.234 1.782
2.193 2.214 1.757
2.204 2.265 1.762
2.177 2.275 1.751
2.16 2.297 1.744
2.745 2.995 1.992
0 0 0
3.691 4.204 2.393
3.634 4.21 2.369
2.636 3.081 1.946
2.582 3.069 1.923
2.54 3.071 1.905
2.504 3.08 1.89
2.475 3.098 1.877
2.439 3.105 1.862
0.433 0.47 1.011
0.447 0.499 1.017
0.418 0.467 1.005
0.414 0.47 1.003
0.409 0.47 1.001
0.403 0.471 0.998
0.399 0.473 0.996
0.397 0.479 0.995
0.391 0.478 0.993
0.386 0.48 0.991
0.383 0.484 0.99
0.377 0.484 0.987
0.375 0.49 0.986
0.371 0.492 0.984
0.362 0.486 0.981
0.359 0.491 0.98
0.356 0.495 0.978
0.353 0.5 0.977
0.349 0.502 0.975
0.341 0.497 0.972
0.338 0.501 0.971
0.334 0.503 0.969
0.33 0.507 0.967
0.325 0.507 0.965
0.322 0.511 0.964
0.318 0.515 0.962
0.314 0.517 0.961
0.307 0.512 0.957
0.303 0.514 0.956
0.296 0.51 0.953
0.295 0.519 0.952
0.287 0.513 0.949
0.284 0.515 0.948
0.28 0.517 0.946
0.276 0.52 0.944
0.272 0.522 0.942
0.268 0.525 0.941
0.263 0.525 0.939
0.259 0.527 0.937
0.254 0.528 0.935
0.252 0.536 0.934
0.247 0.536 0.932
0.243 0.538 0.93
0.239 0.539 0.928
0.237 0.549 0.928
0.23 0.541 0.925
0.226 0.543 0.923
0.223 0.552 0.922
0.219 0.553 0.92
0.214 0.555 0.918
0.21 0.555 0.916
0.205 0.555 0.914
0.201 0.56 0.913
0.197 0.561 0.911
0.192 0.56 0.909
0.188 0.566 0.907
0.183 0.563 0.905
0.179 0.568 0.903
0.174 0.566 0.901
0.17 0.569 0.899
0.166 0.572 0.897
0.161 0.572 0.895
0.156 0.571 0.893
0.152 0.572 0.891
0.147 0.572 0.889
0.142 0.571 0.887
0.138 0.581 0.886
0.134 0.585 0.884
0.129 0.578 0.882
0.124 0.579 0.88
0.12 0.589 0.878
0.115 0.584 0.876
0.111 0.586 0.874
0.106 0.596 0.872
0.101 0.591 0.87
0.097 0.592 0.868
0.092 0.6 0.866
0.087 0.597 0.864
0.082 0.598 0.862
0.082 -1.575 0.862
0.092 -1.291 0.867
0.103 -1.294 0.871
0.114 -1.331 0.876
0.125 -1.331 0.881
0.136 -1.347 0.886
0.147 -1.343 0.89
0.174 -1.638 0.902
0.207 -1.938 0.916
0.222 -1.939 0.923
0.193 -1.38 0.91
0.194 -1.269 0.911
0.203 -1.256 0.914
0.213 -1.252 0.919
0.223 -1.253 0.923
0.233 -1.247 0.927
0.239 -1.213 0.93
0.247 -1.199 0.933
0.244 -1.113 0.932
0.253 -1.109 0.935
0.26 -1.097 0.939
0.27 -1.104 0.943
0.279 -1.101 0.947
0.289 -1.105 0.951
0.298 -1.103 0.955
0.308 -1.111 0.959
0.317 -1.109 0.963
0.326 -1.107 0.967
0.335 -1.105 0.971
0.343 -1.099 0.974
0.355 -1.109 0.979
0.366 -1.113 0.984
0.374 -1.106 0.987
0.385 -1.111 0.992
0.397 -1.12 0.997
0.404 -1.112 1.001
0.415 -1.116 1.005
0.426 -1.118 1.01
0.436 -1.118 1.014
0.448 -1.124 1.019
0.46 -1.13 1.025
0.468 -1.124 1.028
0.479 -1.126 1.033
0.48 -1.098 1.033
0.484 -1.081 1.034
0.485 -1.06 1.035
0.485 -1.034 1.035
0.489 -1.019 1.037
0.492 -1.002 1.038
0.494 -0.983 1.039
0.496 -0.965 1.04
0.497 -0.947 1.04
0.499 -0.931 1.041
0.501 -0.914 1.042
0.503 -0.899 1.043
0.501 -0.876 1.042
0.506 -0.868 1.044
0.507 -0.852 1.045
0.516 -0.851 1.048
0.524 -0.849 1.052
0.534 -0.851 1.056
0.544 -0.854 1.061
0.557 -0.86 1.066
0.563 -0.853 1.068
0.574 -0.857 1.073
0.585 -0.859 1.078
0.595 -0.859 1.082
0.601 -0.853 1.085
0.613 -0.857 1.09
0.624 -0.858 1.095
0.635 -0.859 1.099
0.65 -0.867 1.106
0.664 -0.871 1.112
0.677 -0.875 1.118
0.694 -0.883 1.125
0.786 -0.999 1.164
0.805 -1.006 1.172
0.788 -0.965 1.165
0.795 -0.958 1.168
0.782 -0.924 1.163
0.786 -0.913 1.164
0.781 -0.89 1.162
0.799 -0.897 1.17
0.812 -0.898 1.175
0.826 -0.898 1.181
0.838 -0.898 1.187
0.851 -0.897 1.192
0.868 -0.902 1.2
0.881 -0.901 1.205
0.898 -0.904 1.212
0.911 -0.902 1.218
0.903 -0.878 1.214
0.907 -0.867 1.216
0.915 -0.86 1.22
0.926 -0.857 1.224
0.986 -0.901 1.25
1.006 -0.905 1.259
1.028 -0.91 1.268
1.048 -0.914 1.277
1.054 -0.903 1.279
1.13 -0.957 1.312
1.363 -1.149 1.412
1.518 -1.266 1.478
1.549 -1.27 1.491
1.593 -1.284 1.51
1.627 -1.29 1.525
1.653 -1.288 1.536
0 0 0
0 0 0
0 0 0
2.169 -1.59 1.757
6.043 -4.458 3.418
6.131 -4.439 3.456
6.151 -4.371 3.464
6.164 -4.297 3.47
6.185 -4.23 3.479
6.204 -4.162 3.487
6.222 -4.094 3.495
6.24 -4.026 3.502
6.262 -3.961 3.512
6.272 -3.888 3.516
6.303 -3.83 3.53
6.111 -3.636 3.447
5.811 -3.384 3.319
5.823 -3.322 3.324
5.849 -3.266 3.335
5.878 -3.213 3.347
6.194 -3.316 3.483
6.491 -3.401 3.61
6.533 -3.348 3.628
6.55 -3.282 3.635
6.554 -3.209 3.637
6.577 -3.146 3.647
6.606 -3.086 3.659
6.609 -3.014 3.661
6.261 -2.785 3.512
6.033 -2.616 3.414
6.053 -2.559 3.423
6.066 -2.499 3.428
6.091 -2.444 3.439
6.386 -2.496 3.565
6.543 -2.489 3.632
8.77 -3.255 4.587
8.796 -3.172 4.598
8.813 -3.086 4.605
8.84 -3.004 4.617
8.861 -2.92 4.626
8.893 -2.84 4.64
8.912 -2.755 4.648
8.94 -2.673 4.66
8.952 -2.586 4.665
8.978 -2.503 4.677
8.983 -2.415 4.679
9.019 -2.334 4.694
9.044 -2.251 4.705
9.077 -2.17 4.719
9.079 -2.081 4.72
6.262 -1.368 3.512
6.471 -1.351 3.602
6.406 -1.275 3.574
6.416 -1.215 3.578
6.441 -1.158 3.589
6.527 -1.111 3.626
7.14 -1.148 3.889
7.162 -1.083 3.898
7.182 -1.017 3.907
7.2 -0.951 3.914
7.208 -0.883 3.917
7.244 -0.819 3.933
7.247 -0.751 3.934
6.944 -0.653 3.805
6.655 -0.563 3.681
6.657 -0.5 3.681
6.675 -0.439 3.689
6.688 -0.377 3.694
6.707 -0.315 3.703
6.726 -0.252 3.711
6.746 -0.19 3.719
6.755 -0.127 3.723
6.782 -0.064 3.735
6.791 -0 3.739
6.809 0.064 3.746
6.816 0.128 3.75
6.841 0.193 3.76
7.059 0.265 3.854
6.999 0.329 3.828
7.126 0.402 3.883
7.04 0.463 3.846
7.109 0.535 3.875
7.09 0.6 3.867
7.109 0.669 3.875
7.148 0.74 3.892
7.156 0.809 3.895
2.077 0.247 1.718
2.061 0.264 1.711
2.069 0.285 1.714
2.098 0.308 1.727
2.149 0.336 1.749
2.114 0.35 1.733
2.085 0.365 1.721
2.05 0.378 1.706
2.022 0.391 1.694
1.987 0.403 1.679
1.967 0.417 1.671
1.946 0.431 1.661
1.925 0.445 1.653
1.926 0.463 1.653
1.907 0.477 1.645
1.672 0.431 1.544
1.648 0.441 1.534
1.579 0.436 1.504
1.567 0.448 1.499
1.552 0.459 1.493
1.532 0.467 1.484
1.537 0.484 1.486
1.51 0.49 1.475
1.5 0.501 1.47
1.509 0.519 1.474
1.519 0.538 1.478
1.519 0.553 1.478
1.525 0.572 1.481
1.533 0.59 1.484
1.542 0.61 1.488
1.542 0.626 1.488
1.552 0.646 1.493
1.537 0.656 1.486
1.569 0.687 1.5
1.565 0.702 1.498
1.571 0.721 1.501
1.578 0.742 1.504
1.581 0.76 1.505
1.637 0.807 1.529
1.606 0.809 1.516
1.61 0.829 1.518
1.618 0.851 1.521
1.613 0.867 1.519
1.62 0.89 1.522
1.633 0.916 1.527
1.681 0.964 1.548
1.692 0.991 1.553
1.706 1.02 1.559
1.733 1.058 1.57
1.72 1.071 1.565
2.511 1.62 1.904
2.64 1.739 1.959
2.364 1.582 1.841
2.291 1.561 1.81
2.302 1.599 1.814
2.312 1.637 1.819
2.314 1.669 1.819
2.319 1.704 1.821
2.324 1.74 1.823
2.331 1.778 1.827
2.336 1.815 1.829
2.343 1.854 1.832
2.355 1.898 1.837
2.354 1.931 1.836
2.444 2.044 1.875
2.393 2.036 1.853
2.371 2.053 1.844
2.377 2.095 1.846
2.383 2.138 1.849
2.397 2.19 1.855
2.431 2.262 1.87
2.409 2.28 1.86
2.322 2.234 1.823
2.304 2.255 1.815
2.253 2.241 1.793
2.203 2.228 1.772
2.259 2.328 1.796
2.184 2.287 1.763
2.153 2.293 1.75
0 0 0
0 0 0
3.685 4.204 2.407
3.633 4.216 2.385
2.626 3.074 1.953
2.572 3.062 1.93
2.544 3.081 1.918
2.51 3.093 1.903
2.473 3.1 1.887
2.443 3.117 1.875
0.434 0.473 1.013
0.43 0.476 1.012
0.417 0.467 1.006
0.413 0.47 1.004
0.407 0.469 1.002
0.403 0.472 1
0.398 0.472 0.998
0.395 0.478 0.997
0.392 0.481 0.995
0.386 0.48 0.993
0.381 0.482 0.991
0.377 0.485 0.989
0.373 0.488 0.987
0.365 0.483 0.984
0.36 0.484 0.982
0.36 0.493 0.981
0.356 0.495 0.98
0.353 0.5 0.978
0.348 0.501 0.976
0.345 0.505 0.975
0.337 0.501 0.972
0.333 0.503 0.97
0.329 0.506 0.968
0.325 0.508 0.967
0.322 0.512 0.965
0.318 0.515 0.963
0.31 0.508 0.96
0.306 0.512 0.959
0.299 0.507 0.955
0.295 0.51 0.954
0.294 0.519 0.953
0.29 0.521 0.952
0.283 0.515 0.949
0.279 0.517 0.947
0.276 0.521 0.945
0.271 0.522 0.943
0.267 0.524 0.942
0.262 0.525 0.94
0.258 0.526 0.938
0.256 0.535 0.937
0.252 0.536 0.935
0.247 0.537 0.933
0.243 0.537 0.931
0.238 0.539 0.929
0.236 0.548 0.928
0.232 0.55 0.927
0.228 0.553 0.925
0.223 0.551 0.923
0.218 0.551 0.921
0.213 0.553 0.919
0.209 0.554 0.917
0.205 0.555 0.915
0.201 0.56 0.913
0.196 0.56 0.911
0.191 0.559 0.909
0.188 0.566 0.908
0.183 0.564 0.906
0.177 0.559 0.903
0.174 0.565 0.902
0.17 0.569 0.9
0.165 0.571 0.898
0.161 0.572 0.896
0.156 0.571 0.894
0.152 0.574 0.892
0.147 0.572 0.89
0.143 0.581 0.888
0.138 0.581 0.886
0.134 0.585 0.885
0.129 0.579 0.882
0.125 0.59 0.881
0.12 0.59 0.879
0.115 0.585 0.876
0.11 0.587 0.875
0.106 0.588 0.873
0.101 0.59 0.87
0.096 0.589 0.868
0.092 0.6 0.867
0.087 0.596 0.864
0.082 0.597 0.862
0.082 -1.586 0.863
0.092 -1.301 0.868
0.103 -1.313 0.872
0.114 -1.332 0.877
0.124 -1.332 0.882
0.135 -1.347 0.887
0.147 -1.357 0.891
0.179 -1.743 0.906
0.206 -1.939 0.917
0.221 -1.938 0.924
0.194 -1.404 0.912
0.194 -1.274 0.912
0.202 -1.255 0.916
0.212 -1.252 0.92
0.222 -1.251 0.925
0.233 -1.252 0.929
0.238 -1.213 0.931
0.246 -1.198 0.935
0.243 -1.111 0.934
0.25 -1.099 0.937
0.259 -1.098 0.941
0.269 -1.104 0.945
0.278 -1.102 0.949
0.286 -1.098 0.953
0.297 -1.104 0.957
0.305 -1.101 0.961
0.316 -1.109 0.966
0.325 -1.107 0.969
0.334 -1.103 0.973
0.344 -1.109 0.978
0.355 -1.112 0.982
0.365 -1.117 0.987
0.376 -1.119 0.992
0.382 -1.107 0.994
0.394 -1.114 0.999
0.403 -1.112 1.003
0.414 -1.116 1.008
0.426 -1.123 1.014
0.434 -1.116 1.017
0.448 -1.128 1.023
0.457 -1.126 1.027
0.471 -1.137 1.033
0.48 -1.131 1.037
0.481 -1.107 1.038
0.482 -1.082 1.038
0.484 -1.061 1.039
0.486 -1.04 1.04
0.487 -1.019 1.041
0.492 -1.005 1.042
0.492 -0.984 1.043
0.494 -0.965 1.043
0.496 -0.949 1.044
0.5 -0.936 1.046
0.501 -0.917 1.046
0.503 -0.903 1.047
0.505 -0.887 1.048
0.504 -0.867 1.048
0.505 -0.851 1.048
0.514 -0.851 1.052
0.527 -0.86 1.058
0.532 -0.851 1.06
0.542 -0.854 1.065
0.55 -0.851 1.068
0.56 -0.853 1.072
0.572 -0.857 1.078
0.583 -0.859 1.082
0.592 -0.857 1.086
0.604 -0.861 1.091
0.615 -0.864 1.096
0.622 -0.858 1.099
0.633 -0.859 1.104
0.652 -0.873 1.112
0.661 -0.871 1.116
0.774 -1.022 1.166
0.779 -1.01 1.168
0.765 -0.972 1.162
0.775 -0.969 1.166
0.762 -0.934 1.161
0.766 -0.922 1.162
0.763 -0.902 1.161
0.772 -0.898 1.165
0.784 -0.897 1.17
0.797 -0.898 1.176
0.81 -0.899 1.182
0.821 -0.896 1.186
0.834 -0.896 1.192
0.852 -0.902 1.2
0.863 -0.899 1.205
0.882 -0.904 1.213
0.895 -0.903 1.219
0.911 -0.906 1.226
0.898 -0.875 1.22
0.906 -0.869 1.224
0.914 -0.863 1.227
0.92 -0.853 1.23
0.992 -0.911 1.261
1.004 -0.907 1.267
1.022 -0.908 1.274
1.043 -0.912 1.283
1.053 -0.906 1.288
1.091 -0.924 1.304
1.257 -1.057 1.377
1.515 -1.267 1.49
1.547 -1.272 1.504
1.588 -1.284 1.522
1.607 -1.277 1.53
1.65 -1.29 1.549
0 0 0
0 0 0
0 0 0
2.167 -1.594 1.775
6.017 -4.453 3.459
6.112 -4.44 3.501
6.132 -4.371 3.509
6.153 -4.303 3.518
6.173 -4.236 3.527
6.188 -4.165 3.534
6.233 -4.115 3.554
6.231 -4.033 3.553
6.298 -3.997 3.582
6.279 -3.905 3.574
6.361 -3.878 3.61
6.322 -3.776 3.593
5.8 -3.389 3.364
5.819 -3.329 3.372
5.831 -3.267 3.378
5.854 -3.21 3.388
6.161 -3.309 3.522
6.482 -3.407 3.662
6.511 -3.347 3.675
6.528 -3.281 3.683
6.548 -3.216 3.691
6.567 -3.151 3.7
6.588 -3.088 3.709
6.6 -3.02 3.714
6.365 -2.841 3.611
6.013 -2.616 3.458
6.042 -2.563 3.47
6.054 -2.502 3.476
6.066 -2.442 3.481
6.396 -2.508 3.625
6.519 -2.488 3.679
8.743 -3.255 4.651
8.771 -3.173 4.664
8.785 -3.086 4.67
8.82 -3.007 4.685
8.841 -2.923 4.695
8.864 -2.84 4.705
8.887 -2.756 4.714
8.911 -2.673 4.725
8.923 -2.586 4.73
8.961 -2.506 4.747
8.976 -2.42 4.753
9.006 -2.339 4.767
9.027 -2.254 4.776
9.053 -2.171 4.787
9.064 -2.084 4.792
6.246 -1.369 3.559
6.487 -1.359 3.665
6.394 -1.277 3.624
6.404 -1.217 3.628
6.421 -1.158 3.636
6.525 -1.114 3.681
7.141 -1.152 3.951
7.15 -1.084 3.955
7.168 -1.018 3.962
7.185 -0.952 3.97
7.196 -0.885 3.975
7.231 -0.82 3.99
7.224 -0.751 3.987
6.938 -0.655 3.862
6.627 -0.562 3.726
6.636 -0.5 3.73
6.655 -0.439 3.738
6.675 -0.377 3.747
6.694 -0.315 3.755
6.704 -0.252 3.76
6.724 -0.19 3.769
6.741 -0.127 3.776
6.76 -0.064 3.784
6.778 -0 3.792
6.794 0.064 3.799
6.804 0.128 3.803
6.824 0.193 3.812
6.95 0.262 3.867
6.975 0.328 3.878
6.988 0.395 3.884
7.081 0.467 3.925
7.062 0.533 3.916
7.154 0.608 3.956
7.131 0.673 3.947
7.206 0.749 3.979
7.273 0.825 4.008
7.976 0.982 4.316
2.071 0.267 1.733
7.463 1.061 4.092
2.193 0.324 1.786
2.142 0.336 1.764
2.107 0.35 1.749
2.079 0.365 1.736
2.051 0.379 1.725
2.007 0.389 1.705
1.978 0.402 1.693
1.952 0.415 1.681
1.931 0.429 1.672
1.902 0.44 1.659
1.889 0.456 1.654
1.867 0.468 1.644
1.876 0.488 1.648
1.85 0.499 1.637
1.629 0.453 1.54
1.627 0.468 1.539
1.543 0.457 1.502
1.526 0.467 1.495
1.511 0.477 1.488
1.494 0.486 1.481
1.499 0.503 1.483
1.486 0.513 1.477
1.512 0.538 1.489
1.502 0.549 1.484
1.522 0.572 1.493
1.514 0.584 1.489
1.526 0.605 1.495
1.53 0.623 1.496
1.535 0.641 1.499
1.554 0.665 1.507
1.547 0.679 1.504
1.576 0.709 1.517
1.597 0.737 1.526
1.611 0.761 1.532
1.615 0.781 1.534
1.63 0.806 1.54
1.628 0.823 1.539
1.612 0.833 1.532
1.607 0.849 1.53
1.599 0.862 1.527
1.6 0.881 1.527
1.715 0.968 1.578
1.691 0.973 1.567
1.804 1.064 1.616
2.219 1.347 1.798
2.322 1.44 1.843
2.466 1.564 1.906
2.497 1.616 1.919
2.629 1.738 1.977
2.28 1.529 1.825
2.295 1.569 1.831
2.291 1.596 1.829
2.307 1.638 1.836
2.311 1.673 1.838
2.311 1.704 1.838
2.327 1.748 1.845
2.322 1.776 1.843
2.329 1.815 1.846
2.338 1.856 1.85
2.35 1.9 1.855
2.356 1.939 1.858
2.45 2.056 1.899
2.426 2.072 1.888
2.401 2.087 1.878
2.363 2.09 1.861
2.381 2.143 1.869
2.388 2.189 1.872
2.432 2.27 1.891
2.458 2.335 1.902
2.349 2.268 1.855
2.301 2.259 1.834
2.291 2.288 1.829
2.245 2.28 1.809
2.249 2.325 1.811
2.2 2.312 1.79
2.149 2.296 1.767
2.729 2.992 2.021
3.077 3.446 2.173
3.673 4.204 2.434
3.618 4.212 2.41
2.775 3.265 2.041
2.579 3.081 1.955
2.521 3.063 1.93
2.486 3.073 1.915
2.463 3.097 1.904
2.427 3.105 1.889
0.432 0.472 1.016
0.426 0.472 1.013
0.416 0.467 1.009
0.411 0.469 1.007
0.404 0.467 1.004
0.4 0.469 1.002
0.396 0.472 1.001
0.394 0.478 1
0.388 0.478 0.997
0.388 0.486 0.997
0.38 0.483 0.994
0.376 0.486 0.992
0.372 0.487 0.99
0.369 0.493 0.989
0.361 0.488 0.985
0.357 0.49 0.983
0.354 0.495 0.982
0.347 0.492 0.979
0.346 0.501 0.979
0.339 0.497 0.976
0.336 0.501 0.974
0.331 0.502 0.972
0.328 0.505 0.971
0.323 0.506 0.969
0.317 0.503 0.966
0.317 0.515 0.966
0.313 0.517 0.964
0.305 0.511 0.961
0.298 0.507 0.958
0.297 0.517 0.957
0.293 0.519 0.956
0.289 0.521 0.954
0.282 0.515 0.951
0.278 0.516 0.949
0.274 0.52 0.947
0.269 0.52 0.945
0.265 0.523 0.943
0.261 0.525 0.942
0.26 0.534 0.941
0.255 0.535 0.939
0.251 0.536 0.937
0.246 0.537 0.935
0.241 0.536 0.933
0.24 0.548 0.932
0.235 0.548 0.93
0.231 0.549 0.928
0.224 0.543 0.925
0.222 0.551 0.924
0.217 0.552 0.922
0.213 0.554 0.92
0.208 0.553 0.918
0.204 0.554 0.916
0.199 0.554 0.914
0.195 0.559 0.913
0.191 0.56 0.911
0.186 0.558 0.908
0.182 0.564 0.907
0.178 0.568 0.905
0.173 0.566 0.903
0.168 0.565 0.901
0.165 0.572 0.899
0.16 0.573 0.897
0.155 0.571 0.895
0.151 0.575 0.893
0.147 0.582 0.892
0.142 0.58 0.889
0.137 0.58 0.887
0.133 0.585 0.886
0.128 0.581 0.883
0.124 0.59 0.882
0.119 0.583 0.879
0.114 0.585 0.877
0.11 0.587 0.875
0.105 0.588 0.873
0.1 0.59 0.871
0.096 0.599 0.869
0.091 0.6 0.867
0.086 0.595 0.865
0.082 0.597 0.863
0.081 -1.587 0.864
0.092 -1.309 0.868
0.102 -1.316 0.873
0.113 -1.325 0.878
0.124 -1.332 0.883
0.135 -1.347 0.888
0.147 -1.379 0.893
0.183 -1.831 0.909
0.205 -1.938 0.919
0.221 -1.939 0.926
0.197 -1.447 0.915
0.194 -1.278 0.914
0.201 -1.246 0.917
0.211 -1.251 0.922
0.222 -1.258 0.926
0.232 -1.257 0.931
0.237 -1.212 0.933
0.243 -1.189 0.936
0.241 -1.108 0.935
0.25 -1.108 0.939
0.259 -1.106 0.943
0.268 -1.104 0.947
0.277 -1.102 0.951
0.287 -1.106 0.955
0.295 -1.103 0.959
0.304 -1.101 0.963
0.315 -1.109 0.968
0.324 -1.107 0.972
0.334 -1.111 0.976
0.343 -1.11 0.981
0.354 -1.117 0.985
0.362 -1.108 0.989
0.372 -1.11 0.993
0.382 -1.112 0.998
0.392 -1.112 1.002
0.402 -1.115 1.007
0.413 -1.118 1.012
0.422 -1.117 1.016
0.435 -1.126 1.022
0.446 -1.127 1.026
0.456 -1.129 1.031
0.466 -1.127 1.035
0.476 -1.125 1.04
0.479 -1.107 1.041
0.48 -1.082 1.042
0.482 -1.06 1.042
0.484 -1.038 1.043
0.486 -1.021 1.044
0.489 -1.004 1.046
0.491 -0.984 1.046
0.492 -0.965 1.047
0.497 -0.954 1.049
0.497 -0.934 1.049
0.502 -0.924 1.051
0.499 -0.897 1.05
0.499 -0.878 1.05
0.502 -0.866 1.051
0.506 -0.857 1.053
0.513 -0.854 1.056
0.523 -0.856 1.061
0.53 -0.851 1.064
0.541 -0.855 1.069
0.552 -0.859 1.074
0.557 -0.851 1.076
0.573 -0.862 1.083
0.579 -0.856 1.086
0.585 -0.85 1.089
0.596 -0.852 1.093
0.609 -0.856 1.099
0.626 -0.868 1.107
0.635 -0.866 1.111
0.742 -1.015 1.159
0.757 -1.019 1.165
0.751 -0.991 1.162
0.759 -0.986 1.166
0.744 -0.946 1.159
0.747 -0.933 1.161
0.741 -0.908 1.158
0.748 -0.902 1.161
0.751 -0.89 1.163
0.767 -0.896 1.17
0.779 -0.894 1.175
0.797 -0.901 1.183
0.807 -0.899 1.188
0.823 -0.902 1.195
0.835 -0.901 1.2
0.85 -0.902 1.206
0.866 -0.905 1.214
0.875 -0.9 1.218
0.886 -0.897 1.223
0.904 -0.902 1.231
0.894 -0.875 1.226
0.901 -0.867 1.229
0.908 -0.859 1.232
0.927 -0.864 1.241
0.982 -0.904 1.265
1.003 -0.909 1.275
1.021 -0.91 1.283
1.031 -0.904 1.287
1.048 -0.904 1.295
1.082 -0.92 1.31
1.212 -1.021 1.368
1.511 -1.267 1.501
1.526 -1.259 1.508
1.566 -1.271 1.526
0 0 0
0 0 0
2.157 -1.682 1.79
0 0 0
2.152 -1.618 1.788
2.173 -1.604 1.797
5.997 -4.453 3.503
6.099 -4.444 3.548
6.119 -4.376 3.557
6.139 -4.308 3.566
6.18 -4.254 3.584
6.237 -4.212 3.61
6.296 -4.171 3.636
6.286 -4.082 3.632
6.335 -4.034 3.654
6.333 -3.952 3.653
6.37 -3.896 3.669
6.383 -3.825 3.675
5.781 -3.389 3.406
5.793 -3.326 3.412
5.82 -3.271 3.424
5.832 -3.208 3.429
6.132 -3.304 3.563
6.455 -3.404 3.707
6.505 -3.355 3.729
6.505 -3.28 3.729
6.542 -3.224 3.746
6.55 -3.154 3.75
6.557 -3.083 3.753
6.581 -3.021 3.763
6.569 -2.942 3.758
6.002 -2.62 3.505
6.023 -2.563 3.514
6.035 -2.502 3.52
6.058 -2.447 3.53
6.404 -2.52 3.684
6.491 -2.486 3.723
8.725 -3.259 4.72
8.755 -3.178 4.734
8.775 -3.093 4.742
8.8 -3.01 4.753
8.813 -2.923 4.759
8.846 -2.843 4.774
8.866 -2.758 4.783
8.89 -2.675 4.794
8.914 -2.592 4.804
8.939 -2.509 4.816
8.951 -2.422 4.821
8.988 -2.341 4.837
9.003 -2.256 4.844
9.033 -2.173 4.857
9.055 -2.089 4.867
6.227 -1.369 3.606
6.524 -1.371 3.738
6.38 -1.278 3.674
6.39 -1.218 3.678
6.408 -1.159 3.686
6.503 -1.114 3.729
7.104 -1.149 3.997
7.121 -1.083 4.004
9.274 -1.325 4.965
7.157 -0.951 4.02
9.323 -1.153 4.987
7.201 -0.819 4.04
7.217 -0.752 4.047
6.922 -0.655 3.915
6.613 -0.563 3.778
6.621 -0.501 3.781
6.641 -0.439 3.79
6.653 -0.377 3.795
6.672 -0.315 3.804
6.692 -0.253 3.813
6.718 -0.19 3.825
6.728 -0.127 3.829
6.747 -0.064 3.837
6.756 -0 3.841
6.782 0.064 3.853
6.79 0.128 3.857
6.81 0.193 3.866
6.917 0.261 3.913
6.925 0.327 3.917
6.998 0.397 3.949
7.174 0.475 4.028
7.114 0.539 4.001
7.137 0.608 4.011
7.155 0.678 4.019
7.197 0.75 4.038
7.274 0.828 4.073
7.99 0.987 4.392
7.63 1.015 4.231
7.446 1.062 4.149
2.152 0.319 1.788
2.136 0.336 1.78
2.108 0.352 1.768
2.072 0.365 1.752
2.035 0.377 1.735
2.007 0.391 1.723
1.974 0.403 1.708
1.953 0.417 1.699
1.925 0.429 1.686
1.896 0.44 1.673
1.874 0.453 1.664
1.846 0.464 1.651
1.839 0.48 1.648
1.826 0.494 1.642
1.838 0.516 1.648
1.834 0.532 1.646
1.639 0.489 1.559
1.622 0.5 1.551
1.506 0.477 1.499
1.479 0.483 1.487
1.474 0.496 1.485
1.489 0.516 1.492
1.489 0.531 1.492
1.666 0.615 1.571
1.52 0.574 1.506
1.673 0.652 1.574
1.629 0.651 1.554
1.583 0.648 1.534
1.537 0.644 1.513
1.594 0.686 1.538
1.574 0.694 1.53
1.574 0.711 1.529
1.583 0.732 1.534
1.584 0.75 1.534
1.612 0.781 1.546
1.607 0.797 1.544
1.614 0.819 1.548
1.617 0.838 1.549
1.597 0.846 1.54
1.591 0.861 1.537
1.596 0.882 1.54
1.746 0.99 1.607
1.777 1.029 1.62
1.827 1.082 1.643
1.881 1.138 1.667
2.365 1.473 1.883
2.471 1.572 1.93
2.492 1.618 1.939
2.618 1.736 1.995
2.278 1.532 1.844
2.291 1.571 1.849
2.297 1.606 1.852
2.302 1.64 1.854
2.313 1.679 1.859
2.313 1.712 1.859
2.322 1.75 1.863
2.326 1.786 1.865
2.333 1.825 1.868
2.34 1.864 1.871
2.345 1.902 1.873
2.341 1.933 1.872
2.45 2.063 1.92
2.446 2.097 1.919
2.419 2.11 1.906
2.383 2.115 1.89
2.374 2.144 1.887
2.389 2.197 1.893
2.422 2.268 1.908
2.466 2.351 1.928
2.453 2.38 1.922
2.394 2.362 1.895
2.314 2.32 1.86
2.256 2.3 1.834
2.214 2.295 1.815
2.171 2.289 1.796
2.158 2.314 1.79
2.732 3.005 2.046
3.261 3.669 2.282
3.662 4.205 2.461
2.896 3.363 2.119
2.839 3.354 2.094
2.588 3.103 1.982
2.529 3.084 1.956
2.493 3.092 1.939
2.438 3.076 1.915
2.4 3.08 1.898
0.435 0.478 1.021
0.421 0.468 1.015
0.416 0.469 1.013
0.41 0.469 1.01
0.407 0.474 1.009
0.398 0.469 1.005
0.399 0.48 1.006
0.392 0.478 1.002
0.387 0.478 1
0.382 0.48 0.998
0.38 0.486 0.997
0.371 0.48 0.993
0.366 0.481 0.991
0.366 0.49 0.991
0.363 0.494 0.989
0.355 0.489 0.986
0.352 0.494 0.984
0.35 0.499 0.983
0.346 0.502 0.982
0.338 0.498 0.978
0.334 0.5 0.977
0.33 0.502 0.975
0.327 0.506 0.973
0.322 0.507 0.971
0.32 0.512 0.97
0.315 0.515 0.968
0.311 0.517 0.966
0.304 0.511 0.963
0.3 0.514 0.961
0.296 0.516 0.959
0.292 0.518 0.958
0.285 0.513 0.954
0.281 0.515 0.953
0.28 0.526 0.952
0.273 0.52 0.949
0.269 0.521 0.947
0.264 0.523 0.945
0.26 0.524 0.943
0.256 0.526 0.942
0.254 0.534 0.941
0.249 0.535 0.939
0.245 0.538 0.937
0.241 0.537 0.935
0.237 0.54 0.933
0.234 0.548 0.932
0.229 0.548 0.93
0.223 0.542 0.927
0.221 0.552 0.926
0.216 0.553 0.924
0.212 0.553 0.922
0.207 0.552 0.92
0.202 0.553 0.918
0.198 0.555 0.916
0.194 0.559 0.914
0.19 0.56 0.912
0.186 0.566 0.911
0.181 0.564 0.908
0.176 0.561 0.906
0.172 0.567 0.904
0.168 0.568 0.902
0.164 0.573 0.901
0.159 0.573 0.898
0.154 0.569 0.896
0.151 0.577 0.895
0.146 0.58 0.893
0.141 0.574 0.89
0.137 0.582 0.888
0.133 0.586 0.887
0.128 0.584 0.884
0.124 0.59 0.882
0.118 0.583 0.88
0.114 0.595 0.878
0.11 0.595 0.876
0.105 0.588 0.874
0.1 0.599 0.872
0.095 0.598 0.87
0.091 0.6 0.868
0.086 0.596 0.866
0.081 0.597 0.864
0.081 -1.597 0.864
0.091 -1.32 0.869
0.102 -1.319 0.874
0.112 -1.334 0.879
0.123 -1.333 0.883
0.134 -1.347 0.889
0.147 -1.398 0.895
0.186 -1.893 0.912
0.204 -1.94 0.92
0.22 -1.939 0.927
0.201 -1.509 0.919
0.193 -1.281 0.915
0.2 -1.247 0.918
0.21 -1.25 0.923
0.221 -1.256 0.928
0.232 -1.259 0.933
0.235 -1.21 0.935
0.242 -1.189 0.938
0.24 -1.105 0.937
0.248 -1.1 0.94
0.258 -1.106 0.945
0.267 -1.104 0.949
0.276 -1.101 0.953
0.284 -1.098 0.957
0.294 -1.103 0.961
0.305 -1.111 0.966
0.314 -1.109 0.97
0.322 -1.107 0.974
0.331 -1.105 0.978
0.343 -1.114 0.984
0.352 -1.111 0.987
0.362 -1.113 0.992
0.371 -1.111 0.996
0.38 -1.11 1
0.392 -1.119 1.006
0.4 -1.113 1.009
0.411 -1.118 1.015
0.422 -1.122 1.02
0.433 -1.125 1.025
0.444 -1.127 1.029
0.454 -1.127 1.034
0.464 -1.127 1.039
0.474 -1.125 1.043
0.478 -1.107 1.045
0.478 -1.081 1.045
0.48 -1.06 1.046
0.482 -1.038 1.047
0.485 -1.023 1.048
0.488 -1.005 1.049
0.492 -0.991 1.051
0.49 -0.965 1.051
0.493 -0.95 1.052
0.494 -0.932 1.052
0.498 -0.919 1.054
0.501 -0.906 1.055
0.498 -0.882 1.054
0.5 -0.866 1.055
0.506 -0.861 1.058
0.509 -0.849 1.059
0.52 -0.853 1.064
0.525 -0.845 1.066
0.538 -0.853 1.072
0.549 -0.857 1.077
0.557 -0.853 1.081
0.567 -0.855 1.085
0.577 -0.856 1.09
0.588 -0.858 1.095
0.601 -0.864 1.101
0.612 -0.866 1.106
0.696 -0.983 1.144
0.72 -1.003 1.155
0.737 -1.011 1.163
0.74 -0.998 1.164
0.725 -0.957 1.157
0.733 -0.95 1.161
0.723 -0.919 1.156
0.733 -0.917 1.161
0.727 -0.893 1.158
0.734 -0.887 1.162
0.754 -0.897 1.17
0.765 -0.896 1.175
0.774 -0.891 1.179
0.789 -0.895 1.186
0.808 -0.903 1.195
0.815 -0.896 1.198
0.832 -0.9 1.206
0.846 -0.902 1.212
0.859 -0.902 1.218
0.876 -0.905 1.226
0.886 -0.901 1.231
0.894 -0.893 1.234
0.894 -0.878 1.234
0.893 -0.861 1.234
0.903 -0.858 1.238
0.934 -0.874 1.252
0.979 -0.904 1.273
0.993 -0.902 1.279
1.017 -0.91 1.29
1.038 -0.915 1.3
1.044 -0.904 1.302
1.065 -0.908 1.312
1.189 -1.004 1.368
1.487 -1.251 1.504
1.513 -1.251 1.516
1.544 -1.256 1.53
2.15 -1.745 1.806
2.146 -1.71 1.804
2.169 -1.698 1.814
2.16 -1.659 1.81
2.167 -1.635 1.813
5.785 -4.388 3.459
5.957 -4.437 3.538
6.079 -4.445 3.593
6.106 -4.381 3.605
6.125 -4.312 3.614
6.155 -4.252 3.628
6.237 -4.226 3.665
6.289 -4.179 3.688
6.296 -4.103 3.692
6.328 -4.043 3.706
6.331 -3.964 3.708
6.385 -3.919 3.732
6.379 -3.835 3.729
5.769 -3.393 3.452
5.788 -3.334 3.461
5.801 -3.271 3.466
5.828 -3.217 3.479
6.092 -3.292 3.599
6.428 -3.401 3.752
6.492 -3.36 3.781
6.48 -3.278 3.775
6.515 -3.221 3.791
6.545 -3.162 3.805
6.551 -3.091 3.808
6.573 -3.028 3.818
6.581 -2.958 3.821
5.99 -2.623 3.552
6.01 -2.566 3.561
6.023 -2.506 3.568
6.04 -2.448 3.575
6.4 -2.527 3.739
6.47 -2.486 3.771
8.701 -3.261 4.786
8.735 -3.181 4.801
8.751 -3.095 4.809
8.778 -3.013 4.821
8.799 -2.928 4.83
8.825 -2.846 4.842
8.837 -2.758 4.847
8.869 -2.677 4.862
8.89 -2.593 4.872
8.919 -2.511 4.885
8.929 -2.424 4.89
8.967 -2.344 4.907
8.985 -2.259 4.915
9.011 -2.175 4.927
9.03 -2.09 4.935
6.208 -1.37 3.652
6.505 -1.372 3.787
6.36 -1.279 3.721
6.377 -1.22 3.729
6.395 -1.161 3.737
6.415 -1.102 3.746
9.204 -1.498 5.014
9.227 -1.412 5.025
9.259 -1.327 5.039
9.271 -1.24 5.045
9.297 -1.154 5.057
9.314 -1.066 5.065
7.193 -0.752 4.1
6.912 -0.657 3.972
6.598 -0.563 3.829
6.608 -0.501 3.834
6.629 -0.44 3.843
6.639 -0.378 3.848
6.666 -0.316 3.86
6.669 -0.253 3.861
6.696 -0.19 3.874
6.707 -0.127 3.879
6.733 -0.064 3.891
6.742 -0 3.894
6.76 0.064 3.903
6.776 0.128 3.91
6.796 0.193 3.919
6.892 0.261 3.963
6.924 0.328 3.977
6.988 0.398 4.007
7.149 0.475 4.08
7.102 0.539 4.059
7.111 0.608 4.062
7.139 0.678 4.075
7.206 0.754 4.106
7.273 0.83 4.136
8.009 0.992 4.471
7.607 1.015 4.288
7.405 1.059 4.196
2.162 0.321 1.811
2.128 0.336 1.795
2.103 0.352 1.784
2.075 0.367 1.772
2.037 0.379 1.754
2 0.391 1.738
1.973 0.404 1.725
1.945 0.417 1.712
1.917 0.429 1.7
1.889 0.44 1.687
1.866 0.453 1.676
1.838 0.464 1.664
1.819 0.476 1.655
1.814 0.492 1.653
1.817 0.511 1.654
1.83 0.533 1.66
1.835 0.553 1.662
1.863 0.58 1.675
1.626 0.519 1.567
1.567 0.515 1.54
1.605 0.544 1.558
1.699 0.595 1.6
1.7 0.612 1.601
1.718 0.637 1.609
1.69 0.643 1.596
1.695 0.663 1.598
1.673 0.672 1.589
1.619 0.666 1.564
1.564 0.658 1.539
1.647 0.713 1.577
1.574 0.696 1.543
1.575 0.714 1.544
1.572 0.73 1.543
1.568 0.745 1.541
1.576 0.766 1.545
1.574 0.783 1.544
1.581 0.804 1.547
1.575 0.819 1.544
1.589 0.844 1.55
1.579 0.857 1.546
1.593 0.884 1.552
1.736 0.987 1.617
1.764 1.025 1.63
1.751 1.039 1.624
0 0 0
2.378 1.487 1.909
2.468 1.576 1.95
2.482 1.617 1.957
2.599 1.729 2.01
2.264 1.528 1.857
2.288 1.575 1.868
2.294 1.609 1.871
2.298 1.643 1.873
2.299 1.675 1.873
2.303 1.709 1.875
2.318 1.753 1.882
2.312 1.781 1.879
2.326 1.826 1.886
2.332 1.864 1.888
2.35 1.913 1.896
2.349 1.947 1.896
2.46 2.079 1.947
2.432 2.092 1.934
2.403 2.104 1.921
2.375 2.115 1.908
2.372 2.15 1.906
2.383 2.199 1.912
2.419 2.273 1.928
2.466 2.36 1.95
2.446 2.381 1.94
2.444 2.421 1.939
2.392 2.41 1.916
2.217 2.266 1.836
2.185 2.272 1.822
2.172 2.298 1.816
2.247 2.422 1.85
2.718 3 2.064
3.685 4.173 2.504
3.65 4.205 2.488
2.844 3.313 2.121
2.853 3.383 2.125
2.666 3.21 2.04
2.538 3.106 1.982
2.492 3.102 1.961
2.444 3.095 1.939
2.409 3.103 1.923
0.43 0.474 1.023
0.422 0.472 1.02
0.409 0.461 1.013
0.407 0.467 1.013
0.401 0.466 1.01
0.397 0.469 1.008
0.393 0.472 1.006
0.389 0.475 1.004
0.386 0.478 1.003
0.379 0.477 1
0.379 0.487 1
0.374 0.487 0.998
0.369 0.488 0.995
0.365 0.49 0.993
0.36 0.491 0.991
0.354 0.489 0.988
0.35 0.492 0.987
0.348 0.498 0.986
0.344 0.501 0.984
0.337 0.498 0.981
0.333 0.5 0.979
0.329 0.503 0.977
0.326 0.506 0.976
0.322 0.508 0.974
0.318 0.512 0.972
0.314 0.515 0.97
0.31 0.517 0.969
0.302 0.51 0.965
0.299 0.514 0.963
0.295 0.516 0.962
0.29 0.517 0.959
0.284 0.514 0.957
0.283 0.524 0.956
0.279 0.525 0.954
0.272 0.52 0.951
0.267 0.521 0.949
0.266 0.531 0.949
0.259 0.524 0.945
0.255 0.525 0.943
0.253 0.534 0.943
0.249 0.536 0.941
0.244 0.538 0.939
0.24 0.538 0.937
0.235 0.539 0.935
0.233 0.548 0.934
0.228 0.547 0.931
0.224 0.551 0.93
0.22 0.552 0.928
0.216 0.553 0.926
0.211 0.555 0.924
0.206 0.552 0.921
0.204 0.563 0.92
0.198 0.556 0.917
0.193 0.558 0.915
0.189 0.56 0.913
0.185 0.565 0.912
0.181 0.564 0.91
0.177 0.571 0.908
0.172 0.568 0.906
0.168 0.57 0.904
0.163 0.573 0.902
0.159 0.574 0.9
0.154 0.573 0.898
0.149 0.574 0.895
0.145 0.578 0.894
0.141 0.582 0.892
0.136 0.583 0.89
0.131 0.578 0.887
0.127 0.583 0.885
0.122 0.58 0.883
0.118 0.593 0.881
0.113 0.586 0.879
0.109 0.586 0.877
0.104 0.585 0.875
0.1 0.598 0.873
0.095 0.598 0.871
0.09 0.593 0.868
0.085 0.596 0.866
0.081 0.597 0.864
0.08 -1.609 0.864
0.091 -1.346 0.869
0.102 -1.33 0.874
0.112 -1.334 0.879
0.123 -1.333 0.884
0.134 -1.346 0.889
0.148 -1.425 0.896
0.188 -1.931 0.914
0.204 -1.94 0.921
0.219 -1.939 0.928
0.21 -1.627 0.924
0.194 -1.3 0.917
0.2 -1.249 0.919
0.21 -1.248 0.924
0.221 -1.263 0.929
0.231 -1.26 0.934
0.235 -1.209 0.935
0.242 -1.189 0.939
0.241 -1.113 0.938
0.249 -1.108 0.942
0.258 -1.107 0.946
0.266 -1.104 0.95
0.275 -1.102 0.954
0.284 -1.099 0.958
0.294 -1.103 0.962
0.302 -1.101 0.966
0.313 -1.11 0.971
0.322 -1.107 0.975
0.331 -1.108 0.98
0.34 -1.105 0.984
0.35 -1.106 0.988
0.36 -1.111 0.993
0.369 -1.109 0.997
0.379 -1.11 1.002
0.391 -1.118 1.007
0.401 -1.119 1.012
0.413 -1.125 1.017
0.422 -1.123 1.021
0.43 -1.119 1.025
0.444 -1.129 1.031
0.453 -1.127 1.036
0.466 -1.135 1.042
0.473 -1.126 1.045
0.477 -1.107 1.047
0.477 -1.081 1.047
0.479 -1.06 1.048
0.482 -1.04 1.049
0.484 -1.023 1.05
0.486 -1.003 1.051
0.487 -0.981 1.051
0.492 -0.971 1.053
0.496 -0.959 1.055
0.493 -0.93 1.054
0.495 -0.915 1.055
0.498 -0.903 1.056
0.497 -0.882 1.056
0.499 -0.866 1.057
0.502 -0.854 1.058
0.507 -0.848 1.061
0.519 -0.853 1.066
0.529 -0.855 1.071
0.537 -0.854 1.074
0.549 -0.858 1.08
0.556 -0.853 1.083
0.566 -0.856 1.088
0.576 -0.857 1.092
0.586 -0.856 1.097
0.663 -0.968 1.132
0.674 -0.968 1.137
0.725 -1.032 1.161
0.732 -1.024 1.164
0.717 -0.983 1.157
0.719 -0.968 1.158
0.711 -0.938 1.154
0.716 -0.928 1.156
0.708 -0.9 1.153
0.72 -0.901 1.159
0.722 -0.888 1.159
0.735 -0.889 1.165
0.749 -0.893 1.172
0.761 -0.893 1.177
0.77 -0.889 1.181
0.787 -0.894 1.189
0.801 -0.896 1.195
0.814 -0.896 1.201
0.823 -0.891 1.205
0.837 -0.893 1.212
0.855 -0.899 1.221
0.874 -0.904 1.229
0.882 -0.897 1.233
0.887 -0.887 1.235
0.885 -0.87 1.234
0.896 -0.867 1.239
0.904 -0.86 1.243
0.93 -0.872 1.255
0.972 -0.899 1.274
0.995 -0.907 1.285
1.006 -0.901 1.29
1.016 -0.895 1.294
1.042 -0.903 1.306
1.067 -0.911 1.318
1.135 -0.957 1.349
1.474 -1.242 1.505
4.676 -4.023 2.976
4.81 -4.066 3.038
4.953 -4.115 3.103
5.098 -4.161 3.17
5.255 -4.214 3.242
5.417 -4.267 3.316
5.581 -4.318 3.392
5.755 -4.372 3.472
5.949 -4.439 3.561
6.076 -4.451 3.619
6.095 -4.381 3.628
6.115 -4.312 3.637
6.135 -4.245 3.646
6.228 -4.228 3.689
6.331 -4.216 3.737
6.336 -4.137 3.739
6.381 -4.084 3.759
6.387 -4.007 3.762
6.425 -3.95 3.78
6.433 -3.875 3.783
5.766 -3.397 3.477
5.778 -3.334 3.483
5.797 -3.275 3.491
5.822 -3.219 3.502
6.077 -3.29 3.62
6.418 -3.402 3.777
6.467 -3.352 3.799
6.488 -3.288 3.809
6.51 -3.225 3.819
6.515 -3.153 3.821
6.544 -3.093 3.835
6.553 -3.023 3.838
6.579 -2.962 3.85
5.979 -2.623 3.575
5.999 -2.566 3.584
6.019 -2.509 3.593
6.031 -2.449 3.599
6.413 -2.536 3.774
6.459 -2.486 3.795
8.694 -3.264 4.822
8.72 -3.181 4.834
8.747 -3.099 4.847
8.769 -3.015 4.857
8.787 -2.929 4.865
8.818 -2.848 4.879
8.838 -2.764 4.888
8.862 -2.68 4.899
8.88 -2.595 4.908
8.911 -2.513 4.922
8.918 -2.425 4.925
8.962 -2.347 4.945
8.978 -2.261 4.953
9.013 -2.179 4.969
9.031 -2.094 4.977
6.21 -1.372 3.681
6.517 -1.377 3.822
6.357 -1.28 3.748
6.366 -1.22 3.753
6.384 -1.161 3.761
6.404 -1.102 3.77
9.203 -1.5 5.056
9.223 -1.414 5.065
9.251 -1.329 5.078
9.264 -1.241 5.084
9.296 -1.155 5.099
9.318 -1.068 5.109
7.195 -0.754 4.134
6.913 -0.658 4.004
6.595 -0.564 3.858
6.604 -0.502 3.862
6.624 -0.44 3.871
6.636 -0.378 3.876
6.656 -0.316 3.886
6.666 -0.253 3.89
6.693 -0.191 3.903
6.704 -0.127 3.908
6.722 -0.064 3.916
6.739 -0 3.924
6.756 0.064 3.932
6.768 0.128 3.937
6.793 0.193 3.949
6.902 0.262 3.999
6.912 0.328 4.003
6.986 0.398 4.037
7.18 0.478 4.127
7.095 0.54 4.088
7.349 0.63 4.204
7.197 0.685 4.135
7.248 0.76 4.158
7.38 0.844 4.218
8.044 0.999 4.524
7.681 1.027 4.357
7.369 1.056 4.213
2.158 0.321 1.819
2.125 0.336 1.804
2.133 0.358 1.808
2.099 0.372 1.792
2.041 0.38 1.765
2.013 0.394 1.752
1.969 0.404 1.732
1.941 0.417 1.72
1.914 0.429 1.707
1.886 0.44 1.694
1.874 0.456 1.689
1.842 0.465 1.674
1.807 0.474 1.658
1.81 0.492 1.659
1.813 0.511 1.661
1.826 0.533 1.666
1.832 0.553 1.669
1.851 0.577 1.678
1.894 0.61 1.698
1.732 0.573 1.623
1.755 0.599 1.634
1.787 0.628 1.648
1.755 0.635 1.634
1.759 0.654 1.636
1.714 0.654 1.615
1.709 0.67 1.613
1.681 0.676 1.6
1.671 0.689 1.595
1.65 0.698 1.586
1.638 0.71 1.58
1.599 0.71 1.562
1.608 0.731 1.566
1.578 0.734 1.553
1.57 0.747 1.549
1.567 0.763 1.547
1.587 0.791 1.557
1.568 0.798 1.548
1.556 0.81 1.543
1.567 0.834 1.547
1.543 0.838 1.537
1.574 0.874 1.551
1.701 0.969 1.609
1.745 1.015 1.629
1.732 1.028 1.623
1.812 1.1 1.66
2.013 1.253 1.753
2.466 1.578 1.961
2.478 1.617 1.966
2.576 1.716 2.011
2.267 1.533 1.869
2.298 1.585 1.883
2.295 1.613 1.882
2.301 1.649 1.885
2.301 1.679 1.885
2.306 1.715 1.887
2.32 1.758 1.893
2.314 1.786 1.891
2.323 1.826 1.895
2.334 1.869 1.9
2.338 1.907 1.902
2.342 1.945 1.904
2.474 2.095 1.964
2.434 2.098 1.946
2.405 2.109 1.932
2.371 2.115 1.917
2.373 2.155 1.918
2.381 2.201 1.922
2.434 2.291 1.946
2.462 2.36 1.959
2.44 2.379 1.949
2.45 2.431 1.953
2.24 2.256 1.857
2.195 2.247 1.836
2.171 2.26 1.825
2.153 2.281 1.817
0 0 0
2.709 2.995 2.072
3.696 4.193 2.526
3.651 4.214 2.505
2.836 3.31 2.131
2.872 3.413 2.147
3.011 3.646 2.211
2.538 3.111 1.994
2.497 3.114 1.975
2.449 3.106 1.953
2.411 3.112 1.936
0.433 0.479 1.026
0.42 0.47 1.021
0.412 0.467 1.017
0.407 0.469 1.015
0.404 0.472 1.013
0.396 0.469 1.01
0.392 0.472 1.008
0.39 0.478 1.007
0.384 0.477 1.004
0.38 0.48 1.002
0.379 0.487 1.002
0.373 0.487 0.999
0.368 0.488 0.997
0.365 0.491 0.995
0.358 0.489 0.992
0.353 0.49 0.99
0.35 0.493 0.988
0.347 0.497 0.987
0.344 0.502 0.986
0.336 0.497 0.982
0.332 0.499 0.98
0.328 0.503 0.978
0.324 0.505 0.977
0.32 0.506 0.975
0.317 0.511 0.973
0.314 0.515 0.972
0.305 0.508 0.968
0.301 0.51 0.966
0.298 0.514 0.965
0.294 0.515 0.962
0.29 0.517 0.961
0.283 0.513 0.958
0.279 0.515 0.956
0.278 0.525 0.955
0.274 0.527 0.953
0.267 0.521 0.95
0.263 0.523 0.948
0.261 0.532 0.948
0.257 0.535 0.946
0.252 0.534 0.943
0.248 0.534 0.941
0.244 0.538 0.94
0.239 0.538 0.937
0.235 0.539 0.935
0.233 0.548 0.934
0.228 0.547 0.932
0.224 0.551 0.93
0.219 0.55 0.928
0.215 0.553 0.926
0.211 0.555 0.924
0.206 0.554 0.922
0.202 0.555 0.92
0.197 0.556 0.918
0.193 0.558 0.916
0.189 0.56 0.914
0.185 0.563 0.912
0.18 0.564 0.91
0.175 0.561 0.908
0.172 0.57 0.906
0.167 0.57 0.904
0.163 0.572 0.902
0.158 0.574 0.9
0.154 0.576 0.898
0.149 0.572 0.896
0.145 0.576 0.894
0.141 0.584 0.892
0.136 0.585 0.89
0.132 0.588 0.888
0.127 0.582 0.886
0.122 0.582 0.884
0.117 0.583 0.881
0.113 0.586 0.879
0.108 0.587 0.877
0.104 0.588 0.875
0.099 0.598 0.873
0.094 0.589 0.871
0.09 0.603 0.869
0.085 0.596 0.867
0.08 0.596 0.864
0.08 -1.621 0.865
0.091 -1.366 0.87
0.101 -1.325 0.875
0.112 -1.334 0.88
0.122 -1.332 0.885
0.133 -1.346 0.89
0.148 -1.436 0.897
0.187 -1.939 0.915
0.203 -1.94 0.923
0.218 -1.939 0.93
0.225 -1.837 0.933
0.194 -1.311 0.919
0.199 -1.249 0.921
0.209 -1.254 0.926
0.22 -1.26 0.931
0.231 -1.271 0.936
0.234 -1.207 0.937
0.239 -1.178 0.94
0.239 -1.107 0.939
0.246 -1.099 0.943
0.257 -1.107 0.948
0.265 -1.104 0.952
0.274 -1.101 0.956
0.284 -1.105 0.96
0.292 -1.103 0.965
0.303 -1.111 0.97
0.312 -1.109 0.974
0.321 -1.107 0.978
0.331 -1.111 0.983
0.339 -1.106 0.986
0.35 -1.112 0.991
0.358 -1.108 0.995
0.37 -1.116 1.001
0.378 -1.11 1.005
0.389 -1.118 1.01
0.4 -1.121 1.015
0.409 -1.117 1.019
0.42 -1.123 1.024
0.431 -1.126 1.03
0.443 -1.131 1.035
0.451 -1.127 1.039
0.463 -1.132 1.045
0.474 -1.132 1.049
0.479 -1.117 1.052
0.475 -1.08 1.05
0.478 -1.062 1.052
0.48 -1.04 1.052
0.481 -1.019 1.053
0.487 -1.009 1.056
0.489 -0.99 1.056
0.49 -0.971 1.057
0.494 -0.959 1.059
0.49 -0.929 1.057
0.495 -0.919 1.059
0.497 -0.904 1.061
0.496 -0.883 1.06
0.497 -0.866 1.06
0.5 -0.853 1.062
0.507 -0.85 1.065
0.516 -0.851 1.069
0.525 -0.851 1.074
0.536 -0.855 1.079
0.542 -0.849 1.082
0.552 -0.851 1.086
0.561 -0.851 1.09
0.598 -0.897 1.108
0.623 -0.923 1.119
0.727 -1.08 1.168
0.728 -1.06 1.168
0.707 -1.008 1.159
0.717 -1.004 1.163
0.691 -0.946 1.151
0.702 -0.945 1.156
0.688 -0.908 1.15
0.694 -0.899 1.152
0.7 -0.893 1.156
0.708 -0.887 1.159
0.718 -0.886 1.164
0.735 -0.894 1.172
0.745 -0.89 1.176
0.756 -0.889 1.182
0.769 -0.89 1.188
0.784 -0.894 1.195
0.797 -0.895 1.201
0.811 -0.896 1.207
0.828 -0.902 1.216
0.842 -0.902 1.222
0.858 -0.905 1.229
0.871 -0.904 1.235
0.885 -0.905 1.242
0.881 -0.885 1.24
0.882 -0.871 1.241
0.892 -0.866 1.245
0.902 -0.862 1.25
0.951 -0.897 1.273
0.973 -0.903 1.283
0.986 -0.901 1.289
1.002 -0.901 1.297
1.02 -0.902 1.305
1.043 -0.908 1.316
1.059 -0.908 1.324
1.14 -0.965 1.362
1.464 -1.237 1.513
4.656 -4.02 3.008
4.791 -4.065 3.072
4.93 -4.109 3.136
5.085 -4.165 3.209
5.232 -4.21 3.278
5.395 -4.264 3.354
5.558 -4.315 3.431
5.73 -4.368 3.511
5.92 -4.432 3.6
6.063 -4.456 3.667
6.081 -4.386 3.676
6.1 -4.317 3.685
6.114 -4.245 3.691
6.212 -4.231 3.737
6.325 -4.226 3.79
6.347 -4.158 3.8
6.384 -4.1 3.818
6.397 -4.027 3.824
6.437 -3.971 3.842
6.442 -3.894 3.845
5.746 -3.397 3.519
5.766 -3.338 3.528
5.786 -3.28 3.537
5.805 -3.221 3.546
6.042 -3.282 3.657
6.389 -3.398 3.82
6.451 -3.355 3.849
6.464 -3.287 3.855
6.485 -3.223 3.865
6.504 -3.158 3.874
6.525 -3.094 3.883
6.535 -3.025 3.888
6.553 -2.961 3.897
5.966 -2.626 3.622
5.987 -2.57 3.632
6.007 -2.512 3.641
6.019 -2.452 3.646
6.427 -2.551 3.838
6.418 -2.479 3.834
8.672 -3.267 4.889
8.698 -3.184 4.901
8.723 -3.101 4.913
8.756 -3.021 4.928
8.768 -2.933 4.934
8.796 -2.851 4.947
8.816 -2.766 4.956
8.837 -2.682 4.967
8.858 -2.597 4.976
8.892 -2.517 4.992
8.896 -2.427 4.994
8.94 -2.349 5.015
8.956 -2.263 5.022
8.985 -2.18 5.036
9.004 -2.095 5.045
6.2 -1.375 3.731
6.516 -1.381 3.879
6.343 -1.282 3.799
6.354 -1.222 3.804
6.379 -1.164 3.815
6.385 -1.103 3.818
9.176 -1.501 5.125
9.194 -1.414 5.134
9.231 -1.33 5.151
9.246 -1.243 5.158
9.269 -1.156 5.169
9.299 -1.07 5.183
7.179 -0.755 4.19
6.901 -0.659 4.06
6.587 -0.566 3.913
6.582 -0.502 3.91
6.61 -0.441 3.923
6.622 -0.379 3.929
6.65 -0.317 3.942
6.66 -0.254 3.947
6.679 -0.191 3.956
6.689 -0.127 3.96
6.708 -0.064 3.969
6.724 -0 3.977
6.74 0.064 3.985
6.755 0.129 3.991
6.778 0.194 4.002
6.889 0.263 4.054
6.893 0.328 4.056
6.966 0.398 4.09
6.989 0.467 4.101
7.243 0.553 4.22
7.322 0.629 4.257
7.266 0.694 4.231
7.299 0.768 4.246
7.688 0.883 4.428
8.046 1.002 4.596
8.073 1.084 4.609
7.545 1.085 4.361
2.14 0.32 1.83
2.118 0.336 1.82
2.13 0.359 1.825
2.099 0.373 1.81
2.066 0.387 1.795
2.03 0.399 1.778
1.979 0.408 1.754
1.944 0.419 1.738
1.906 0.429 1.72
1.888 0.443 1.712
1.854 0.452 1.696
1.829 0.464 1.684
1.809 0.476 1.675
1.803 0.492 1.672
1.816 0.514 1.678
1.819 0.533 1.68
1.833 0.555 1.686
1.844 0.577 1.691
1.896 0.613 1.716
1.806 0.601 1.674
1.798 0.616 1.67
1.78 0.628 1.661
1.753 0.636 1.649
1.738 0.648 1.641
1.724 0.661 1.635
1.713 0.674 1.63
1.695 0.684 1.621
1.684 0.698 1.616
1.652 0.701 1.601
1.644 0.715 1.597
1.622 0.723 1.587
1.609 0.734 1.581
1.618 0.756 1.585
1.612 0.771 1.583
1.585 0.775 1.57
1.643 0.823 1.597
1.629 0.834 1.591
1.567 0.819 1.562
1.552 0.828 1.554
1.552 0.846 1.555
1.643 0.918 1.597
1.723 0.985 1.634
1.72 1.004 1.633
1.7 1.012 1.624
1.71 1.039 1.628
1.836 1.142 1.687
2.453 1.574 1.976
2.468 1.616 1.984
2.551 1.705 2.022
2.261 1.534 1.886
2.29 1.585 1.9
2.291 1.616 1.901
2.298 1.652 1.904
2.291 1.678 1.901
2.303 1.719 1.906
2.317 1.762 1.913
2.312 1.791 1.911
2.324 1.834 1.916
2.327 1.87 1.918
2.332 1.908 1.92
2.335 1.945 1.921
2.487 2.115 1.993
2.45 2.119 1.975
2.419 2.13 1.961
2.362 2.115 1.934
2.369 2.159 1.937
2.374 2.202 1.94
2.419 2.285 1.961
2.428 2.335 1.965
2.403 2.351 1.953
2.645 2.641 2.066
2.206 2.228 1.861
2.185 2.244 1.851
2.166 2.263 1.842
2.137 2.272 1.829
0 0 0
2.701 2.997 2.093
3.683 4.193 2.553
3.638 4.213 2.532
2.836 3.321 2.156
3.056 3.65 2.259
2.565 3.102 2.029
2.558 3.148 2.026
2.498 3.126 1.997
2.443 3.11 1.972
2.401 3.11 1.952
0.425 0.471 1.027
0.418 0.469 1.023
0.411 0.468 1.02
0.405 0.468 1.017
0.402 0.472 1.016
0.394 0.469 1.012
0.392 0.475 1.011
0.389 0.478 1.01
0.382 0.477 1.007
0.379 0.48 1.005
0.376 0.484 1.004
0.371 0.486 1.002
0.365 0.485 0.999
0.36 0.485 0.996
0.358 0.491 0.995
0.351 0.489 0.992
0.348 0.493 0.991
0.346 0.498 0.989
0.342 0.501 0.988
0.335 0.497 0.984
0.334 0.506 0.984
0.33 0.509 0.982
0.323 0.505 0.979
0.319 0.507 0.977
0.316 0.511 0.975
0.311 0.513 0.973
0.308 0.517 0.972
0.301 0.511 0.968
0.297 0.514 0.967
0.292 0.514 0.964
0.289 0.518 0.963
0.285 0.521 0.961
0.281 0.523 0.959
0.276 0.524 0.957
0.27 0.518 0.954
0.265 0.52 0.952
0.264 0.53 0.951
0.26 0.531 0.949
0.253 0.525 0.946
0.251 0.534 0.945
0.247 0.536 0.943
0.243 0.538 0.941
0.238 0.537 0.939
0.234 0.538 0.937
0.232 0.548 0.936
0.227 0.547 0.934
0.223 0.55 0.932
0.218 0.551 0.93
0.214 0.554 0.928
0.21 0.556 0.926
0.205 0.554 0.924
0.201 0.556 0.922
0.196 0.556 0.92
0.193 0.561 0.918
0.189 0.568 0.916
0.182 0.554 0.913
0.179 0.565 0.912
0.174 0.561 0.909
0.171 0.57 0.908
0.166 0.57 0.906
0.162 0.571 0.903
0.158 0.574 0.901
0.154 0.578 0.9
0.149 0.581 0.897
0.144 0.579 0.895
0.14 0.586 0.893
0.135 0.577 0.891
0.131 0.588 0.889
0.126 0.581 0.887
0.122 0.591 0.885
0.117 0.583 0.882
0.113 0.588 0.88
0.108 0.587 0.878
0.103 0.589 0.876
0.099 0.589 0.874
0.094 0.599 0.872
0.089 0.593 0.869
0.085 0.596 0.867
0.08 0.597 0.865
0.079 -1.622 0.866
0.091 -1.407 0.871
0.1 -1.327 0.876
0.111 -1.333 0.881
0.121 -1.333 0.886
0.132 -1.344 0.891
0.148 -1.449 0.898
0.186 -1.939 0.917
0.202 -1.94 0.924
0.217 -1.939 0.931
0.231 -1.918 0.938
0.193 -1.303 0.92
0.198 -1.249 0.922
0.208 -1.253 0.927
0.219 -1.26 0.932
0.231 -1.272 0.938
0.232 -1.205 0.939
0.238 -1.178 0.942
0.237 -1.104 0.941
0.247 -1.108 0.946
0.256 -1.107 0.95
0.264 -1.104 0.954
0.273 -1.101 0.958
0.281 -1.1 0.962
0.291 -1.104 0.967
0.3 -1.101 0.971
0.31 -1.109 0.976
0.319 -1.107 0.98
0.329 -1.11 0.985
0.338 -1.109 0.989
0.347 -1.108 0.994
0.359 -1.118 0.999
0.367 -1.111 1.003
0.378 -1.115 1.008
0.387 -1.113 1.012
0.398 -1.121 1.018
0.41 -1.126 1.023
0.419 -1.124 1.028
0.429 -1.126 1.033
0.44 -1.129 1.038
0.449 -1.124 1.042
0.461 -1.13 1.048
0.473 -1.137 1.054
0.473 -1.107 1.054
0.476 -1.089 1.055
0.475 -1.059 1.055
0.48 -1.046 1.057
0.481 -1.023 1.057
0.485 -1.009 1.059
0.487 -0.99 1.06
0.488 -0.971 1.061
0.489 -0.95 1.061
0.492 -0.937 1.063
0.492 -0.917 1.063
0.495 -0.904 1.064
0.494 -0.883 1.064
0.495 -0.865 1.064
0.5 -0.858 1.066
0.506 -0.854 1.07
0.514 -0.85 1.073
0.522 -0.85 1.077
0.533 -0.854 1.082
0.543 -0.855 1.087
0.561 -0.871 1.096
0.575 -0.879 1.102
0.741 -1.151 1.182
0.726 -1.103 1.174
0.695 -1.03 1.159
0.701 -1.021 1.163
0.685 -0.976 1.155
0.688 -0.963 1.156
0.674 -0.923 1.149
0.684 -0.922 1.154
0.679 -0.898 1.152
0.691 -0.899 1.158
0.694 -0.888 1.159
0.708 -0.891 1.166
0.718 -0.89 1.171
0.733 -0.894 1.178
0.742 -0.89 1.182
0.758 -0.896 1.189
0.766 -0.891 1.194
0.779 -0.891 1.2
0.793 -0.894 1.206
0.806 -0.894 1.213
0.824 -0.901 1.221
0.838 -0.901 1.228
0.845 -0.894 1.231
0.863 -0.899 1.24
0.873 -0.894 1.244
0.88 -0.887 1.248
0.875 -0.866 1.246
0.887 -0.864 1.251
0.903 -0.866 1.259
0.947 -0.896 1.28
0.966 -0.9 1.289
0.987 -0.906 1.299
1.005 -0.907 1.308
1.018 -0.904 1.314
1.034 -0.903 1.321
1.056 -0.908 1.332
1.089 -0.922 1.348
4.51 -3.976 2.982
4.634 -4.015 3.041
4.77 -4.061 3.106
4.907 -4.105 3.171
5.058 -4.157 3.243
5.206 -4.204 3.314
5.369 -4.259 3.392
5.53 -4.309 3.469
5.707 -4.367 3.553
5.889 -4.425 3.64
6.041 -4.456 3.713
6.066 -4.391 3.725
6.078 -4.317 3.73
6.102 -4.252 3.742
6.191 -4.232 3.784
6.316 -4.235 3.844
6.352 -4.176 3.861
6.4 -4.126 3.884
6.408 -4.049 3.888
6.436 -3.985 3.901
6.441 -3.908 3.904
5.737 -3.404 3.568
5.745 -3.338 3.571
5.771 -3.283 3.584
5.787 -3.223 3.592
6.008 -3.276 3.697
6.355 -3.392 3.863
6.445 -3.365 3.906
6.452 -3.293 3.909
8.402 -4.203 4.841
8.429 -4.12 4.853
8.457 -4.037 4.866
8.465 -3.944 4.87
8.495 -3.863 4.885
5.945 -2.626 3.667
5.972 -2.572 3.68
5.986 -2.513 3.686
6.004 -2.455 3.695
6.422 -2.558 3.895
6.372 -2.47 3.871
8.65 -3.27 4.959
8.686 -3.191 4.976
8.694 -3.102 4.98
8.724 -3.021 4.994
8.748 -2.937 5.005
8.771 -2.853 5.016
8.795 -2.77 5.028
8.814 -2.684 5.037
8.838 -2.601 5.048
8.866 -2.518 5.062
8.877 -2.431 5.067
8.904 -2.348 5.08
8.931 -2.265 5.093
7.035 -1.709 4.187
8.979 -2.096 5.116
6.188 -1.377 3.783
6.517 -1.387 3.94
6.32 -1.282 3.846
6.338 -1.223 3.855
6.357 -1.164 3.864
6.372 -1.104 3.871
9.156 -1.503 5.2
9.172 -1.416 5.208
9.13 -1.32 5.188
9.205 -1.242 5.224
9.122 -1.142 5.184
9.242 -1.067 5.242
7.158 -0.755 4.246
6.894 -0.661 4.12
6.577 -0.567 3.969
6.575 -0.503 3.968
6.596 -0.442 3.978
6.607 -0.379 3.983
6.626 -0.317 3.992
6.637 -0.254 3.997
6.664 -0.191 4.01
6.674 -0.128 4.015
6.691 -0.064 4.023
6.7 -0 4.028
6.722 0.064 4.038
6.738 0.129 4.046
