# .PCD v0.7 - Point Cloud Data file format
VERSION 0.7
FIELDS x y z
SIZE 4 4 4
TYPE F F F
COUNT 1 1 1
WIDTH 2515
HEIGHT 1
VIEWPOINT 0 0 0 1 0 0 0
POINTS 2515
DATA ascii
1.365 1.335 0.009
1.365 1.359 0.009
1.373 1.39 0.005
1.363 1.405 0.009
1.37 1.436 0.007
1.372 1.464 0.005
1.374 1.492 0.005
1.365 1.508 0.009
1.375 1.546 0.004
1.349 1.543 0.016
1.346 1.567 0.017
1.371 1.625 0.006
1.337 1.611 0.021
1.314 1.611 0.032
1.275 1.589 0.049
1.253 1.589 0.059
1.241 1.602 0.064
1.232 1.618 0.069
1.22 1.631 0.074
1.198 1.63 0.084
0 0 0
1.199 1.692 0.083
1.19 1.708 0.088
1.18 1.725 0.092
1.171 1.743 0.096
1.162 1.762 0.1
1.161 1.793 0.101
1.151 1.811 0.105
1.138 1.825 0.111
1.123 1.834 0.118
1.095 1.821 0.13
1.106 1.876 0.125
1.094 1.892 0.131
1.083 1.91 0.135
1.093 1.965 0.131
1.066 1.955 0.143
1.032 1.93 0.158
1.004 1.914 0.171
1.016 1.977 0.166
1.043 2.076 0.153
1.034 2.1 0.158
1.019 2.114 0.164
1.021 2.165 0.163
1.009 2.185 0.169
0.979 2.166 0.182
0.949 2.145 0.196
0.921 2.127 0.209
0.892 2.106 0.222
0.856 2.067 0.238
0.814 2.008 0.257
0.778 1.963 0.273
0.756 1.952 0.283
0.699 1.842 0.309
0.582 1.557 0.361
0.385 1.02 0.45
0.386 1.052 0.449
0.376 1.049 0.454
0.361 1.033 0.46
0.349 1.024 0.466
0.338 1.018 0.471
0.328 1.012 0.475
0.317 1.004 0.48
0.301 0.978 0.488
0.291 0.972 0.492
0.285 0.98 0.495
0.275 0.974 0.499
0.263 0.96 0.504
0.255 0.96 0.508
0.245 0.951 0.513
0.235 0.943 0.517
0.226 0.934 0.521
0.218 0.936 0.525
0.209 0.928 0.529
0.2 0.92 0.533
0.191 0.911 0.537
0.184 0.914 0.54
0.174 0.898 0.545
0.165 0.89 0.549
0.159 0.896 0.551
0.151 0.89 0.555
0.145 0.899 0.558
0.136 0.884 0.562
0.126 0.862 0.566
0.117 0.838 0.57
0.11 0.832 0.574
0.104 0.839 0.576
0.097 0.841 0.579
0.091 0.856 0.582
0.085 0.854 0.585
0.081 0.923 0.587
0.078 1.022 0.588
0.072 1.116 0.59
0.063 1.085 0.595
0.053 1.035 0.599
0.045 1.001 0.603
0.037 0.145 0.606
0.037 -0.103 0.607
0.047 -1.24 0.602
0.056 -1.212 0.598
0.062 -1.071 0.595
0.066 -0.918 0.594
0.074 -0.933 0.59
0.081 -0.926 0.587
0.089 -0.939 0.584
0.097 -0.935 0.58
0 0 0
0.148 -1.388 0.558
0.161 -1.406 0.552
0.174 -1.423 0.546
0.188 -1.446 0.54
0.2 -1.455 0.535
0.216 -1.485 0.528
0.23 -1.502 0.521
0.244 -1.512 0.515
0.254 -1.498 0.511
0.261 -1.467 0.508
0.256 -1.356 0.51
0.241 -1.206 0.516
0.238 -1.131 0.518
0.238 -1.079 0.518
0.239 -1.039 0.518
0.243 -1.018 0.516
0 0 0
0.239 -0.919 0.518
0.248 -0.926 0.514
0.468 -1.823 0.416
0.49 -1.849 0.407
0.513 -1.877 0.397
0.54 -1.918 0.385
0.544 -1.872 0.383
0.512 -1.697 0.397
0.505 -1.624 0.4
0.505 -1.576 0.4
0.512 -1.551 0.397
0.512 -1.507 0.397
0.508 -1.454 0.399
0.497 -1.38 0.404
0.509 -1.38 0.398
0.51 -1.347 0.398
0.507 -1.304 0.399
0.493 -1.234 0.405
0.495 -1.209 0.404
0.49 -1.166 0.407
0.492 -1.144 0.406
0.501 -1.14 0.402
0.508 -1.129 0.399
0.533 -1.163 0.388
0.536 -1.144 0.387
0.541 -1.131 0.384
0.541 -1.104 0.384
0.548 -1.097 0.381
0.563 -1.105 0.374
0.589 -1.135 0.363
0.617 -1.169 0.351
0.645 -1.199 0.338
0.668 -1.219 0.328
0.687 -1.231 0.32
0.697 -1.225 0.315
0 0 0
0.469 -0.771 0.416
0.422 -0.674 0.437
0.424 -0.665 0.436
0.432 -0.666 0.432
0.453 -0.688 0.423
0 0 0
0.962 -1.472 0.198
0.984 -1.479 0.189
0.991 -1.462 0.186
1.011 -1.466 0.177
1.132 -1.617 0.124
1.288 -1.815 0.055
1.301 -1.801 0.049
1.339 -1.821 0.032
1.308 -1.747 0.046
1.306 -1.713 0.047
1.308 -1.685 0.046
1.307 -1.655 0.046
1.304 -1.621 0.048
1.303 -1.592 0.048
1.319 -1.584 0.041
1.341 -1.583 0.031
1.336 -1.55 0.033
1.352 -1.541 0.027
1.365 -1.53 0.021
1.361 -1.499 0.022
1.366 -1.479 0.02
1.359 -1.445 0.024
1.365 -1.426 0.021
1.362 -1.399 0.022
1.365 -1.378 0.02
1.363 -1.352 0.022
1.363 -1.328 0.022
1.361 -1.303 0.022
1.36 -1.28 0.023
1.365 -1.262 0.021
1.358 -1.233 0.024
1.363 -1.216 0.022
1.364 -1.196 0.021
1.367 -1.177 0.02
1.367 -1.157 0.02
1.37 -1.138 0.019
1.37 -1.118 0.018
1.372 -1.1 0.018
1.37 -1.078 0.018
1.36 -1.05 0.023
1.374 -1.042 0.017
1.363 -1.015 0.022
1.368 -1 0.02
1.366 -0.98 0.02
1.361 -0.958 0.023
1.359 -0.938 0.023
1.365 -0.925 0.021
1.363 -0.906 0.022
1.37 -0.893 0.018
1.367 -0.874 0.02
1.368 -0.857 0.02
1.366 -0.838 0.02
1.359 -0.818 0.023
1.368 -0.807 0.019
1.362 -0.786 0.022
1.366 -0.772 0.02
1.372 -0.76 0.018
1.364 -0.739 0.021
1.364 -0.723 0.021
1.363 -0.707 0.021
1.371 -0.696 0.018
1.368 -0.678 0.02
1.372 -0.665 0.018
1.365 -0.646 0.021
1.37 -0.634 0.018
1.37 -0.619 0.018
1.374 -0.605 0.017
1.371 -0.589 0.018
1.37 -0.574 0.019
1.368 -0.559 0.019
1.376 -0.547 0.016
1.374 -0.532 0.017
1.367 -0.515 0.02
1.372 -0.502 0.018
1.373 -0.489 0.017
1.369 -0.473 0.019
1.374 -0.461 0.017
1.364 -0.444 0.021
1.372 -0.432 0.018
1.358 -0.414 0.024
1.364 -0.402 0.021
1.36 -0.387 0.023
1.365 -0.375 0.021
1.362 -0.361 0.022
1.366 -0.349 0.02
1.358 -0.333 0.024
1.363 -0.321 0.021
1.359 -0.307 0.024
1.367 -0.296 0.02
1.357 -0.28 0.024
1.365 -0.269 0.021
1.373 -0.258 0.017
1.373 -0.244 0.017
1.368 -0.23 0.019
1.377 -0.219 0.015
1.373 -0.205 0.017
1.382 -0.194 0.013
1.374 -0.179 0.017
1.375 -0.167 0.016
1.363 -0.152 0.021
1.368 -0.14 0.019
1.366 -0.127 0.02
1.37 -0.115 0.018
1.367 -0.102 0.02
1.376 -0.09 0.016
1.373 -0.077 0.017
1.363 -0.063 0.022
1.365 -0.051 0.021
1.37 -0.038 0.018
1.37 -0.025 0.019
1.374 -0.013 0.017
1.37 -0 0.019
1.373 0.013 0.017
1.357 0.025 0.024
1.364 0.038 0.021
1.365 0.051 0.021
1.37 0.064 0.018
1.367 0.076 0.02
1.365 0.089 0.021
1.363 0.101 0.022
1.368 0.115 0.019
1.364 0.127 0.021
1.376 0.141 0.016
1.361 0.152 0.023
1.363 0.165 0.022
1.365 0.178 0.021
1.366 0.191 0.02
1.364 0.204 0.021
1.362 0.217 0.022
1.361 0.229 0.023
1.365 0.243 0.021
1.356 0.254 0.025
1.373 0.271 0.017
1.372 0.284 0.017
1.374 0.297 0.017
1.367 0.309 0.02
1.371 0.323 0.018
1.36 0.334 0.023
1.368 0.349 0.019
1.367 0.362 0.02
1.369 0.377 0.019
1.373 0.391 0.017
1.368 0.404 0.019
1.368 0.417 0.019
1.379 0.435 0.015
1.369 0.445 0.019
1.369 0.459 0.019
1.371 0.474 0.018
1.37 0.487 0.019
1.369 0.501 0.019
1.369 0.516 0.019
1.363 0.528 0.021
1.374 0.546 0.017
1.366 0.558 0.02
1.371 0.574 0.018
1.379 0.593 0.015
1.382 0.609 0.013
1.373 0.62 0.017
1.378 0.638 0.015
1.372 0.65 0.018
1.378 0.668 0.015
1.37 0.68 0.018
1.376 0.698 0.016
1.376 0.714 0.016
1.381 0.733 0.014
1.381 0.749 0.014
1.376 0.762 0.016
1.375 0.778 0.016
1.385 0.8 0.012
1.373 0.81 0.017
1.382 0.832 0.013
1.381 0.848 0.014
1.383 0.867 0.013
1.383 0.884 0.013
1.388 0.905 0.011
1.375 0.914 0.016
1.383 0.938 0.013
1.381 0.954 0.014
1.386 0.976 0.012
1.379 0.99 0.014
1.385 1.013 0.012
1.384 1.031 0.012
1.384 1.05 0.013
1.378 1.065 0.015
1.383 1.089 0.013
1.381 1.107 0.014
1.385 1.131 0.012
1.38 1.147 0.014
1.39 1.177 0.01
1.38 1.189 0.014
1.385 1.214 0.012
1.381 1.233 0.014
1.388 1.261 0.011
1.379 1.275 0.014
1.387 1.305 0.011
1.382 1.324 0.013
1.377 1.342 0.015
1.381 1.37 0.014
1.388 1.401 0.011
1.387 1.425 0.011
1.388 1.452 0.01
1.382 1.47 0.013
1.385 1.499 0.012
1.382 1.522 0.013
1.389 1.557 0.01
1.37 1.562 0.019
1.362 1.581 0.022
1.375 1.625 0.016
1.355 1.628 0.025
1.324 1.618 0.039
1.284 1.596 0.056
1.255 1.586 0.069
1.239 1.594 0.076
1.237 1.62 0.077
1.223 1.629 0.084
1.202 1.63 0.092
0 0 0
1.198 1.684 0.095
1.194 1.71 0.096
1.188 1.731 0.099
1.174 1.742 0.105
1.162 1.757 0.11
1.165 1.795 0.109
1.159 1.818 0.112
1.144 1.828 0.118
1.129 1.838 0.125
1.112 1.844 0.132
1.106 1.871 0.135
1.098 1.892 0.139
1.096 1.926 0.14
1.097 1.967 0.139
1.067 1.951 0.152
1.035 1.928 0.166
1.004 1.908 0.18
1.033 2.006 0.167
1.047 2.076 0.161
1.037 2.1 0.166
1.017 2.104 0.174
1.021 2.158 0.172
1.011 2.184 0.177
0.986 2.174 0.188
0.952 2.145 0.203
0.923 2.126 0.216
0.895 2.106 0.228
0.855 2.058 0.245
0.813 1.997 0.264
0.78 1.962 0.279
0.759 1.953 0.288
0.71 1.868 0.31
0.591 1.578 0.362
0.383 1.012 0.454
0.385 1.047 0.453
0.377 1.05 0.457
0.363 1.035 0.463
0.351 1.025 0.468
0.339 1.018 0.473
0.328 1.011 0.478
0.318 1.005 0.483
0.305 0.989 0.488
0.292 0.973 0.494
0.285 0.979 0.497
0.276 0.975 0.501
0.264 0.959 0.507
0.256 0.959 0.51
0.246 0.951 0.515
0.236 0.943 0.519
0.228 0.944 0.522
0.219 0.936 0.526
0.21 0.928 0.53
0.2 0.92 0.535
0.192 0.912 0.538
0.184 0.914 0.542
0.174 0.898 0.546
0.167 0.9 0.549
0.159 0.896 0.553
0.151 0.888 0.556
0.145 0.897 0.559
0.137 0.888 0.563
0.127 0.863 0.567
0.117 0.837 0.571
0.11 0.832 0.574
0.104 0.838 0.577
0.097 0.841 0.58
0.092 0.855 0.583
0.085 0.852 0.586
0.081 0.923 0.587
0.078 1.024 0.589
0.072 1.114 0.591
0.063 1.092 0.595
0.053 1.025 0.599
0.045 1.002 0.603
0.037 0.142 0.607
0.037 -0.1 0.607
0.047 -1.228 0.603
0.056 -1.207 0.598
0.062 -1.059 0.596
0.066 -0.916 0.594
0.074 -0.925 0.591
0.082 -0.934 0.587
0.089 -0.936 0.584
0.097 -0.944 0.581
0 0 0
0.149 -1.393 0.558
0.161 -1.405 0.553
0.174 -1.424 0.547
0.187 -1.434 0.542
0.201 -1.456 0.536
0.214 -1.471 0.53
0.23 -1.502 0.523
0.244 -1.511 0.517
0.255 -1.501 0.512
0.263 -1.472 0.509
0.26 -1.38 0.51
0.245 -1.226 0.516
0.242 -1.149 0.518
0.239 -1.084 0.519
0.238 -1.03 0.519
0.241 -1.006 0.518
0.249 -1.004 0.514
0.24 -0.922 0.519
0.249 -0.93 0.514
0.468 -1.82 0.419
0.493 -1.857 0.408
0.517 -1.889 0.398
0.542 -1.922 0.387
0.55 -1.888 0.384
0.518 -1.717 0.397
0.509 -1.635 0.401
0.509 -1.585 0.401
0.512 -1.549 0.4
0.514 -1.511 0.399
0.51 -1.456 0.401
0.5 -1.387 0.405
0.513 -1.39 0.399
0.524 -1.384 0.395
0.518 -1.332 0.397
0.501 -1.253 0.405
0.497 -1.212 0.406
0.498 -1.184 0.406
0.496 -1.153 0.407
0.5 -1.134 0.405
0.505 -1.12 0.403
0.525 -1.143 0.394
0.536 -1.142 0.389
0.542 -1.131 0.387
0.537 -1.095 0.389
0.548 -1.095 0.384
0.563 -1.102 0.378
0.593 -1.14 0.365
0.622 -1.175 0.352
0.646 -1.198 0.342
0.674 -1.228 0.33
0.688 -1.231 0.323
0.694 -1.217 0.321
0 0 0
0.436 -0.711 0.433
0.424 -0.676 0.438
0.423 -0.661 0.439
0.43 -0.66 0.436
0.454 -0.687 0.425
0 0 0
0.969 -1.479 0.201
0.979 -1.468 0.197
0.991 -1.46 0.191
1.012 -1.464 0.182
1.155 -1.648 0.12
1.292 -1.817 0.06
1.309 -1.808 0.053
1.346 -1.828 0.037
1.315 -1.752 0.05
1.31 -1.715 0.052
1.309 -1.684 0.053
1.307 -1.651 0.054
1.306 -1.621 0.054
1.308 -1.595 0.053
1.323 -1.586 0.047
1.353 -1.595 0.034
1.344 -1.556 0.038
1.371 -1.561 0.026
1.378 -1.541 0.023
1.376 -1.512 0.024
1.379 -1.49 0.022
1.375 -1.459 0.024
1.379 -1.438 0.023
1.374 -1.408 0.025
1.379 -1.389 0.023
1.379 -1.365 0.022
1.375 -1.338 0.024
1.378 -1.318 0.023
1.379 -1.295 0.022
1.38 -1.273 0.022
1.38 -1.251 0.022
1.379 -1.228 0.022
1.382 -1.209 0.021
1.376 -1.183 0.024
1.384 -1.169 0.02
1.382 -1.146 0.021
1.382 -1.126 0.021
1.372 -1.097 0.026
1.38 -1.084 0.022
1.385 -1.068 0.02
1.382 -1.046 0.021
1.382 -1.027 0.021
1.382 -1.008 0.021
1.381 -0.989 0.022
1.378 -0.968 0.023
1.377 -0.949 0.023
1.376 -0.931 0.024
1.373 -0.911 0.025
1.383 -0.9 0.021
1.372 -0.875 0.025
1.381 -0.864 0.021
1.383 -0.848 0.021
1.384 -0.831 0.02
1.382 -0.813 0.021
1.385 -0.798 0.02
1.381 -0.779 0.022
1.38 -0.763 0.022
1.381 -0.747 0.021
1.385 -0.733 0.02
1.385 -0.717 0.02
1.378 -0.698 0.023
1.38 -0.683 0.022
1.385 -0.67 0.02
1.385 -0.655 0.02
1.385 -0.639 0.02
1.383 -0.623 0.021
1.393 -0.613 0.016
1.385 -0.594 0.02
1.391 -0.582 0.017
1.386 -0.565 0.02
1.387 -0.551 0.019
1.383 -0.535 0.021
1.381 -0.519 0.022
1.381 -0.505 0.022
1.384 -0.492 0.02
1.378 -0.475 0.023
1.383 -0.463 0.021
1.378 -0.447 0.023
1.386 -0.436 0.019
1.381 -0.42 0.022
1.382 -0.407 0.021
1.377 -0.392 0.023
1.379 -0.379 0.022
1.373 -0.363 0.025
1.381 -0.352 0.021
1.377 -0.337 0.023
1.379 -0.325 0.022
1.373 -0.31 0.025
1.378 -0.298 0.023
1.377 -0.284 0.023
1.38 -0.272 0.022
1.388 -0.26 0.018
1.383 -0.246 0.021
1.377 -0.232 0.023
1.381 -0.219 0.022
1.383 -0.206 0.021
1.388 -0.194 0.019
1.384 -0.18 0.02
1.387 -0.168 0.019
1.386 -0.155 0.019
1.382 -0.141 0.021
1.379 -0.128 0.022
1.386 -0.116 0.019
1.384 -0.103 0.02
1.388 -0.09 0.019
1.379 -0.077 0.022
1.385 -0.064 0.02
1.372 -0.051 0.026
1.379 -0.038 0.023
1.38 -0.026 0.022
1.391 -0.013 0.017
1.394 -0 0.016
1.388 0.013 0.018
1.385 0.026 0.02
1.388 0.039 0.019
1.381 0.051 0.022
1.385 0.064 0.02
1.377 0.077 0.023
1.372 0.089 0.026
1.381 0.103 0.021
1.381 0.115 0.021
1.38 0.128 0.022
1.386 0.142 0.02
1.381 0.154 0.022
1.372 0.166 0.025
1.372 0.179 0.026
1.381 0.193 0.021
1.373 0.205 0.025
1.373 0.218 0.025
1.383 0.233 0.021
1.384 0.246 0.02
1.381 0.259 0.021
1.383 0.272 0.021
1.389 0.287 0.018
1.377 0.297 0.023
1.384 0.312 0.02
1.386 0.326 0.02
1.38 0.338 0.022
1.391 0.355 0.017
1.387 0.367 0.019
1.383 0.38 0.021
1.377 0.392 0.023
1.391 0.41 0.017
1.381 0.42 0.022
1.384 0.435 0.02
1.378 0.447 0.023
1.389 0.465 0.018
1.388 0.479 0.018
1.387 0.493 0.019
1.381 0.505 0.022
1.386 0.521 0.019
1.385 0.535 0.02
1.383 0.549 0.021
1.388 0.566 0.018
1.387 0.58 0.019
1.397 0.599 0.015
1.392 0.612 0.017
1.386 0.625 0.019
1.392 0.643 0.017
1.386 0.655 0.019
1.387 0.671 0.019
1.388 0.687 0.019
1.393 0.706 0.016
1.386 0.718 0.02
1.394 0.738 0.016
1.392 0.753 0.017
1.397 0.773 0.014
1.397 0.789 0.015
1.396 0.805 0.015
1.398 0.823 0.014
1.391 0.836 0.017
1.393 0.854 0.016
1.397 0.874 0.015
1.388 0.885 0.019
1.392 0.906 0.017
1.392 0.924 0.017
1.403 0.949 0.012
1.389 0.957 0.018
1.395 0.98 0.016
1.396 1 0.015
1.402 1.023 0.012
1.395 1.037 0.016
1.393 1.055 0.016
1.389 1.072 0.018
1.399 1.099 0.014
1.398 1.119 0.014
1.396 1.138 0.015
1.4 1.162 0.013
1.4 1.183 0.013
1.397 1.201 0.015
1.398 1.224 0.014
1.394 1.242 0.016
1.399 1.269 0.014
1.394 1.287 0.016
1.396 1.312 0.015
1.387 1.326 0.019
1.387 1.35 0.019
1.387 1.374 0.019
1.407 1.418 0.01
1.401 1.437 0.013
1.409 1.471 0.009
1.405 1.492 0.011
1.399 1.511 0.014
1.399 1.538 0.014
1.401 1.568 0.013
1.393 1.586 0.016
1.349 1.562 0.035
1.375 1.621 0.024
1.371 1.645 0.026
1.325 1.617 0.046
1.284 1.593 0.064
1.256 1.585 0.076
1.241 1.593 0.083
1.234 1.613 0.086
1.222 1.625 0.091
1.205 1.63 0.098
1.146 1.577 0.124
1.198 1.681 0.101
1.196 1.708 0.102
1.183 1.721 0.108
1.175 1.74 0.111
1.166 1.76 0.115
1.165 1.79 0.116
1.161 1.817 0.118
1.146 1.827 0.124
1.129 1.835 0.131
1.111 1.839 0.139
1.107 1.868 0.141
1.101 1.895 0.143
1.107 1.943 0.141
1.105 1.978 0.142
1.072 1.956 0.156
1.027 1.909 0.176
1.003 1.901 0.186
1.039 2.012 0.171
1.049 2.077 0.166
1.038 2.099 0.171
1.025 2.115 0.177
1.024 2.16 0.177
1.009 2.175 0.183
0.987 2.173 0.193
0.954 2.145 0.208
0.925 2.126 0.22
0.896 2.106 0.233
0.853 2.047 0.252
0.813 1.996 0.269
0.781 1.96 0.283
0.757 1.943 0.293
0.717 1.882 0.311
0.597 1.592 0.363
0.38 1.001 0.457
0.387 1.049 0.455
0.377 1.049 0.459
0.364 1.036 0.464
0.351 1.023 0.47
0.34 1.019 0.475
0.329 1.01 0.48
0.318 1.003 0.484
0.305 0.987 0.49
0.292 0.971 0.496
0.286 0.978 0.499
0.276 0.974 0.503
0.266 0.967 0.507
0.256 0.959 0.511
0.246 0.95 0.516
0.236 0.943 0.52
0.228 0.942 0.523
0.219 0.937 0.527
0.21 0.927 0.532
0.201 0.921 0.535
0.192 0.911 0.539
0.183 0.904 0.543
0.175 0.898 0.547
0.167 0.899 0.55
0.159 0.893 0.554
0.151 0.885 0.557
0.145 0.899 0.56
0.136 0.884 0.564
0.127 0.863 0.568
0.118 0.838 0.572
0.111 0.841 0.575
0.104 0.837 0.578
0.098 0.849 0.58
0.092 0.854 0.583
0.085 0.859 0.586
0.082 0.931 0.587
0.079 1.049 0.589
0.071 1.081 0.592
0.063 1.089 0.595
0.053 1.028 0.6
0.045 1.002 0.603
0.037 0.179 0.607
0.037 -0.101 0.607
0.047 -1.239 0.603
0.056 -1.202 0.599
0.062 -1.049 0.596
0.066 -0.917 0.594
0.074 -0.937 0.591
0.082 -0.934 0.588
0.089 -0.937 0.584
0.096 -0.926 0.582
0.129 -1.278 0.567
0.149 -1.393 0.559
0.161 -1.405 0.554
0.174 -1.424 0.548
0.188 -1.444 0.542
0.201 -1.453 0.537
0.216 -1.482 0.53
0.231 -1.501 0.524
0.244 -1.512 0.518
0.256 -1.506 0.513
0.265 -1.487 0.509
0.263 -1.399 0.51
0.259 -1.307 0.511
0.245 -1.165 0.518
0.242 -1.096 0.519
0.241 -1.048 0.519
0.244 -1.015 0.518
0.241 -0.961 0.52
0.239 -0.918 0.52
0.249 -0.925 0.516
0.465 -1.802 0.423
0.492 -1.849 0.412
0.516 -1.881 0.401
0.542 -1.916 0.39
0.552 -1.893 0.386
0.525 -1.738 0.397
0.517 -1.657 0.401
0.514 -1.599 0.402
0.517 -1.561 0.401
0.517 -1.519 0.401
0.513 -1.464 0.402
0 0 0
0.518 -1.4 0.4
0.529 -1.397 0.395
0.526 -1.352 0.397
0.511 -1.277 0.403
0.509 -1.242 0.404
0.5 -1.188 0.408
0.503 -1.167 0.407
0.504 -1.141 0.407
0.511 -1.133 0.403
0.517 -1.122 0.401
0.538 -1.143 0.392
0.544 -1.132 0.389
0.536 -1.09 0.393
0.548 -1.092 0.387
0.567 -1.108 0.379
0.593 -1.139 0.368
0.621 -1.171 0.356
0.645 -1.194 0.346
0.674 -1.226 0.333
0.688 -1.227 0.327
0.701 -1.228 0.322
0 0 0
0.432 -0.702 0.437
0.421 -0.669 0.442
0.423 -0.66 0.441
0.434 -0.665 0.437
0 0 0
0 0 0
0.955 -1.454 0.213
0.981 -1.467 0.202
0.992 -1.457 0.197
1.008 -1.455 0.19
1.176 -1.675 0.118
1.312 -1.842 0.059
1.319 -1.818 0.056
1.358 -1.84 0.04
1.314 -1.748 0.058
1.315 -1.717 0.058
1.315 -1.688 0.058
1.314 -1.657 0.058
1.314 -1.628 0.058
1.307 -1.59 0.061
1.334 -1.596 0.05
1.357 -1.596 0.04
1.381 -1.597 0.029
1.383 -1.572 0.029
1.386 -1.547 0.027
1.389 -1.524 0.026
1.392 -1.501 0.025
1.389 -1.471 0.026
1.391 -1.448 0.025
1.387 -1.419 0.027
1.39 -1.397 0.026
1.393 -1.377 0.024
1.394 -1.353 0.024
1.389 -1.325 0.026
1.394 -1.307 0.024
1.387 -1.277 0.027
1.392 -1.26 0.025
1.385 -1.232 0.028
1.388 -1.212 0.027
1.391 -1.193 0.025
1.393 -1.174 0.024
1.396 -1.156 0.023
1.398 -1.137 0.022
1.395 -1.114 0.024
1.396 -1.094 0.023
1.394 -1.073 0.024
1.397 -1.056 0.022
1.396 -1.036 0.023
1.403 -1.022 0.02
1.393 -0.996 0.024
1.391 -0.976 0.025
1.387 -0.954 0.027
1.398 -0.944 0.022
1.388 -0.919 0.027
1.397 -0.907 0.023
1.387 -0.883 0.027
1.395 -0.871 0.023
1.394 -0.853 0.024
1.395 -0.837 0.023
1.393 -0.818 0.024
1.399 -0.805 0.022
1.398 -0.788 0.022
1.399 -0.772 0.022
1.397 -0.755 0.022
1.392 -0.735 0.025
1.391 -0.719 0.025
1.399 -0.707 0.022
1.397 -0.69 0.023
1.403 -0.678 0.02
1.391 -0.656 0.025
1.398 -0.644 0.022
1.402 -0.631 0.021
1.399 -0.614 0.022
1.397 -0.598 0.023
1.405 -0.586 0.019
1.401 -0.57 0.021
1.4 -0.555 0.021
1.397 -0.539 0.023
1.405 -0.527 0.019
1.393 -0.508 0.024
1.395 -0.495 0.023
1.394 -0.48 0.024
1.398 -0.467 0.022
1.397 -0.453 0.023
1.397 -0.439 0.023
1.391 -0.423 0.025
1.399 -0.411 0.022
1.385 -0.393 0.028
1.396 -0.383 0.023
1.389 -0.367 0.026
1.397 -0.355 0.023
1.389 -0.34 0.026
1.396 -0.328 0.023
1.394 -0.314 0.024
1.395 -0.301 0.023
1.391 -0.287 0.025
1.395 -0.274 0.023
1.395 -0.261 0.024
1.395 -0.247 0.023
1.392 -0.234 0.025
1.4 -0.222 0.021
1.392 -0.207 0.025
1.405 -0.196 0.019
1.393 -0.181 0.024
1.399 -0.169 0.022
1.399 -0.156 0.022
1.4 -0.143 0.021
1.398 -0.13 0.022
1.401 -0.117 0.021
1.394 -0.103 0.024
1.402 -0.091 0.02
1.386 -0.077 0.028
1.382 -0.064 0.029
1.388 -0.051 0.026
1.39 -0.039 0.026
1.394 -0.026 0.024
1.408 -0.013 0.018
1.402 -0 0.02
1.398 0.013 0.022
1.402 0.026 0.021
1.394 0.039 0.024
1.387 0.051 0.027
1.394 0.065 0.024
1.387 0.077 0.027
1.391 0.09 0.025
1.391 0.103 0.025
1.393 0.116 0.024
1.39 0.129 0.026
1.396 0.142 0.023
1.392 0.155 0.025
1.392 0.168 0.025
1.388 0.181 0.026
1.386 0.193 0.027
1.376 0.205 0.032
1.397 0.221 0.023
1.393 0.234 0.025
1.398 0.248 0.022
1.394 0.26 0.024
1.395 0.274 0.023
1.398 0.288 0.022
1.397 0.301 0.023
1.393 0.314 0.024
1.402 0.329 0.02
1.397 0.342 0.023
1.404 0.357 0.02
1.395 0.369 0.023
1.402 0.384 0.02
1.395 0.396 0.024
1.398 0.411 0.022
1.391 0.423 0.025
1.403 0.441 0.02
1.393 0.451 0.024
1.405 0.469 0.019
1.399 0.482 0.022
1.403 0.498 0.02
1.393 0.508 0.024
1.406 0.528 0.019
1.4 0.54 0.021
1.402 0.555 0.021
1.395 0.568 0.023
1.4 0.585 0.021
1.404 0.601 0.02
1.403 0.616 0.02
1.396 0.628 0.023
1.401 0.646 0.021
1.398 0.66 0.022
1.402 0.677 0.02
1.397 0.691 0.022
1.406 0.711 0.019
1.399 0.723 0.022
1.413 0.747 0.016
1.41 0.762 0.017
1.408 0.777 0.018
1.409 0.794 0.017
1.413 0.814 0.016
1.402 0.824 0.02
1.416 0.849 0.014
1.397 0.855 0.022
1.405 0.877 0.019
1.398 0.891 0.022
1.411 0.916 0.017
1.406 0.931 0.019
1.406 0.949 0.019
1.404 0.966 0.02
1.414 0.992 0.016
1.406 1.005 0.019
1.413 1.029 0.016
1.408 1.045 0.018
1.412 1.067 0.016
1.411 1.087 0.017
1.415 1.11 0.015
1.415 1.13 0.015
1.421 1.156 0.012
1.412 1.169 0.016
1.417 1.195 0.014
1.407 1.208 0.018
1.414 1.235 0.016
1.416 1.26 0.014
1.413 1.279 0.016
1.409 1.298 0.017
1.41 1.323 0.017
1.402 1.338 0.02
1.411 1.371 0.017
1.402 1.385 0.021
1.42 1.429 0.013
1.419 1.453 0.013
1.42 1.479 0.013
1.415 1.5 0.015
1.417 1.528 0.014
1.411 1.549 0.017
1.417 1.583 0.014
1.415 1.609 0.015
1.383 1.599 0.029
1.381 1.625 0.03
1.387 1.66 0.027
1.326 1.614 0.053
1.286 1.592 0.07
1.262 1.589 0.081
1.243 1.593 0.089
1.236 1.612 0.092
1.226 1.627 0.096
1.2 1.621 0.107
1.162 1.596 0.124
1.207 1.691 0.104
1.198 1.708 0.108
1.183 1.718 0.114
1.177 1.74 0.117
1.163 1.751 0.123
1.168 1.791 0.121
1.159 1.811 0.125
1.147 1.825 0.13
1.131 1.833 0.137
1.116 1.844 0.143
1.105 1.861 0.148
1.115 1.914 0.144
1.116 1.955 0.143
1.108 1.98 0.147
1.077 1.961 0.16
1.025 1.901 0.183
1 1.891 0.193
1.046 2.024 0.173
1.05 2.075 0.172
1.041 2.1 0.176
1.03 2.121 0.181
1.022 2.151 0.184
1.011 2.173 0.189
0.989 2.173 0.198
0.959 2.153 0.211
0.927 2.126 0.225
0.897 2.104 0.237
0.851 2.038 0.257
0.81 1.983 0.275
0.783 1.96 0.287
0.761 1.951 0.296
0.716 1.877 0.315
0.602 1.604 0.364
0.387 1.019 0.457
0.388 1.051 0.456
0.378 1.049 0.46
0.365 1.036 0.466
0.351 1.023 0.472
0.34 1.017 0.477
0.329 1.009 0.481
0.318 1.002 0.486
0.305 0.986 0.492
0.293 0.971 0.497
0.286 0.98 0.5
0.277 0.975 0.504
0.265 0.959 0.509
0.256 0.958 0.513
0.246 0.95 0.517
0.238 0.951 0.52
0.228 0.941 0.525
0.219 0.934 0.529
0.21 0.927 0.533
0.201 0.92 0.536
0.192 0.911 0.54
0.183 0.904 0.544
0.175 0.897 0.548
0.167 0.898 0.551
0.159 0.891 0.554
0.152 0.894 0.557
0.146 0.902 0.56
0.136 0.883 0.564
0.126 0.855 0.569
0.118 0.836 0.572
0.111 0.841 0.575
0.104 0.836 0.578
0.098 0.849 0.581
0.092 0.853 0.584
0.085 0.861 0.586
0.083 0.959 0.587
0.079 1.064 0.589
0.072 1.111 0.592
0.063 1.083 0.596
0.053 1.023 0.6
0.045 1 0.604
0.037 0.155 0.607
0.037 -0.094 0.607
0.047 -1.239 0.603
0.056 -1.193 0.599
0.062 -1.039 0.597
0.066 -0.914 0.595
0.074 -0.934 0.592
0.082 -0.932 0.588
0.09 -0.942 0.585
0.097 -0.943 0.582
0.13 -1.284 0.568
0.148 -1.386 0.56
0.162 -1.406 0.555
0.175 -1.423 0.549
0.188 -1.444 0.544
0.201 -1.453 0.538
0.217 -1.483 0.532
0.231 -1.503 0.525
0.245 -1.515 0.519
0.257 -1.512 0.514
0.269 -1.509 0.509
0.267 -1.416 0.51
0.265 -1.338 0.511
0.247 -1.173 0.519
0.247 -1.123 0.519
0.243 -1.051 0.521
0.245 -1.02 0.52
0.244 -0.975 0.52
0.24 -0.919 0.522
0.25 -0.927 0.518
0.466 -1.8 0.427
0.495 -1.855 0.415
0.518 -1.883 0.405
0.546 -1.927 0.393
0.557 -1.905 0.388
0.536 -1.771 0.397
0.526 -1.682 0.402
0.521 -1.619 0.403
0.52 -1.568 0.404
0.522 -1.53 0.403
0.515 -1.466 0.406
0 0 0
0.523 -1.411 0.403
0.532 -1.4 0.399
0.535 -1.371 0.398
0.527 -1.316 0.401
0.517 -1.258 0.405
0.511 -1.213 0.408
0.51 -1.18 0.408
0.514 -1.164 0.406
0.511 -1.128 0.408
0.516 -1.116 0.406
0.534 -1.13 0.398
0.532 -1.102 0.399
0.54 -1.095 0.396
0.548 -1.09 0.392
0.572 -1.116 0.382
0.595 -1.14 0.372
0.623 -1.172 0.36
0.653 -1.207 0.348
0.679 -1.232 0.337
0.684 -1.217 0.335
0.713 -1.246 0.323
0 0 0
0.431 -0.698 0.441
0.423 -0.67 0.445
0.425 -0.661 0.444
0.431 -0.659 0.441
0 0 0
0 0 0
0.965 -1.466 0.216
0.986 -1.47 0.208
0.997 -1.461 0.203
1.019 -1.467 0.194
1.22 -1.735 0.109
1.334 -1.868 0.061
1.349 -1.856 0.055
1.365 -1.844 0.048
1.334 -1.769 0.061
1.327 -1.729 0.064
1.336 -1.711 0.06
1.334 -1.677 0.061
1.301 -1.606 0.075
1.3 -1.577 0.076
1.339 -1.598 0.059
1.375 -1.613 0.044
1.399 -1.612 0.034
1.394 -1.58 0.036
1.406 -1.565 0.031
1.398 -1.529 0.034
1.403 -1.509 0.032
1.406 -1.486 0.031
1.407 -1.461 0.031
1.405 -1.434 0.031
1.407 -1.411 0.03
1.405 -1.384 0.031
1.413 -1.369 0.028
1.402 -1.334 0.033
1.408 -1.317 0.03
1.401 -1.287 0.033
1.408 -1.271 0.03
1.406 -1.247 0.031
1.407 -1.226 0.03
1.409 -1.206 0.03
1.41 -1.185 0.029
1.408 -1.162 0.03
1.408 -1.142 0.03
1.407 -1.12 0.031
1.416 -1.107 0.027
1.414 -1.086 0.028
1.413 -1.065 0.028
1.411 -1.044 0.029
1.412 -1.026 0.028
1.408 -1.003 0.03
1.414 -0.989 0.028
1.408 -0.966 0.03
1.403 -0.944 0.032
1.409 -0.931 0.03
1.414 -0.915 0.028
1.401 -0.889 0.033
1.411 -0.879 0.029
1.41 -0.86 0.029
1.411 -0.844 0.029
1.414 -0.828 0.028
1.418 -0.814 0.026
1.41 -0.792 0.029
1.411 -0.776 0.029
1.41 -0.759 0.029
1.41 -0.743 0.029
1.409 -0.726 0.03
1.414 -0.712 0.028
1.411 -0.695 0.029
1.415 -0.681 0.027
1.409 -0.663 0.03
1.421 -0.653 0.025
1.409 -0.632 0.03
1.414 -0.619 0.027
1.41 -0.602 0.029
1.412 -0.588 0.028
1.415 -0.574 0.027
1.423 -0.562 0.024
1.417 -0.545 0.026
1.419 -0.531 0.026
1.415 -0.515 0.027
1.419 -0.502 0.026
1.41 -0.484 0.029
1.415 -0.472 0.027
1.409 -0.455 0.03
1.413 -0.442 0.028
1.408 -0.427 0.03
1.405 -0.412 0.031
1.41 -0.399 0.029
1.413 -0.386 0.028
1.409 -0.371 0.03
1.411 -0.358 0.029
1.399 -0.341 0.034
1.404 -0.329 0.032
1.414 -0.318 0.027
1.416 -0.304 0.027
1.413 -0.29 0.028
1.41 -0.276 0.029
1.409 -0.263 0.03
1.415 -0.25 0.027
1.407 -0.235 0.031
1.419 -0.224 0.026
1.417 -0.21 0.026
1.418 -0.197 0.026
1.42 -0.184 0.025
1.421 -0.171 0.025
1.411 -0.157 0.029
1.415 -0.144 0.027
1.413 -0.131 0.028
1.414 -0.118 0.028
1.417 -0.105 0.026
1.414 -0.091 0.028
1.407 -0.078 0.03
1.417 -0.065 0.026
1.403 -0.052 0.032
1.409 -0.039 0.03
1.413 -0.026 0.028
1.418 -0.013 0.026
1.409 -0 0.03
1.414 0.013 0.028
1.419 0.026 0.025
1.411 0.039 0.029
1.406 0.052 0.031
1.411 0.065 0.029
1.407 0.078 0.03
1.413 0.091 0.028
1.409 0.104 0.03
1.404 0.117 0.032
1.407 0.13 0.031
1.405 0.143 0.032
1.403 0.156 0.032
1.406 0.169 0.031
1.408 0.183 0.03
1.395 0.194 0.036
1.406 0.209 0.031
1.408 0.222 0.03
1.413 0.237 0.028
1.411 0.25 0.029
1.407 0.262 0.03
1.413 0.277 0.028
1.414 0.29 0.028
1.411 0.303 0.029
1.421 0.319 0.025
1.422 0.333 0.024
1.412 0.344 0.029
1.419 0.36 0.026
1.413 0.372 0.028
1.418 0.388 0.026
1.417 0.401 0.026
1.405 0.412 0.031
1.412 0.428 0.029
1.417 0.444 0.026
1.415 0.457 0.027
1.412 0.47 0.029
1.414 0.485 0.028
1.419 0.502 0.026
1.414 0.514 0.028
1.43 0.535 0.021
1.423 0.548 0.024
1.427 0.564 0.022
1.415 0.574 0.027
1.417 0.59 0.026
1.416 0.605 0.027
1.418 0.621 0.026
1.412 0.633 0.028
1.42 0.652 0.025
1.418 0.667 0.026
1.419 0.683 0.026
1.413 0.696 0.028
1.425 0.719 0.023
1.418 0.731 0.026
1.428 0.753 0.022
1.429 0.77 0.021
1.425 0.784 0.023
1.424 0.8 0.023
1.427 0.819 0.022
1.423 0.834 0.024
1.425 0.852 0.023
1.423 0.869 0.024
1.432 0.892 0.02
1.417 0.9 0.026
1.427 0.924 0.022
1.421 0.938 0.025
1.434 0.966 0.019
1.427 0.979 0.022
1.425 0.997 0.023
1.429 1.019 0.021
1.423 1.034 0.024
1.422 1.053 0.024
1.431 1.079 0.021
1.425 1.094 0.023
1.431 1.119 0.02
1.429 1.139 0.021
1.432 1.162 0.02
1.429 1.18 0.021
1.438 1.209 0.018
1.429 1.223 0.021
1.433 1.249 0.02
1.426 1.264 0.023
1.435 1.296 0.019
1.428 1.312 0.022
1.426 1.334 0.022
1.423 1.354 0.024
1.428 1.384 0.022
1.422 1.402 0.024
1.437 1.442 0.018
1.437 1.467 0.018
1.44 1.496 0.017
1.431 1.513 0.021
1.425 1.533 0.023
1.429 1.564 0.021
1.436 1.599 0.018
1.433 1.625 0.019
1.417 1.635 0.026
1.395 1.637 0.035
1.395 1.666 0.036
1.33 1.614 0.063
1.296 1.6 0.077
1.263 1.586 0.091
1.246 1.592 0.098
1.234 1.604 0.103
1.231 1.629 0.105
1.21 1.629 0.114
1.199 1.643 0.118
1.174 1.637 0.129
1.198 1.703 0.119
1.186 1.716 0.124
1.174 1.73 0.129
1.168 1.752 0.131
1.167 1.785 0.131
1.164 1.813 0.133
1.152 1.828 0.138
1.139 1.841 0.144
1.118 1.842 0.152
1.104 1.853 0.158
1.127 1.93 0.149
1.121 1.958 0.151
1.117 1.99 0.152
1.078 1.957 0.169
1.02 1.886 0.193
1.005 1.894 0.2
1.051 2.027 0.18
1.054 2.075 0.179
1.039 2.09 0.185
1.035 2.126 0.187
1.027 2.155 0.19
1.013 2.172 0.196
0.993 2.175 0.205
0.962 2.153 0.218
0.933 2.135 0.23
0.897 2.096 0.245
0.849 2.026 0.266
0.812 1.982 0.281
0.789 1.97 0.291
0.763 1.951 0.302
0.727 1.9 0.317
0.614 1.632 0.364
0.391 1.028 0.458
0.39 1.054 0.458
0.378 1.046 0.464
0.366 1.038 0.469
0.353 1.024 0.474
0.341 1.017 0.479
0.33 1.008 0.484
0.319 1.003 0.488
0.306 0.987 0.494
0.293 0.971 0.499
0.287 0.978 0.502
0.277 0.975 0.506
0.268 0.969 0.51
0.257 0.959 0.515
0.247 0.949 0.519
0.237 0.94 0.523
0.229 0.942 0.526
0.22 0.934 0.53
0.21 0.926 0.534
0.202 0.921 0.538
0.192 0.911 0.542
0.185 0.915 0.545
0.175 0.899 0.549
0.168 0.897 0.552
0.159 0.89 0.556
0.153 0.899 0.558
0.146 0.902 0.561
0.137 0.883 0.565
0.127 0.855 0.57
0.118 0.837 0.573
0.11 0.831 0.576
0.104 0.835 0.579
0.098 0.847 0.581
0.092 0.854 0.584
0.086 0.867 0.587
0.083 0.962 0.588
0.08 1.071 0.589
0.071 1.053 0.593
0.062 1.067 0.596
0.053 1.027 0.6
0.045 0.991 0.604
0.037 0.158 0.607
0.037 -0.101 0.608
0.047 -1.238 0.603
0.056 -1.194 0.6
0.061 -1.025 0.597
0.066 -0.914 0.595
0.074 -0.929 0.592
0.082 -0.934 0.589
0.09 -0.941 0.586
0.098 -0.945 0.582
0.13 -1.283 0.569
0.149 -1.389 0.561
0.162 -1.407 0.556
0.175 -1.424 0.551
0.188 -1.441 0.545
0.203 -1.463 0.539
0.217 -1.483 0.533
0.232 -1.5 0.527
0.246 -1.516 0.521
0.26 -1.522 0.516
0.27 -1.51 0.511
0.272 -1.441 0.511
0.27 -1.361 0.511
0.251 -1.191 0.519
0.252 -1.143 0.519
0.247 -1.072 0.521
0.244 -1.012 0.522
0.247 -0.984 0.521
0.241 -0.919 0.524
0.248 -0.916 0.521
0.471 -1.818 0.428
0.497 -1.857 0.418
0.519 -1.882 0.409
0.546 -1.922 0.398
0.562 -1.917 0.391
0.549 -1.811 0.397
0.538 -1.721 0.401
0.534 -1.656 0.403
0.527 -1.584 0.406
0.528 -1.543 0.405
0.519 -1.472 0.409
0 0 0
0.526 -1.415 0.406
0.541 -1.42 0.4
0.542 -1.387 0.399
0.536 -1.338 0.402
0.529 -1.285 0.405
0.516 -1.221 0.41
0.512 -1.182 0.412
0.516 -1.164 0.41
0.516 -1.137 0.41
0.52 -1.122 0.408
0.526 -1.109 0.406
0.534 -1.102 0.403
0.544 -1.1 0.399
0.55 -1.09 0.396
0.574 -1.116 0.386
0.603 -1.152 0.374
0.627 -1.177 0.364
0.655 -1.207 0.353
0.68 -1.23 0.342
0.688 -1.221 0.339
0.725 -1.265 0.324
0 0 0
0.426 -0.687 0.447
0.421 -0.665 0.449
0.426 -0.661 0.447
0.433 -0.66 0.444
0 0 0
0 0 0
0.958 -1.45 0.228
0.987 -1.469 0.216
1.001 -1.463 0.21
1.044 -1.5 0.192
1.265 -1.795 0.101
1.392 -1.945 0.049
1.38 -1.893 0.054
1.367 -1.842 0.059
1.353 -1.79 0.065
1.352 -1.757 0.065
1.363 -1.741 0.061
1.353 -1.697 0.065
1.269 -1.561 0.099
1.344 -1.627 0.068
1.345 -1.6 0.068
1.411 -1.651 0.041
1.413 -1.624 0.04
1.416 -1.599 0.039
1.421 -1.578 0.037
1.414 -1.542 0.04
1.422 -1.525 0.036
1.425 -1.502 0.035
1.427 -1.478 0.034
1.426 -1.451 0.035
1.426 -1.426 0.035
1.424 -1.399 0.036
1.425 -1.376 0.035
1.426 -1.353 0.035
1.423 -1.327 0.036
1.423 -1.304 0.036
1.422 -1.279 0.037
1.42 -1.255 0.037
1.421 -1.235 0.037
1.425 -1.216 0.035
1.425 -1.195 0.035
1.422 -1.17 0.037
1.43 -1.156 0.033
1.426 -1.133 0.035
1.425 -1.111 0.035
1.428 -1.093 0.034
1.435 -1.079 0.031
1.427 -1.053 0.034
1.429 -1.035 0.033
1.423 -1.012 0.036
1.426 -0.995 0.035
1.428 -0.977 0.034
1.427 -0.958 0.034
1.426 -0.939 0.035
1.427 -0.922 0.034
1.419 -0.898 0.038
1.428 -0.886 0.034
1.425 -0.867 0.035
1.433 -0.854 0.032
1.429 -0.835 0.034
1.426 -0.816 0.035
1.43 -0.801 0.033
1.437 -0.788 0.031
1.429 -0.767 0.034
1.43 -0.751 0.033
1.423 -0.731 0.036
1.432 -0.72 0.032
1.432 -0.704 0.032
1.437 -0.69 0.03
1.434 -0.673 0.031
1.434 -0.657 0.032
1.426 -0.638 0.035
1.434 -0.626 0.032
1.431 -0.609 0.033
1.433 -0.595 0.032
1.435 -0.581 0.031
1.433 -0.565 0.032
1.432 -0.549 0.032
1.435 -0.535 0.031
1.436 -0.521 0.031
1.44 -0.508 0.029
1.427 -0.489 0.035
1.433 -0.476 0.032
1.426 -0.459 0.035
1.428 -0.446 0.034
1.422 -0.43 0.036
1.438 -0.42 0.03
1.429 -0.403 0.034
1.438 -0.392 0.03
1.421 -0.373 0.037
1.432 -0.362 0.032
1.427 -0.347 0.035
1.429 -0.334 0.033
1.421 -0.318 0.037
1.432 -0.307 0.032
1.431 -0.293 0.033
1.433 -0.28 0.032
1.424 -0.265 0.036
1.436 -0.253 0.031
1.432 -0.239 0.032
1.437 -0.226 0.03
1.432 -0.212 0.032
1.431 -0.199 0.033
1.433 -0.185 0.032
1.437 -0.173 0.03
1.433 -0.159 0.032
1.424 -0.145 0.035
1.428 -0.132 0.034
1.427 -0.118 0.034
1.428 -0.105 0.034
1.432 -0.092 0.032
1.418 -0.078 0.038
1.431 -0.066 0.033
1.414 -0.052 0.04
1.43 -0.039 0.033
1.428 -0.026 0.034
1.434 -0.013 0.032
1.426 -0 0.035
1.431 0.013 0.033
1.434 0.026 0.031
1.438 0.04 0.03
1.43 0.053 0.033
1.425 0.066 0.035
1.424 0.079 0.036
1.43 0.092 0.033
1.416 0.104 0.039
1.429 0.119 0.033
1.424 0.131 0.036
1.429 0.145 0.034
1.42 0.157 0.038
1.429 0.172 0.034
1.42 0.184 0.037
1.423 0.197 0.036
1.414 0.209 0.04
1.424 0.224 0.036
1.422 0.237 0.037
1.426 0.252 0.035
1.426 0.265 0.035
1.434 0.28 0.032
1.429 0.293 0.034
1.434 0.307 0.032
1.423 0.319 0.036
1.436 0.335 0.031
1.433 0.349 0.032
1.433 0.363 0.032
1.437 0.378 0.03
1.431 0.39 0.033
1.427 0.403 0.034
1.429 0.418 0.034
1.433 0.433 0.032
1.438 0.449 0.03
1.433 0.462 0.032
1.431 0.475 0.033
1.433 0.491 0.032
1.439 0.507 0.03
1.434 0.521 0.031
1.44 0.537 0.029
1.437 0.551 0.03
1.434 0.565 0.031
1.433 0.58 0.032
1.439 0.597 0.03
1.431 0.609 0.033
1.444 0.631 0.027
1.43 0.64 0.033
1.432 0.656 0.032
1.429 0.671 0.033
1.437 0.69 0.03
1.43 0.703 0.033
1.439 0.724 0.029
1.44 0.74 0.029
1.443 0.759 0.028
1.443 0.775 0.028
1.446 0.793 0.027
1.434 0.804 0.031
1.437 0.823 0.03
1.437 0.84 0.03
1.45 0.865 0.025
1.447 0.881 0.026
1.447 0.899 0.026
1.445 0.915 0.027
1.438 0.929 0.03
1.444 0.951 0.027
1.45 0.974 0.025
1.446 0.99 0.027
1.445 1.008 0.027
1.438 1.022 0.03
1.445 1.047 0.027
1.447 1.068 0.026
1.45 1.091 0.025
1.444 1.106 0.027
1.448 1.13 0.026
1.442 1.145 0.028
1.45 1.173 0.025
1.442 1.188 0.028
1.455 1.22 0.023
1.448 1.236 0.026
1.456 1.266 0.022
1.446 1.279 0.027
1.45 1.305 0.025
1.446 1.325 0.027
1.447 1.35 0.026
1.44 1.367 0.029
1.444 1.395 0.027
1.445 1.421 0.027
1.458 1.459 0.022
1.447 1.473 0.026
1.454 1.506 0.023
1.451 1.529 0.025
1.447 1.553 0.026
1.444 1.576 0.028
1.451 1.612 0.025
1.443 1.632 0.028
1.43 1.645 0.033
1.427 1.671 0.034
1.408 1.677 0.042
1.335 1.615 0.072
1.299 1.598 0.087
1.264 1.583 0.101
1.244 1.584 0.11
1.238 1.604 0.113
1.229 1.622 0.116
1.218 1.636 0.12
1.194 1.632 0.13
0 0 0
1.193 1.691 0.131
1.187 1.712 0.134
1.178 1.73 0.137
1.171 1.752 0.14
1.166 1.778 0.142
1.168 1.815 0.141
1.153 1.825 0.147
1.14 1.838 0.153
1.125 1.847 0.159
1.114 1.866 0.163
1.138 1.943 0.154
1.125 1.959 0.159
1.115 1.981 0.163
1.088 1.969 0.174
1.02 1.881 0.202
1.009 1.898 0.207
1.058 2.035 0.186
1.057 2.075 0.187
1.043 2.091 0.193
1.032 2.113 0.197
1.029 2.153 0.198
1.016 2.172 0.204
0.996 2.175 0.212
0.965 2.153 0.225
0.936 2.135 0.237
0.896 2.087 0.254
0.85 2.024 0.272
0.814 1.982 0.287
0.791 1.97 0.297
0.765 1.951 0.307
0.73 1.904 0.322
0.632 1.677 0.362
0.388 1.016 0.463
0.391 1.054 0.461
0.38 1.05 0.466
0.367 1.039 0.471
0.353 1.024 0.477
0.342 1.017 0.482
0.331 1.01 0.486
0.32 1.003 0.491
0.307 0.987 0.496
0.294 0.971 0.501
0.287 0.978 0.504
0.278 0.975 0.508
0.269 0.97 0.512
0.258 0.959 0.517
0.248 0.95 0.521
0.24 0.951 0.524
0.23 0.943 0.528
0.22 0.934 0.532
0.211 0.926 0.536
0.202 0.921 0.539
0.193 0.913 0.543
0.184 0.905 0.547
0.176 0.898 0.55
0.168 0.895 0.554
0.161 0.899 0.556
0.153 0.898 0.559
0.146 0.895 0.563
0.136 0.874 0.567
0.127 0.855 0.57
0.118 0.839 0.574
0.111 0.84 0.577
0.105 0.843 0.579
0.098 0.846 0.582
0.093 0.864 0.585
0.086 0.88 0.587
0.083 0.964 0.588
0.08 1.07 0.59
0.071 1.054 0.594
0.062 1.066 0.597
0.053 1.026 0.601
0.045 0.991 0.604
0.037 0.157 0.608
0.037 -0.101 0.608
0.047 -1.238 0.604
0.056 -1.188 0.6
0.061 -1.009 0.598
0.066 -0.913 0.596
0.074 -0.924 0.593
0.082 -0.932 0.589
0.089 -0.93 0.586
0.098 -0.947 0.583
0.129 -1.271 0.57
0.149 -1.391 0.562
0.162 -1.407 0.557
0.175 -1.425 0.551
0.189 -1.443 0.546
0.203 -1.463 0.54
0.218 -1.483 0.534
0.232 -1.5 0.528
0.248 -1.528 0.522
0.262 -1.535 0.516
0.273 -1.524 0.512
0.274 -1.452 0.511
0.274 -1.384 0.511
0.255 -1.214 0.519
0.256 -1.163 0.519
0.248 -1.072 0.522
0.248 -1.028 0.522
0.246 -0.977 0.523
0.243 -0.93 0.524
0.251 -0.927 0.521
0.473 -1.823 0.43
0.501 -1.87 0.419
0.522 -1.89 0.41
0.548 -1.923 0.4
0.572 -1.949 0.39
0.565 -1.867 0.393
0.55 -1.759 0.399
0.542 -1.681 0.402
0.533 -1.6 0.406
0.526 -1.535 0.409
0.521 -1.477 0.411
0 0 0
0.538 -1.448 0.404
0.549 -1.441 0.4
0.55 -1.407 0.399
0.547 -1.363 0.4
0.539 -1.309 0.404
0.523 -1.237 0.41
0.518 -1.194 0.412
0.52 -1.171 0.411
0.523 -1.152 0.41
0.523 -1.127 0.41
0.526 -1.107 0.409
0.53 -1.093 0.407
0.539 -1.088 0.403
0.549 -1.085 0.4
0.581 -1.128 0.387
0.605 -1.154 0.377
0.628 -1.177 0.367
0.656 -1.207 0.356
0.685 -1.238 0.344
0.691 -1.223 0.342
0 0 0
0 0 0
0.424 -0.683 0.45
0.422 -0.667 0.451
0.421 -0.652 0.451
0.435 -0.663 0.446
0 0 0
0 0 0
0.964 -1.456 0.231
0.989 -1.469 0.22
1.007 -1.469 0.213
1.092 -1.569 0.179
1.318 -1.869 0.087
1.416 -1.976 0.047
1.402 -1.922 0.052
1.382 -1.859 0.061
1.384 -1.829 0.06
1.375 -1.784 0.064
1.391 -1.774 0.057
1.379 -1.727 0.062
1.297 -1.593 0.095
1.38 -1.669 0.061
1.417 -1.684 0.047
1.423 -1.662 0.044
1.425 -1.636 0.043
1.433 -1.616 0.04
1.441 -1.597 0.037
1.428 -1.555 0.042
1.438 -1.539 0.038
1.433 -1.508 0.04
1.439 -1.487 0.038
1.438 -1.461 0.038
1.445 -1.443 0.035
1.434 -1.407 0.04
1.444 -1.392 0.036
1.438 -1.362 0.038
1.438 -1.338 0.038
1.44 -1.317 0.037
1.443 -1.297 0.036
1.437 -1.268 0.039
1.439 -1.248 0.038
1.435 -1.222 0.039
1.439 -1.205 0.037
1.441 -1.185 0.037
1.447 -1.168 0.034
1.443 -1.144 0.036
1.443 -1.124 0.036
1.441 -1.102 0.037
1.453 -1.091 0.032
1.434 -1.057 0.039
1.446 -1.046 0.035
1.437 -1.019 0.039
1.442 -1.004 0.036
1.434 -0.979 0.04
1.445 -0.968 0.035
1.434 -0.943 0.04
1.44 -0.928 0.037
1.44 -0.91 0.037
1.447 -0.897 0.034
1.44 -0.874 0.037
1.439 -0.856 0.038
1.447 -0.844 0.034
1.451 -0.829 0.033
1.44 -0.806 0.037
1.447 -0.792 0.035
1.446 -0.775 0.035
1.446 -0.759 0.035
1.445 -0.742 0.035
1.448 -0.727 0.034
1.446 -0.71 0.035
1.451 -0.696 0.033
1.446 -0.677 0.035
1.45 -0.664 0.033
1.45 -0.647 0.033
1.45 -0.632 0.033
1.448 -0.615 0.034
1.45 -0.601 0.033
1.443 -0.583 0.036
1.45 -0.57 0.033
1.449 -0.555 0.033
1.453 -0.541 0.032
1.449 -0.525 0.034
1.451 -0.511 0.033
1.445 -0.494 0.035
1.455 -0.483 0.031
1.44 -0.463 0.037
1.447 -0.451 0.034
1.444 -0.436 0.036
1.448 -0.423 0.034
1.447 -0.408 0.034
1.448 -0.394 0.034
1.448 -0.38 0.034
1.444 -0.365 0.036
1.444 -0.351 0.036
1.445 -0.337 0.035
1.442 -0.322 0.036
1.449 -0.31 0.034
1.448 -0.296 0.034
1.45 -0.283 0.033
1.447 -0.268 0.034
1.455 -0.256 0.031
1.456 -0.243 0.031
1.448 -0.228 0.034
1.443 -0.213 0.036
1.453 -0.201 0.032
1.444 -0.187 0.035
1.455 -0.174 0.031
1.441 -0.159 0.037
1.442 -0.146 0.036
1.449 -0.133 0.034
1.448 -0.12 0.034
1.44 -0.106 0.037
1.451 -0.093 0.033
1.441 -0.079 0.037
1.445 -0.066 0.035
1.436 -0.053 0.039
1.441 -0.04 0.037
1.44 -0.026 0.037
1.447 -0.013 0.034
1.446 -0 0.035
1.442 0.013 0.036
1.444 0.027 0.036
1.443 0.04 0.036
1.442 0.053 0.036
1.444 0.066 0.035
1.435 0.079 0.039
1.443 0.093 0.036
1.434 0.105 0.04
1.445 0.12 0.035
1.436 0.132 0.039
1.441 0.146 0.037
1.443 0.16 0.036
1.439 0.173 0.037
1.44 0.186 0.037
1.436 0.199 0.039
1.435 0.212 0.039
1.439 0.226 0.037
1.439 0.24 0.038
1.445 0.254 0.035
1.443 0.268 0.036
1.445 0.282 0.035
1.444 0.295 0.035
1.445 0.309 0.035
1.444 0.323 0.036
1.449 0.338 0.033
1.447 0.351 0.035
1.448 0.366 0.034
1.449 0.38 0.034
1.448 0.394 0.034
1.445 0.407 0.035
1.457 0.425 0.03
1.452 0.438 0.032
1.448 0.451 0.034
1.446 0.465 0.035
1.45 0.481 0.033
1.446 0.494 0.035
1.451 0.511 0.033
1.447 0.524 0.034
1.451 0.541 0.033
1.456 0.557 0.031
1.458 0.574 0.03
1.446 0.584 0.035
1.458 0.604 0.03
1.446 0.615 0.035
1.458 0.636 0.03
1.447 0.646 0.034
1.455 0.666 0.031
1.446 0.677 0.035
1.459 0.7 0.03
1.451 0.712 0.033
1.447 0.726 0.034
1.445 0.742 0.035
1.454 0.763 0.031
1.448 0.776 0.034
1.464 0.802 0.027
1.457 0.815 0.03
1.462 0.836 0.028
1.46 0.852 0.029
1.461 0.87 0.029
1.458 0.886 0.03
1.463 0.907 0.028
1.456 0.92 0.031
1.465 0.945 0.027
1.458 0.959 0.03
1.461 0.979 0.029
1.457 0.996 0.03
1.458 1.016 0.03
1.454 1.032 0.031
1.467 1.061 0.026
1.454 1.071 0.031
1.46 1.096 0.029
1.455 1.113 0.031
1.46 1.137 0.029
1.462 1.16 0.028
1.466 1.184 0.027
1.46 1.201 0.029
1.465 1.226 0.027
1.464 1.247 0.028
1.47 1.275 0.025
1.463 1.292 0.028
1.467 1.318 0.026
1.462 1.338 0.028
1.467 1.366 0.026
1.455 1.379 0.031
1.465 1.413 0.027
1.465 1.438 0.027
1.471 1.469 0.025
1.467 1.491 0.026
1.472 1.522 0.024
1.462 1.539 0.028
1.466 1.57 0.027
1.463 1.594 0.028
1.461 1.62 0.029
1.451 1.638 0.033
1.436 1.649 0.039
1.432 1.673 0.04
1.411 1.677 0.049
1.34 1.618 0.078
1.302 1.6 0.093
1.272 1.589 0.106
1.246 1.584 0.116
1.24 1.604 0.119
1.231 1.622 0.122
1.219 1.634 0.127
1.197 1.633 0.136
0 0 0
1.197 1.692 0.136
1.192 1.716 0.138
1.179 1.729 0.143
1.168 1.745 0.148
1.167 1.776 0.148
1.17 1.813 0.147
1.158 1.829 0.152
1.142 1.838 0.158
1.132 1.856 0.162
1.133 1.895 0.162
1.142 1.947 0.158
1.128 1.961 0.164
1.123 1.99 0.166
1.088 1.965 0.18
1.022 1.881 0.207
1.008 1.892 0.213
1.066 2.047 0.189
1.059 2.076 0.192
1.045 2.092 0.198
1.033 2.111 0.203
1.032 2.155 0.203
1.014 2.163 0.21
0.998 2.175 0.217
0.967 2.153 0.23
0.938 2.135 0.241
0.893 2.076 0.26
0.848 2.014 0.278
0.82 1.991 0.289
0.792 1.97 0.3
0.767 1.951 0.311
0.736 1.917 0.323
0.64 1.696 0.363
0 0 0
0.391 1.052 0.464
0.38 1.046 0.468
0.368 1.039 0.473
0.354 1.025 0.479
0.342 1.016 0.483
0.331 1.008 0.488
0.32 1.001 0.492
0.307 0.987 0.498
0.295 0.972 0.503
0.288 0.977 0.506
0.276 0.965 0.51
0.267 0.96 0.514
0.258 0.959 0.518
0.248 0.95 0.522
0.238 0.94 0.526
0.23 0.942 0.529
0.221 0.934 0.533
0.212 0.928 0.537
0.202 0.92 0.54
0.193 0.911 0.544
0.184 0.905 0.548
0.176 0.897 0.551
0.168 0.894 0.554
0.161 0.899 0.557
0.154 0.898 0.56
0.146 0.894 0.563
0.136 0.877 0.567
0.127 0.855 0.571
0.118 0.839 0.575
0.111 0.839 0.577
0.105 0.843 0.58
0.099 0.857 0.582
0.093 0.864 0.585
0.087 0.884 0.587
0.085 0.992 0.588
0.082 1.128 0.589
0.071 1.068 0.594
0.063 1.072 0.597
0.053 1.028 0.601
0.045 0.992 0.605
0.037 0.169 0.608
0.037 -0.107 0.608
0.047 -1.238 0.604
0.056 -1.177 0.6
0.061 -0.992 0.598
0.066 -0.906 0.596
0.074 -0.928 0.593
0.082 -0.93 0.59
0.09 -0.937 0.587
0.098 -0.945 0.584
0.131 -1.293 0.57
0.15 -1.393 0.563
0.163 -1.408 0.558
0.176 -1.425 0.553
0.189 -1.442 0.547
0.204 -1.465 0.542
0.218 -1.482 0.536
0.232 -1.5 0.53
0.247 -1.517 0.524
0.262 -1.535 0.518
0.276 -1.539 0.513
0.28 -1.483 0.511
0.281 -1.417 0.511
0.265 -1.265 0.517
0.257 -1.168 0.52
0.253 -1.097 0.522
0.252 -1.048 0.522
0.25 -0.996 0.523
0.247 -0.945 0.524
0.254 -0.939 0.521
0.482 -1.853 0.431
0.502 -1.869 0.423
0.524 -1.892 0.414
0.55 -1.925 0.404
0.578 -1.968 0.392
0.581 -1.918 0.391
0.561 -1.789 0.399
0.548 -1.696 0.404
0.545 -1.635 0.406
0.53 -1.542 0.412
0.526 -1.487 0.413
0.543 -1.498 0.406
0.547 -1.469 0.405
0.555 -1.455 0.402
0.555 -1.416 0.402
0.558 -1.388 0.401
0.551 -1.336 0.403
0.536 -1.266 0.409
0.527 -1.214 0.413
0.521 -1.17 0.415
0.529 -1.164 0.412
0.525 -1.128 0.413
0.534 -1.122 0.41
0.536 -1.102 0.409
0.542 -1.09 0.407
0.552 -1.09 0.403
0.584 -1.132 0.39
0.606 -1.153 0.381
0.635 -1.186 0.37
0.661 -1.212 0.36
0.682 -1.228 0.351
0.693 -1.223 0.347
0 0 0
0 0 0
0.425 -0.683 0.453
0.422 -0.663 0.455
0.426 -0.659 0.453
0.435 -0.661 0.449
0 0 0
0 0 0
0.962 -1.449 0.24
0.989 -1.465 0.229
1.006 -1.463 0.222
1.125 -1.612 0.175
1.346 -1.904 0.087
1.43 -1.99 0.053
1.427 -1.95 0.055
1.408 -1.889 0.062
1.43 -1.886 0.053
1.405 -1.819 0.063
1.438 -1.83 0.05
1.406 -1.757 0.063
1.343 -1.646 0.088
1.332 -1.604 0.093
1.453 -1.723 0.044
1.447 -1.685 0.047
1.444 -1.653 0.048
1.445 -1.626 0.047
1.458 -1.612 0.042
1.445 -1.57 0.048
1.456 -1.554 0.043
1.452 -1.523 0.045
1.456 -1.501 0.043
1.449 -1.469 0.046
1.457 -1.451 0.043
1.457 -1.426 0.043
1.466 -1.409 0.039
1.456 -1.376 0.043
1.462 -1.357 0.041
1.454 -1.327 0.044
1.455 -1.303 0.044
1.451 -1.277 0.045
1.463 -1.266 0.04
1.455 -1.236 0.044
1.46 -1.219 0.041
1.453 -1.191 0.044
1.458 -1.174 0.042
1.455 -1.15 0.044
1.47 -1.141 0.038
1.459 -1.113 0.042
1.459 -1.092 0.042
1.458 -1.071 0.042
1.458 -1.051 0.042
1.455 -1.029 0.044
1.464 -1.017 0.04
1.456 -0.992 0.043
1.459 -0.975 0.042
1.454 -0.953 0.044
1.458 -0.937 0.042
1.454 -0.917 0.044
1.465 -0.905 0.04
1.462 -0.885 0.041
1.474 -0.875 0.036
1.456 -0.847 0.043
1.466 -0.836 0.039
1.461 -0.815 0.041
1.468 -0.802 0.038
1.461 -0.781 0.041
1.469 -0.769 0.038
1.465 -0.75 0.039
1.47 -0.736 0.038
1.455 -0.712 0.043
1.471 -0.704 0.037
1.461 -0.683 0.041
1.47 -0.671 0.038
1.459 -0.65 0.042
1.466 -0.637 0.039
1.467 -0.622 0.039
1.473 -0.609 0.036
1.463 -0.589 0.041
1.474 -0.579 0.036
1.461 -0.558 0.041
1.474 -0.548 0.036
1.461 -0.528 0.041
1.473 -0.517 0.036
1.464 -0.499 0.04
1.468 -0.486 0.038
1.464 -0.47 0.04
1.459 -0.454 0.042
1.463 -0.44 0.04
1.461 -0.425 0.041
1.462 -0.411 0.041
1.465 -0.398 0.04
1.456 -0.381 0.043
1.465 -0.369 0.04
1.463 -0.355 0.04
1.463 -0.34 0.041
1.453 -0.324 0.044
1.468 -0.313 0.038
1.465 -0.299 0.04
1.473 -0.286 0.036
1.463 -0.271 0.04
1.47 -0.258 0.038
1.464 -0.243 0.04
1.465 -0.23 0.039
1.465 -0.216 0.04
1.469 -0.203 0.038
1.466 -0.189 0.039
1.464 -0.175 0.04
1.459 -0.161 0.042
1.468 -0.148 0.038
1.461 -0.134 0.041
1.47 -0.121 0.037
1.465 -0.107 0.04
1.468 -0.094 0.038
1.456 -0.08 0.043
1.457 -0.067 0.043
1.458 -0.053 0.042
1.464 -0.04 0.04
1.458 -0.027 0.042
1.456 -0.013 0.043
1.456 -0 0.043
1.456 0.013 0.043
1.46 0.027 0.042
1.466 0.04 0.039
1.459 0.053 0.042
1.469 0.067 0.038
1.464 0.08 0.04
1.462 0.094 0.041
1.462 0.107 0.041
1.454 0.12 0.044
1.463 0.134 0.04
1.468 0.148 0.038
1.452 0.16 0.045
1.462 0.175 0.041
1.461 0.188 0.041
1.459 0.202 0.042
1.461 0.215 0.041
1.456 0.228 0.043
1.453 0.242 0.044
1.46 0.256 0.042
1.463 0.271 0.04
1.466 0.285 0.039
1.46 0.298 0.041
1.462 0.312 0.041
1.459 0.325 0.042
1.463 0.34 0.041
1.461 0.354 0.041
1.465 0.369 0.04
1.464 0.383 0.04
1.47 0.399 0.038
1.462 0.411 0.041
1.468 0.427 0.038
1.463 0.44 0.04
1.468 0.456 0.038
1.469 0.471 0.038
1.469 0.486 0.038
1.467 0.5 0.039
1.473 0.517 0.036
1.463 0.529 0.04
1.473 0.547 0.036
1.469 0.561 0.038
1.467 0.576 0.039
1.467 0.591 0.039
1.476 0.61 0.035
1.463 0.62 0.04
1.475 0.641 0.035
1.466 0.653 0.039
1.476 0.673 0.035
1.465 0.685 0.04
1.47 0.703 0.038
1.469 0.719 0.038
1.47 0.736 0.038
1.468 0.751 0.038
1.475 0.772 0.036
1.467 0.784 0.039
1.48 0.809 0.034
1.47 0.82 0.038
1.479 0.843 0.034
1.477 0.859 0.035
1.482 0.88 0.033
1.474 0.893 0.036
1.483 0.917 0.032
1.478 0.932 0.034
1.478 0.951 0.034
1.475 0.968 0.035
1.478 0.988 0.035
1.479 1.008 0.034
1.478 1.027 0.034
1.466 1.038 0.039
1.475 1.064 0.036
1.474 1.083 0.036
1.475 1.104 0.036
1.472 1.122 0.037
