# .PCD v0.7 - Point Cloud Data file format
VERSION 0.7
FIELDS x y z
SIZE 4 4 4
TYPE F F F
COUNT 1 1 1
WIDTH 2499
HEIGHT 1
VIEWPOINT 0 0 0 1 0 0 0
POINTS 2499
DATA ascii
0.423 -0.995 1.371
0.428 -0.99 1.378
0.436 -0.992 1.388
0.442 -0.986 1.395
0.447 -0.98 1.401
0.452 -0.974 1.408
0.457 -0.968 1.414
0.463 -0.963 1.421
0.471 -0.963 1.431
0.476 -0.958 1.438
0.484 -0.958 1.448
0.49 -0.953 1.455
0.495 -0.946 1.462
0.5 -0.94 1.468
0.509 -0.94 1.479
0.514 -0.934 1.485
0.523 -0.934 1.496
0.528 -0.928 1.503
0.533 -0.922 1.509
0.538 -0.915 1.516
0.547 -0.914 1.527
2.628 -4.608 4.139
2.619 -4.513 4.128
2.626 -4.446 4.137
2.612 -4.346 4.12
2.627 -4.296 4.139
2.614 -4.199 4.121
2.621 -4.138 4.131
2.609 -4.048 4.116
2.627 -4.006 4.139
2.614 -3.917 4.122
2.627 -3.868 4.138
2.618 -3.787 4.127
2.63 -3.738 4.141
2.617 -3.655 4.125
2.635 -3.618 4.149
2.623 -3.537 4.133
2.627 -3.48 4.138
2.618 -3.407 4.127
2.632 -3.365 4.144
2.625 -3.296 4.135
2.638 -3.254 4.152
2.623 -3.178 4.133
2.637 -3.137 4.15
2.627 -3.069 4.138
2.641 -3.029 4.155
2.626 -2.958 4.137
2.637 -2.915 4.151
2.625 -2.848 4.136
2.636 -2.808 4.15
2.622 -2.74 4.132
2.634 -2.701 4.148
2.624 -2.639 4.134
2.633 -2.598 4.146
2.622 -2.537 4.132
2.636 -2.501 4.15
2.625 -2.442 4.136
2.638 -2.405 4.152
2.621 -2.341 4.13
2.633 -2.305 4.146
2.629 -2.254 4.14
2.641 -2.217 4.156
2.625 -2.158 4.136
2.633 -2.118 4.146
2.623 -2.065 4.133
2.634 -2.029 4.147
2.625 -1.977 4.136
2.631 -1.937 4.143
2.622 -1.887 4.132
2.632 -1.85 4.144
2.621 -1.8 4.131
2.63 -1.763 4.143
2.621 -1.714 4.131
2.628 -1.676 4.139
2.621 -1.63 4.131
2.631 -1.594 4.143
2.617 -1.545 4.126
2.632 -1.512 4.144
2.618 -1.464 4.127
2.631 -1.431 4.144
2.617 -1.382 4.126
2.624 -1.346 4.135
2.616 -1.302 4.125
2.623 -1.266 4.133
2.613 -1.222 4.121
2.626 -1.189 4.137
2.618 -1.146 4.127
2.63 -1.113 4.142
2.615 -1.068 4.124
2.626 -1.034 4.138
2.613 -0.991 4.121
2.632 -0.96 4.145
2.616 -0.916 4.124
2.627 -0.882 4.138
2.615 -0.84 4.123
2.626 -0.806 4.137
2.619 -0.766 4.128
2.629 -0.732 4.141
2.616 -0.691 4.125
2.614 -0.654 4.122
2.608 -0.615 4.114
2.625 -0.582 4.135
2.614 -0.543 4.122
2.624 -0.509 4.134
2.61 -0.469 4.117
2.623 -0.435 4.134
2.61 -0.397 4.116
2.621 -0.362 4.131
2.612 -0.325 4.12
2.62 -0.289 4.13
2.61 -0.252 4.117
2.617 -0.217 4.126
2.607 -0.18 4.113
2.619 -0.144 4.128
2.601 -0.108 4.106
2.614 -0.072 4.121
2.602 -0.036 4.107
2.609 -0 4.116
2.598 0.036 4.101
2.609 0.072 4.116
2.597 0.107 4.1
2.607 0.144 4.114
2.595 0.179 4.099
2.612 0.216 4.119
2.599 0.251 4.103
2.61 0.288 4.117
2.594 0.322 4.097
2.604 0.36 4.11
2.59 0.394 4.092
2.601 0.431 4.105
2.592 0.466 4.094
2.602 0.504 4.106
2.587 0.538 4.088
2.601 0.577 4.105
2.586 0.61 4.086
2.593 0.648 4.096
2.584 0.683 4.085
2.598 0.723 4.101
2.583 0.756 4.082
2.59 0.795 4.092
2.584 0.83 4.084
2.584 0.867 4.084
2.571 0.9 4.068
2.58 0.94 4.079
2.579 0.977 4.078
2.588 1.019 4.09
2.577 1.052 4.076
2.588 1.095 4.09
2.577 1.128 4.075
2.592 1.173 4.095
2.576 1.204 4.074
2.585 1.248 4.086
2.572 1.28 4.069
2.587 1.327 4.087
2.574 1.359 4.072
2.588 1.406 4.089
2.575 1.439 4.072
2.588 1.487 4.089
2.574 1.519 4.072
2.588 1.568 4.089
2.58 1.604 4.079
2.584 1.648 4.084
2.577 1.685 4.075
2.589 1.735 4.091
2.573 1.766 4.071
2.58 1.813 4.079
2.57 1.849 4.067
2.579 1.898 4.078
2.569 1.934 4.065
2.578 1.985 4.077
2.567 2.02 4.063
2.577 2.072 4.075
2.571 2.112 4.067
2.579 2.165 4.078
2.571 2.204 4.068
2.58 2.257 4.079
2.563 2.288 4.057
2.581 2.352 4.08
2.568 2.387 4.064
2.579 2.446 4.078
2.57 2.486 4.067
2.578 2.543 4.076
2.567 2.581 4.063
2.573 2.638 4.071
2.262 2.357 3.68
2.051 2.174 3.415
1.954 2.109 3.294
1.874 2.059 3.193
1.8 2.012 3.1
1.735 1.973 3.018
1.662 1.924 2.927
1.604 1.888 2.853
1.56 1.869 2.799
1.554 1.896 2.792
1.544 1.917 2.779
1.534 1.938 2.765
1.533 1.971 2.764
1.522 1.992 2.751
1.515 2.018 2.742
1.504 2.038 2.728
1.493 2.059 2.714
1.486 2.086 2.706
1.475 2.107 2.693
1.46 2.122 2.673
1.411 2.084 2.612
1.375 2.065 2.567
1.334 2.036 2.514
1.302 2.021 2.475
1.265 1.997 2.429
1.23 1.973 2.384
1.196 1.95 2.341
1.166 1.933 2.304
1.133 1.91 2.263
1.103 1.891 2.225
1.074 1.871 2.189
1.049 1.857 2.157
1.02 1.837 2.121
0.996 1.824 2.091
0.969 1.803 2.057
0.945 1.789 2.027
0.922 1.774 1.998
0.902 1.765 1.973
0.878 1.748 1.943
0.858 1.737 1.918
0.835 1.719 1.889
0.816 1.708 1.864
0.796 1.696 1.84
0.777 1.683 1.815
0.757 1.669 1.791
0.741 1.662 1.771
0.722 1.647 1.746
0.707 1.641 1.728
0.688 1.625 1.704
0.673 1.619 1.685
0.654 1.602 1.662
0.64 1.595 1.644
0.626 1.588 1.625
0.612 1.581 1.608
0.593 1.561 1.584
0.418 1.085 1.364
0.315 0.805 1.236
0.307 0.796 1.225
0.299 0.79 1.216
0.293 0.789 1.208
0.286 0.782 1.199
0.278 0.776 1.19
0.272 0.772 1.182
0.266 0.769 1.174
0.257 0.755 1.163
0.251 0.752 1.156
0.245 0.746 1.147
0.239 0.741 1.14
0.232 0.734 1.132
0.226 0.73 1.124
0.221 0.725 1.117
0.215 0.719 1.11
0.209 0.715 1.103
0.203 0.709 1.096
0.2 0.711 1.091
0.194 0.703 1.083
0.188 0.696 1.076
0.184 0.699 1.071
0.179 0.691 1.064
0.173 0.686 1.058
0.168 0.679 1.051
0.165 0.682 1.047
0.159 0.675 1.04
0.155 0.671 1.034
0.15 0.665 1.028
0.146 0.667 1.024
0.141 0.658 1.017
0.138 0.661 1.013
0.133 0.652 1.007
0.128 0.644 1.001
0.124 0.645 0.996
0.121 0.647 0.992
0.117 0.639 0.986
0.112 0.633 0.981
0.109 0.634 0.977
0.105 0.627 0.971
0.101 0.628 0.967
0.098 0.628 0.963
0.094 0.62 0.958
0.09 0.62 0.953
0.087 0.62 0.949
0.083 0.618 0.945
0.079 0.61 0.94
0.076 0.612 0.936
0.073 0.611 0.931
0.069 0.602 0.927
0.066 0.601 0.923
0.062 0.594 0.918
0.059 0.594 0.914
0.056 0.591 0.91
0.052 0.586 0.906
0.049 0.587 0.902
0.046 0.579 0.898
0.043 0.58 0.894
0.042 -0.407 0.894
0.044 -0.409 0.897
0.047 -0.42 0.9
0.049 -0.429 0.903
0.051 -0.432 0.906
0.054 -0.439 0.909
0.058 -0.502 0.915
0.061 -0.507 0.919
0.064 -0.519 0.923
0.068 -0.527 0.927
0.072 -0.546 0.932
0.074 -0.545 0.935
0.079 -0.564 0.941
0.082 -0.57 0.945
0.087 -0.589 0.951
0.091 -0.6 0.956
0.095 -0.608 0.961
0.099 -0.613 0.966
0.103 -0.626 0.972
0.108 -0.642 0.979
0.113 -0.648 0.984
0.118 -0.664 0.991
0.123 -0.674 0.997
0.13 -0.699 1.006
0.136 -0.715 1.014
0.142 -0.732 1.022
0.149 -0.749 1.03
0.156 -0.771 1.04
0.164 -0.791 1.049
0.172 -0.814 1.06
0.181 -0.837 1.071
0.19 -0.863 1.082
0.199 -0.888 1.094
0.21 -0.919 1.108
0.222 -0.954 1.124
0.234 -0.987 1.139
0.248 -1.024 1.156
0.263 -1.069 1.175
0.272 -1.083 1.187
0.278 -1.081 1.195
0.284 -1.077 1.202
0.29 -1.073 1.21
0.296 -1.07 1.217
0.301 -1.066 1.225
0.307 -1.063 1.232
0.313 -1.06 1.239
0.319 -1.056 1.247
0.325 -1.054 1.255
0.33 -1.049 1.261
0.336 -1.046 1.269
0.342 -1.041 1.276
0.347 -1.037 1.283
0.353 -1.033 1.29
0.361 -1.037 1.301
0.364 -1.023 1.304
0.369 -1.018 1.311
0.375 -1.015 1.318
0.383 -1.018 1.329
0.389 -1.013 1.336
0.394 -1.008 1.343
0.4 -1.004 1.35
0.408 -1.006 1.36
0.413 -0.999 1.367
0.418 -0.994 1.373
0.423 -0.989 1.38
0.429 -0.983 1.387
0.437 -0.986 1.398
0.442 -0.98 1.404
0.448 -0.975 1.411
0.453 -0.968 1.418
0.461 -0.969 1.428
0.466 -0.963 1.435
0.475 -0.965 1.446
0.48 -0.958 1.452
0.488 -0.959 1.463
0.49 -0.946 1.465
0.495 -0.939 1.471
0.503 -0.939 1.482
0.509 -0.933 1.489
0.513 -0.926 1.495
0.522 -0.927 1.506
0.528 -0.921 1.513
0.537 -0.922 1.524
0.543 -0.917 1.533
0.548 -0.91 1.539
2.568 -4.466 4.113
2.574 -4.398 4.121
2.572 -4.318 4.118
2.579 -4.256 4.127
2.57 -4.167 4.116
2.58 -4.111 4.128
2.568 -4.022 4.114
2.581 -3.972 4.13
2.569 -3.884 4.114
2.582 -3.836 4.131
2.576 -3.761 4.123
2.582 -3.704 4.131
2.578 -3.635 4.127
2.59 -3.588 4.141
2.577 -3.508 4.125
2.59 -3.464 4.142
2.58 -3.39 4.129
2.587 -3.338 4.137
2.575 -3.264 4.123
2.591 -3.225 4.142
2.578 -3.152 4.126
2.589 -3.11 4.141
2.576 -3.037 4.123
2.587 -2.995 4.138
2.579 -2.932 4.128
2.59 -2.89 4.141
2.579 -2.824 4.127
2.589 -2.783 4.14
2.579 -2.72 4.128
2.585 -2.675 4.135
2.579 -2.618 4.127
2.588 -2.578 4.139
2.577 -2.517 4.125
2.586 -2.476 4.136
2.579 -2.421 4.128
2.59 -2.383 4.141
2.577 -2.324 4.125
2.59 -2.288 4.142
2.578 -2.231 4.126
2.589 -2.194 4.14
2.576 -2.137 4.123
2.587 -2.101 4.138
2.578 -2.048 4.126
2.583 -2.008 4.133
2.572 -1.955 4.118
2.588 -1.923 4.138
2.578 -1.872 4.126
2.587 -1.835 4.137
2.574 -1.783 4.121
2.585 -1.749 4.136
2.568 -1.695 4.113
2.587 -1.666 4.137
2.575 -1.616 4.122
2.585 -1.581 4.135
2.572 -1.532 4.118
2.58 -1.497 4.129
2.566 -1.448 4.111
2.579 -1.415 4.128
2.57 -1.37 4.116
2.578 -1.335 4.126
2.566 -1.289 4.111
2.577 -1.255 4.125
2.568 -1.212 4.114
2.58 -1.179 4.129
2.573 -1.137 4.12
2.58 -1.102 4.128
2.568 -1.058 4.114
2.576 -1.024 4.124
2.57 -0.983 4.115
2.58 -0.949 4.129
2.57 -0.908 4.116
2.579 -0.874 4.128
2.569 -0.833 4.115
2.58 -0.799 4.128
2.568 -0.758 4.113
2.577 -0.724 4.125
2.564 -0.684 4.109
2.58 -0.651 4.128
2.567 -0.611 4.111
2.572 -0.576 4.119
2.568 -0.539 4.114
2.577 -0.504 4.125
2.567 -0.466 4.111
2.576 -0.431 4.124
2.563 -0.393 4.107
2.569 -0.358 4.114
2.565 -0.322 4.11
2.579 -0.287 4.127
2.563 -0.25 4.107
2.574 -0.215 4.122
2.565 -0.178 4.11
2.571 -0.143 4.118
2.554 -0.107 4.096
2.567 -0.071 4.112
2.556 -0.036 4.098
2.562 -0 4.106
2.551 0.035 4.092
2.562 0.071 4.106
2.551 0.106 4.091
2.562 0.143 4.105
2.555 0.178 4.096
2.565 0.214 4.11
2.551 0.249 4.092
2.558 0.285 4.1
2.554 0.32 4.096
2.558 0.357 4.1
2.545 0.39 4.084
2.554 0.428 4.096
2.546 0.462 4.086
2.555 0.5 4.096
2.54 0.533 4.078
2.554 0.572 4.096
2.54 0.605 4.077
2.553 0.644 4.095
2.538 0.677 4.075
2.551 0.717 4.092
2.536 0.749 4.073
2.549 0.789 4.089
2.54 0.823 4.077
2.546 0.862 4.085
2.537 0.896 4.073
2.542 0.935 4.08
2.531 0.968 4.066
2.546 1.011 4.086
2.535 1.045 4.072
2.543 1.086 4.082
2.532 1.119 4.068
2.541 1.161 4.079
2.535 1.196 4.071
2.545 1.24 4.084
2.528 1.27 4.062
2.542 1.316 4.08
2.529 1.348 4.063
2.548 1.398 4.088
2.53 1.427 4.065
2.543 1.474 4.081
2.53 1.507 4.065
2.542 1.555 4.08
2.534 1.59 4.07
2.545 1.638 4.084
2.532 1.671 4.067
2.538 1.716 4.075
2.53 1.752 4.064
2.54 1.802 4.078
2.526 1.834 4.06
2.536 1.884 4.073
2.526 1.919 4.06
2.533 1.968 4.069
2.524 2.004 4.057
2.538 2.06 4.075
2.527 2.095 4.061
2.535 2.147 4.071
2.523 2.182 4.056
2.536 2.24 4.073
2.525 2.276 4.059
2.534 2.331 4.07
2.522 2.367 4.055
2.535 2.427 4.072
2.522 2.461 4.054
2.532 2.521 4.068
2.519 2.556 4.05
2.529 2.616 4.064
2.172 2.284 3.609
2.021 2.162 3.416
1.926 2.098 3.296
1.852 2.053 3.201
1.773 2.001 3.101
1.71 1.963 3.019
1.638 1.913 2.928
1.577 1.873 2.85
1.55 1.874 2.816
1.54 1.896 2.803
1.534 1.923 2.796
1.524 1.944 2.783
1.518 1.971 2.775
1.508 1.992 2.762
1.5 2.018 2.753
1.489 2.038 2.738
1.483 2.065 2.731
1.472 2.086 2.716
1.466 2.113 2.708
1.439 2.11 2.674
1.393 2.077 2.616
1.357 2.058 2.57
1.321 2.035 2.524
1.286 2.015 2.479
1.25 1.991 2.433
1.218 1.973 2.393
1.18 1.943 2.345
1.151 1.926 2.307
1.119 1.904 2.266
1.093 1.891 2.233
1.059 1.863 2.191
1.035 1.851 2.16
1.007 1.83 2.124
0.983 1.817 2.094
0.956 1.796 2.059
0.936 1.789 2.034
0.913 1.774 2.004
0.89 1.758 1.975
0.87 1.748 1.949
0.847 1.73 1.92
0.824 1.711 1.89
0.808 1.708 1.87
0.789 1.696 1.846
0.769 1.683 1.821
0.75 1.67 1.797
0.731 1.654 1.772
0.715 1.646 1.751
0.7 1.641 1.733
0.682 1.626 1.709
0.667 1.621 1.691
0.648 1.602 1.666
0.634 1.597 1.649
0.619 1.588 1.63
0.605 1.58 1.612
0.586 1.559 1.588
0.389 1.015 1.337
0.312 0.804 1.238
0.303 0.796 1.227
0.297 0.792 1.219
0.29 0.787 1.209
0.28 0.772 1.197
0.276 0.777 1.192
0.267 0.764 1.181
0.261 0.76 1.173
0.255 0.755 1.165
0.249 0.752 1.157
0.24 0.737 1.146
0.236 0.741 1.142
0.23 0.735 1.134
0.224 0.73 1.126
0.218 0.725 1.119
0.212 0.719 1.111
0.207 0.715 1.104
0.202 0.71 1.098
0.195 0.701 1.089
0.192 0.704 1.085
0.186 0.697 1.078
0.18 0.69 1.07
0.177 0.691 1.066
0.171 0.686 1.059
0.166 0.679 1.052
0.161 0.673 1.046
0.158 0.675 1.041
0.153 0.672 1.036
0.148 0.665 1.029
0.145 0.667 1.025
0.14 0.659 1.019
0.136 0.66 1.014
0.131 0.652 1.008
0.127 0.644 1.002
0.123 0.646 0.997
0.118 0.636 0.991
0.115 0.639 0.987
0.112 0.639 0.983
0.108 0.635 0.978
0.104 0.636 0.973
0.1 0.63 0.968
0.097 0.629 0.964
0.093 0.629 0.959
0.089 0.62 0.954
0.086 0.62 0.95
0.082 0.619 0.945
0.078 0.61 0.94
0.075 0.603 0.936
0.071 0.601 0.931
0.068 0.602 0.927
0.065 0.602 0.923
0.062 0.602 0.919
0.058 0.592 0.914
0.055 0.594 0.91
0.052 0.585 0.906
0.048 0.587 0.902
0.045 0.587 0.898
0.042 0.579 0.894
0.042 -0.407 0.894
0.044 -0.418 0.897
0.046 -0.418 0.9
0.049 -0.429 0.903
0.051 -0.432 0.906
0.053 -0.439 0.909
0.058 -0.492 0.915
0.061 -0.517 0.919
0.064 -0.519 0.923
0.067 -0.527 0.927
0.071 -0.537 0.931
0.074 -0.545 0.936
0.077 -0.554 0.94
0.082 -0.571 0.946
0.085 -0.58 0.95
0.09 -0.598 0.956
0.094 -0.607 0.962
0.098 -0.617 0.967
0.103 -0.626 0.973
0.108 -0.642 0.979
0.112 -0.648 0.984
0.117 -0.665 0.991
0.122 -0.676 0.998
0.128 -0.691 1.005
0.135 -0.711 1.014
0.141 -0.732 1.022
0.148 -0.749 1.031
0.155 -0.771 1.04
0.163 -0.793 1.05
0.17 -0.806 1.059
0.178 -0.829 1.069
0.189 -0.862 1.083
0.199 -0.89 1.096
0.207 -0.911 1.107
0.219 -0.946 1.122
0.233 -0.986 1.14
0.246 -1.023 1.157
0.261 -1.067 1.176
0.273 -1.091 1.191
0.279 -1.09 1.199
0.283 -1.078 1.204
0.288 -1.074 1.211
0.294 -1.07 1.218
0.302 -1.076 1.229
0.306 -1.063 1.233
0.311 -1.06 1.241
0.317 -1.057 1.248
0.323 -1.053 1.255
0.329 -1.049 1.263
0.334 -1.046 1.27
0.34 -1.041 1.277
0.348 -1.046 1.288
0.351 -1.033 1.292
0.357 -1.029 1.299
0.365 -1.033 1.309
0.37 -1.027 1.316
0.376 -1.022 1.323
0.381 -1.018 1.33
0.387 -1.014 1.338
0.392 -1.008 1.344
0.397 -1.002 1.351
0.406 -1.006 1.362
0.411 -0.999 1.368
0.416 -0.994 1.375
0.425 -0.997 1.386
0.427 -0.983 1.389
0.435 -0.986 1.4
0.44 -0.98 1.406
0.445 -0.973 1.412
0.45 -0.968 1.419
0.459 -0.969 1.43
0.464 -0.963 1.436
0.472 -0.964 1.447
0.477 -0.958 1.454
0.482 -0.952 1.46
0.491 -0.953 1.471
0.496 -0.946 1.478
0.501 -0.939 1.484
0.506 -0.933 1.49
0.515 -0.934 1.502
0.52 -0.927 1.508
0.528 -0.928 1.519
0.533 -0.921 1.526
0.538 -0.914 1.532
0.544 -0.907 1.539
2.532 -4.423 4.092
2.545 -4.369 4.109
2.535 -4.278 4.097
2.547 -4.223 4.112
2.533 -4.126 4.094
2.547 -4.078 4.112
2.535 -3.989 4.097
2.545 -3.935 4.109
2.535 -3.851 4.097
2.549 -3.806 4.114
2.537 -3.722 4.099
2.549 -3.675 4.115
2.545 -3.605 4.11
2.556 -3.558 4.124
2.546 -3.482 4.111
2.555 -3.433 4.123
2.548 -3.364 4.114
2.551 -3.308 4.117
2.537 -3.231 4.099
2.56 -3.203 4.129
2.547 -3.13 4.112
2.555 -3.083 4.123
2.542 -3.011 4.105
2.556 -2.973 4.123
2.548 -2.91 4.114
2.559 -2.87 4.128
2.543 -2.799 4.107
2.553 -2.757 4.12
2.544 -2.696 4.108
2.554 -2.656 4.121
2.543 -2.594 4.107
2.557 -2.558 4.125
2.547 -2.499 4.111
2.554 -2.457 4.121
2.544 -2.4 4.109
2.55 -2.357 4.116
2.546 -2.306 4.11
2.558 -2.27 4.126
2.545 -2.213 4.11
2.557 -2.177 4.125
2.544 -2.12 4.108
2.549 -2.08 4.115
2.545 -2.032 4.11
2.551 -1.992 4.117
2.541 -1.94 4.104
2.551 -1.905 4.117
2.539 -1.853 4.102
2.549 -1.817 4.115
2.546 -1.773 4.111
2.552 -1.734 4.118
2.541 -1.685 4.105
2.55 -1.65 4.116
2.543 -1.604 4.107
2.552 -1.569 4.119
2.538 -1.52 4.101
2.551 -1.487 4.117
2.539 -1.439 4.101
2.546 -1.404 4.111
2.538 -1.36 4.101
2.546 -1.324 4.111
2.538 -1.281 4.1
2.544 -1.246 4.109
2.536 -1.203 4.098
2.547 -1.17 4.112
2.538 -1.127 4.101
2.55 -1.094 4.116
2.534 -1.049 4.095
2.551 -1.018 4.117
2.541 -0.977 4.104
2.547 -0.941 4.112
2.537 -0.9 4.099
2.54 -0.864 4.103
2.536 -0.826 4.098
2.546 -0.792 4.11
2.533 -0.752 4.095
2.543 -0.718 4.107
2.536 -0.679 4.097
2.545 -0.645 4.109
2.532 -0.606 4.093
2.547 -0.573 4.112
2.533 -0.534 4.095
2.545 -0.5 4.109
2.531 -0.462 4.091
2.546 -0.428 4.111
2.524 -0.389 4.083
2.545 -0.356 4.109
2.529 -0.319 4.089
2.538 -0.284 4.1
2.528 -0.248 4.088
2.535 -0.213 4.097
2.53 -0.177 4.091
2.537 -0.142 4.099
2.526 -0.106 4.085
2.532 -0.071 4.093
2.522 -0.035 4.08
2.527 -0 4.087
2.522 0.035 4.08
2.528 0.071 4.087
2.521 0.106 4.079
2.532 0.142 4.093
2.52 0.176 4.077
2.529 0.212 4.089
2.517 0.246 4.073
2.522 0.282 4.08
2.514 0.317 4.069
2.529 0.354 4.089
2.51 0.387 4.065
2.519 0.424 4.076
2.511 0.458 4.065
2.52 0.495 4.078
2.507 0.528 4.06
2.52 0.567 4.078
2.512 0.601 4.067
2.519 0.639 4.076
2.51 0.672 4.065
2.517 0.71 4.073
2.507 0.744 4.061
2.515 0.783 4.071
2.504 0.816 4.057
2.517 0.857 4.074
2.507 0.89 4.061
2.511 0.928 4.066
2.503 0.962 4.056
2.509 1.001 4.063
2.501 1.035 4.053
2.517 1.08 4.074
2.506 1.113 4.06
2.508 1.151 4.062
2.502 1.186 4.054
2.507 1.227 4.061
2.501 1.262 4.053
2.508 1.305 4.063
2.502 1.34 4.054
2.51 1.383 4.064
2.497 1.415 4.048
2.51 1.462 4.065
2.502 1.497 4.055
2.51 1.542 4.064
2.498 1.575 4.049
2.513 1.625 4.069
2.499 1.657 4.05
2.51 1.706 4.065
2.496 1.737 4.047
2.508 1.787 4.062
2.492 1.818 4.042
2.504 1.869 4.057
2.495 1.905 4.045
2.504 1.955 4.057
2.494 1.99 4.044
2.505 2.043 4.059
2.488 2.073 4.036
2.503 2.13 4.056
2.492 2.165 4.041
2.499 2.218 4.051
2.495 2.259 4.045
2.504 2.315 4.057
2.492 2.349 4.041
2.502 2.406 4.054
2.49 2.442 4.039
2.505 2.506 4.059
2.492 2.541 4.042
2.497 2.596 4.048
2.123 2.243 3.568
2.002 2.152 3.412
1.912 2.092 3.296
1.834 2.043 3.197
1.757 1.991 3.097
1.696 1.957 3.019
1.625 1.907 2.928
1.566 1.87 2.852
1.547 1.88 2.828
1.542 1.908 2.821
1.532 1.929 2.808
1.521 1.95 2.795
1.515 1.976 2.786
1.504 1.998 2.773
1.497 2.024 2.764
1.486 2.044 2.75
1.48 2.071 2.741
1.469 2.092 2.728
1.463 2.12 2.72
1.429 2.106 2.676
1.387 2.077 2.622
1.346 2.051 2.57
1.306 2.023 2.518
1.275 2.007 2.478
1.238 1.982 2.431
1.208 1.967 2.393
1.171 1.937 2.344
1.145 1.926 2.311
1.114 1.904 2.271
1.083 1.883 2.232
1.054 1.863 2.195
1.03 1.851 2.164
1.002 1.83 2.128
0.978 1.817 2.097
0.951 1.796 2.062
0.928 1.782 2.033
0.905 1.766 2.003
0.886 1.758 1.978
0.862 1.741 1.948
0.843 1.731 1.923
0.823 1.719 1.898
0.804 1.708 1.873
0.781 1.687 1.844
0.765 1.683 1.824
0.747 1.67 1.8
0.727 1.654 1.775
0.711 1.647 1.754
0.693 1.632 1.731
0.678 1.626 1.712
0.663 1.619 1.692
0.645 1.602 1.669
0.631 1.595 1.651
0.613 1.579 1.628
0.6 1.574 1.611
0.585 1.562 1.592
0.368 0.957 1.313
0.31 0.804 1.239
0.302 0.796 1.228
0.295 0.792 1.22
0.288 0.787 1.211
0.281 0.782 1.202
0.274 0.776 1.193
0.266 0.764 1.182
0.26 0.761 1.174
0.253 0.756 1.166
0.247 0.752 1.158
0.241 0.746 1.15
0.235 0.741 1.142
0.229 0.734 1.134
0.223 0.73 1.127
0.217 0.726 1.12
0.211 0.718 1.112
0.206 0.715 1.105
0.2 0.709 1.098
0.194 0.701 1.09
0.191 0.703 1.085
0.185 0.695 1.078
0.179 0.69 1.071
0.174 0.683 1.064
0.17 0.686 1.06
0.165 0.679 1.053
0.16 0.673 1.047
0.156 0.67 1.041
0.152 0.671 1.036
0.147 0.664 1.03
0.144 0.667 1.025
0.139 0.659 1.019
0.134 0.65 1.013
0.13 0.651 1.008
0.127 0.653 1.004
0.123 0.647 0.998
0.119 0.647 0.993
0.114 0.639 0.988
0.111 0.641 0.983
0.107 0.634 0.978
0.104 0.637 0.974
0.099 0.629 0.968
0.096 0.628 0.964
0.092 0.621 0.959
0.088 0.619 0.954
0.085 0.62 0.95
0.082 0.619 0.946
0.078 0.609 0.941
0.075 0.612 0.936
0.071 0.601 0.932
0.068 0.602 0.927
0.064 0.602 0.923
0.061 0.602 0.919
0.058 0.592 0.915
0.054 0.585 0.91
0.051 0.595 0.907
0.048 0.586 0.902
0.045 0.58 0.898
0.042 0.578 0.894
0.041 -0.406 0.895
0.043 -0.416 0.897
0.045 -0.42 0.9
0.048 -0.427 0.903
0.05 -0.429 0.906
0.053 -0.441 0.91
0.057 -0.498 0.915
0.06 -0.507 0.919
0.063 -0.519 0.923
0.066 -0.527 0.927
0.07 -0.537 0.932
0.073 -0.543 0.936
0.077 -0.564 0.942
0.081 -0.571 0.946
0.084 -0.581 0.951
0.089 -0.598 0.957
0.093 -0.607 0.962
0.097 -0.616 0.968
0.101 -0.626 0.973
0.105 -0.631 0.978
0.111 -0.649 0.985
0.116 -0.665 0.992
0.121 -0.675 0.999
0.126 -0.69 1.006
0.132 -0.706 1.014
0.139 -0.723 1.022
0.146 -0.749 1.032
0.152 -0.762 1.04
0.16 -0.783 1.049
0.168 -0.805 1.06
0.176 -0.831 1.071
0.186 -0.857 1.083
0.196 -0.89 1.097
0.205 -0.912 1.109
0.217 -0.948 1.124
0.229 -0.979 1.139
0.241 -1.013 1.156
0.256 -1.057 1.175
0.269 -1.086 1.191
0.276 -1.089 1.201
0.28 -1.077 1.206
0.285 -1.072 1.213
0.291 -1.07 1.22
0.297 -1.066 1.228
0.302 -1.063 1.236
0.308 -1.06 1.243
0.314 -1.057 1.251
0.32 -1.054 1.258
0.325 -1.05 1.265
0.334 -1.055 1.276
0.336 -1.04 1.28
0.342 -1.037 1.287
0.35 -1.042 1.298
0.355 -1.036 1.305
0.358 -1.023 1.308
0.366 -1.026 1.318
0.372 -1.022 1.326
0.377 -1.018 1.333
0.383 -1.013 1.34
0.388 -1.008 1.347
0.396 -1.011 1.358
0.401 -1.005 1.364
0.406 -0.999 1.371
0.412 -0.994 1.378
0.417 -0.989 1.385
0.422 -0.983 1.392
0.431 -0.986 1.403
0.436 -0.98 1.409
0.441 -0.974 1.416
0.446 -0.968 1.423
0.454 -0.969 1.433
0.459 -0.963 1.44
0.467 -0.964 1.451
0.473 -0.959 1.458
0.478 -0.952 1.464
0.486 -0.953 1.475
0.491 -0.946 1.481
0.496 -0.94 1.488
0.501 -0.933 1.494
0.509 -0.934 1.505
0.514 -0.927 1.512
0.523 -0.927 1.523
0.528 -0.921 1.53
0.537 -0.921 1.541
0.538 -0.907 1.543
2.491 -4.394 4.09
2.504 -4.34 4.106
2.492 -4.243 4.09
2.503 -4.189 4.105
2.493 -4.1 4.091
2.502 -4.045 4.104
2.49 -3.955 4.088
2.503 -3.907 4.105
2.496 -3.828 4.095
2.504 -3.774 4.106
2.496 -3.696 4.095
2.51 -3.653 4.114
2.501 -3.576 4.102
2.515 -3.534 4.12
2.499 -3.45 4.1
2.513 -3.409 4.118
2.503 -3.334 4.104
2.515 -3.292 4.12
2.502 -3.217 4.104
2.507 -3.166 4.11
2.499 -3.1 4.1
2.509 -3.056 4.113
2.503 -2.993 4.104
2.514 -2.952 4.119
2.503 -2.886 4.105
2.508 -2.838 4.111
2.5 -2.777 4.101
2.511 -2.737 4.115
2.501 -2.675 4.102
2.51 -2.634 4.114
2.5 -2.574 4.101
2.514 -2.539 4.119
2.502 -2.478 4.104
2.51 -2.438 4.114
2.5 -2.38 4.1
2.509 -2.341 4.113
2.502 -2.288 4.103
2.508 -2.247 4.111
2.496 -2.191 4.096
2.508 -2.155 4.111
2.494 -2.099 4.094
2.505 -2.063 4.108
2.497 -2.012 4.097
2.507 -1.977 4.11
2.498 -1.926 4.098
2.507 -1.89 4.111
2.499 -1.841 4.1
2.506 -1.803 4.108
2.492 -1.751 4.09
2.503 -1.717 4.105
2.499 -1.673 4.1
2.504 -1.635 4.106
2.498 -1.591 4.099
2.507 -1.555 4.11
2.493 -1.507 4.092
2.507 -1.475 4.11
2.495 -1.428 4.095
2.501 -1.392 4.103
2.495 -1.349 4.094
2.501 -1.314 4.103
2.493 -1.27 4.092
2.504 -1.238 4.107
2.497 -1.195 4.097
2.503 -1.16 4.105
2.496 -1.119 4.095
2.5 -1.083 4.101
2.494 -1.042 4.093
2.506 -1.01 4.109
2.491 -0.966 4.089
2.501 -0.933 4.102
2.492 -0.893 4.09
2.501 -0.859 4.102
2.49 -0.819 4.087
2.5 -0.786 4.101
2.488 -0.745 4.086
2.497 -0.712 4.097
2.491 -0.674 4.089
2.499 -0.64 4.1
2.486 -0.601 4.083
2.495 -0.567 4.094
2.488 -0.529 4.085
2.501 -0.496 4.102
2.487 -0.458 4.084
2.501 -0.425 4.102
2.486 -0.387 4.083
2.494 -0.353 4.093
2.482 -0.316 4.078
2.496 -0.282 4.096
2.486 -0.246 4.082
2.494 -0.211 4.094
2.484 -0.175 4.08
2.49 -0.141 4.088
2.485 -0.105 4.082
2.491 -0.07 4.09
2.481 -0.035 4.076
2.486 -0 4.083
2.481 0.035 4.076
2.486 0.07 4.083
2.48 0.105 4.075
2.485 0.14 4.082
2.478 0.175 4.073
2.483 0.21 4.079
2.471 0.244 4.063
2.485 0.281 4.081
2.473 0.314 4.065
2.477 0.35 4.071
2.469 0.384 4.061
2.473 0.42 4.066
2.465 0.454 4.055
2.479 0.492 4.074
2.466 0.525 4.056
2.474 0.562 4.067
2.465 0.595 4.056
2.473 0.633 4.066
2.464 0.666 4.054
2.471 0.704 4.063
2.461 0.737 4.051
2.469 0.776 4.061
2.459 0.808 4.048
2.472 0.849 4.064
2.465 0.883 4.055
2.47 0.922 4.062
2.464 0.956 4.053
2.474 0.997 4.067
2.463 1.029 4.053
2.464 1.067 4.054
2.463 1.104 4.053
2.47 1.145 4.062
2.458 1.177 4.047
2.467 1.219 4.058
2.456 1.251 4.044
2.47 1.297 4.062
2.457 1.329 4.045
2.465 1.372 4.055
2.457 1.406 4.045
2.465 1.45 4.055
2.453 1.482 4.04
2.464 1.528 4.054
2.453 1.561 4.039
2.468 1.612 4.06
2.455 1.643 4.042
2.466 1.691 4.057
2.451 1.722 4.037
2.463 1.772 4.053
2.454 1.807 4.041
2.464 1.857 4.055
2.449 1.887 4.034
2.46 1.938 4.048
2.445 1.97 4.029
2.459 2.025 4.048
2.449 2.06 4.034
2.456 2.11 4.043
2.448 2.148 4.033
2.456 2.2 4.043
2.446 2.236 4.031
2.462 2.297 4.052
2.45 2.332 4.036
2.46 2.389 4.049
2.451 2.427 4.037
2.454 2.478 4.041
2.446 2.517 4.03
2.454 2.575 4.04
2.055 2.19 3.52
1.973 2.141 3.413
1.886 2.083 3.3
1.808 2.033 3.199
1.73 1.98 3.097
1.667 1.941 3.015
1.601 1.897 2.929
1.547 1.864 2.858
1.537 1.887 2.845
1.531 1.913 2.838
1.521 1.935 2.825
1.511 1.956 2.811
1.5 1.977 2.798
1.494 2.004 2.789
1.488 2.03 2.781
1.476 2.05 2.766
1.469 2.077 2.757
1.459 2.098 2.744
1.453 2.125 2.735
1.41 2.098 2.68
1.369 2.071 2.627
1.333 2.051 2.58
1.294 2.023 2.528
1.262 2.006 2.486
1.223 1.977 2.436
1.193 1.959 2.396
1.159 1.937 2.353
1.13 1.92 2.315
1.098 1.896 2.273
1.073 1.883 2.24
1.041 1.857 2.198
1.016 1.843 2.166
0.989 1.823 2.13
0.965 1.81 2.1
0.941 1.795 2.069
0.919 1.782 2.04
0.896 1.767 2.01
0.877 1.757 1.984
0.85 1.733 1.95
0.831 1.723 1.925
0.812 1.712 1.9
0.792 1.699 1.874
0.773 1.687 1.849
0.758 1.682 1.829
0.736 1.661 1.8
0.72 1.654 1.78
0.701 1.639 1.756
0.686 1.633 1.736
0.671 1.625 1.716
0.653 1.61 1.693
0.639 1.604 1.674
0.624 1.595 1.655
0.607 1.58 1.633
0.594 1.574 1.616
0.479 1.272 1.465
0.349 0.912 1.296
0.307 0.805 1.241
0.301 0.803 1.233
0.292 0.792 1.222
0.285 0.787 1.213
0.275 0.772 1.2
0.271 0.774 1.194
0.263 0.764 1.184
0.257 0.761 1.176
0.251 0.757 1.168
0.245 0.752 1.16
0.236 0.737 1.149
0.232 0.741 1.144
0.226 0.734 1.136
0.218 0.721 1.126
0.213 0.715 1.118
0.209 0.718 1.113
0.203 0.714 1.106
0.198 0.709 1.099
0.193 0.703 1.092
0.189 0.704 1.087
0.183 0.697 1.08
0.177 0.69 1.072
0.174 0.691 1.068
0.169 0.686 1.061
0.163 0.677 1.054
0.158 0.672 1.047
0.155 0.675 1.043
0.15 0.671 1.037
0.146 0.664 1.031
0.141 0.657 1.025
0.137 0.658 1.02
0.132 0.651 1.014
0.129 0.651 1.009
0.124 0.644 1.003
0.121 0.646 0.999
0.118 0.647 0.994
0.113 0.64 0.989
0.109 0.633 0.983
0.106 0.635 0.979
0.101 0.626 0.973
0.098 0.629 0.969
0.095 0.629 0.965
0.091 0.621 0.959
0.087 0.621 0.955
0.084 0.62 0.951
0.08 0.609 0.945
0.077 0.61 0.941
0.074 0.611 0.937
0.07 0.612 0.933
0.067 0.601 0.928
0.063 0.601 0.924
0.06 0.602 0.92
0.057 0.592 0.915
0.054 0.595 0.911
0.05 0.586 0.907
0.047 0.585 0.903
0.044 0.58 0.899
0.041 0.579 0.895
0.04 -0.407 0.895
0.043 -0.416 0.898
0.045 -0.42 0.901
0.047 -0.427 0.904
0.05 -0.438 0.907
0.052 -0.45 0.911
0.056 -0.488 0.915
0.059 -0.517 0.92
0.062 -0.518 0.924
0.065 -0.526 0.928
0.069 -0.537 0.932
0.072 -0.545 0.937
0.075 -0.554 0.941
0.08 -0.572 0.947
0.083 -0.58 0.952
0.087 -0.588 0.957
0.092 -0.607 0.963
0.096 -0.615 0.968
0.1 -0.625 0.974
0.104 -0.632 0.979
0.109 -0.648 0.986
0.113 -0.653 0.991
0.12 -0.676 1
0.125 -0.692 1.007
0.131 -0.706 1.015
0.137 -0.725 1.023
0.144 -0.747 1.033
0.15 -0.761 1.041
0.158 -0.785 1.051
0.166 -0.807 1.061
0.174 -0.831 1.072
0.184 -0.858 1.085
0.192 -0.88 1.096
0.202 -0.903 1.108
0.213 -0.938 1.124
0.226 -0.979 1.141
0.239 -1.014 1.158
0.253 -1.054 1.176
0.267 -1.093 1.195
0.273 -1.088 1.202
0.277 -1.077 1.208
0.284 -1.082 1.218
0.288 -1.07 1.223
0.296 -1.076 1.233
0.302 -1.073 1.241
0.305 -1.06 1.245
0.31 -1.056 1.252
0.316 -1.053 1.26
0.322 -1.05 1.268
0.33 -1.055 1.278
0.333 -1.04 1.282
0.341 -1.045 1.293
0.344 -1.033 1.297
0.352 -1.036 1.307
0.355 -1.024 1.311
0.365 -1.035 1.325
0.368 -1.022 1.329
0.373 -1.017 1.335
0.379 -1.013 1.343
0.387 -1.016 1.353
0.389 -1.003 1.357
0.397 -1.005 1.367
0.403 -1 1.374
0.408 -0.994 1.381
0.413 -0.989 1.388
0.421 -0.992 1.399
0.426 -0.986 1.406
0.434 -0.986 1.416
0.436 -0.974 1.419
0.444 -0.975 1.43
0.449 -0.969 1.436
0.455 -0.964 1.443
0.463 -0.964 1.454
0.468 -0.958 1.461
0.476 -0.959 1.472
0.481 -0.953 1.478
0.486 -0.947 1.485
0.491 -0.94 1.491
0.499 -0.94 1.502
0.504 -0.934 1.509
0.509 -0.927 1.515
0.518 -0.927 1.527
0.522 -0.92 1.533
0.532 -0.921 1.545
0.532 -0.906 1.546
0.54 -0.904 1.556
2.46 -4.305 4.099
2.448 -4.21 4.083
2.463 -4.161 4.101
2.449 -4.066 4.083
2.458 -4.011 4.095
2.447 -3.923 4.08
2.459 -3.875 4.097
2.451 -3.796 4.086
2.453 -3.733 4.089
2.456 -3.673 4.093
2.467 -3.625 4.107
2.457 -3.547 4.094
2.467 -3.499 4.107
2.458 -3.426 4.096
2.469 -3.38 4.109
2.457 -3.306 4.095
2.464 -3.257 4.104
2.467 -3.202 4.107
2.461 -3.137 4.099
2.459 -3.079 4.097
2.47 -3.037 4.111
2.457 -2.967 4.094
2.468 -2.927 4.109
2.457 -2.859 4.094
2.466 -2.817 4.105
2.457 -2.756 4.095
2.467 -2.715 4.107
2.457 -2.654 4.094
2.466 -2.614 4.106
2.456 -2.554 4.094
2.469 -2.518 4.11
2.457 -2.457 4.095
2.469 -2.421 4.11
2.457 -2.362 4.095
2.464 -2.322 4.104
2.458 -2.27 4.096
2.465 -2.23 4.105
2.454 -2.174 4.09
2.465 -2.139 4.105
2.452 -2.082 4.087
2.462 -2.047 4.101
2.45 -1.994 4.085
2.461 -1.959 4.099
2.456 -1.911 4.093
2.466 -1.876 4.106
2.454 -1.825 4.09
2.464 -1.79 4.104
2.454 -1.741 4.09
2.46 -1.704 4.098
2.448 -1.655 4.083
2.459 -1.621 4.097
2.453 -1.577 4.089
2.462 -1.542 4.1
2.45 -1.495 4.085
2.463 -1.463 4.102
2.451 -1.416 4.086
2.458 -1.381 4.095
2.451 -1.338 4.086
2.457 -1.303 4.094
2.454 -1.263 4.09
2.461 -1.228 4.1
2.448 -1.183 4.082
2.46 -1.151 4.098
2.447 -1.107 4.081
2.458 -1.075 4.095
2.451 -1.034 4.086
2.461 -1.001 4.099
2.451 -0.96 4.087
2.456 -0.925 4.093
2.447 -0.885 4.08
2.456 -0.852 4.093
2.445 -0.812 4.078
2.454 -0.779 4.091
2.442 -0.738 4.074
2.457 -0.707 4.095
2.444 -0.667 4.077
2.453 -0.634 4.089
2.447 -0.597 4.081
2.455 -0.563 4.091
2.447 -0.526 4.081
2.456 -0.492 4.093
2.447 -0.455 4.08
2.451 -0.42 4.086
2.445 -0.384 4.078
2.453 -0.35 4.089
2.443 -0.314 4.076
2.45 -0.28 4.085
2.439 -0.243 4.07
2.451 -0.21 4.086
2.44 -0.174 4.072
2.45 -0.14 4.085
2.439 -0.104 4.07
2.445 -0.07 4.078
2.44 -0.035 4.072
2.446 -0 4.079
2.434 0.035 4.064
2.446 0.07 4.079
2.434 0.104 4.063
2.444 0.139 4.077
2.433 0.173 4.062
2.446 0.209 4.08
2.433 0.243 4.062
2.439 0.278 4.071
2.426 0.312 4.054
2.436 0.348 4.067
2.423 0.381 4.05
2.432 0.417 4.061
2.425 0.451 4.052
2.434 0.488 4.064
2.42 0.52 4.045
2.434 0.558 4.063
2.419 0.59 4.044
2.427 0.627 4.054
2.418 0.66 4.043
2.426 0.698 4.053
2.422 0.732 4.048
2.429 0.77 4.057
2.419 0.803 4.044
2.427 0.842 4.054
2.415 0.873 4.038
2.427 0.914 4.055
2.418 0.947 4.043
2.429 0.988 4.058
2.418 1.02 4.042
2.429 1.062 4.056
2.418 1.094 4.043
2.426 1.135 4.053
2.416 1.167 4.039
2.427 1.21 4.054
2.415 1.242 4.039
2.426 1.286 4.053
2.414 1.317 4.037
2.426 1.363 4.053
2.414 1.395 4.037
2.422 1.438 4.048
2.414 1.473 4.038
2.426 1.519 4.053
2.412 1.55 4.035
2.425 1.598 4.052
2.417 1.633 4.041
2.422 1.677 4.048
2.414 1.712 4.037
2.419 1.757 4.044
2.41 1.791 4.032
2.415 1.837 4.039
2.406 1.872 4.026
2.416 1.922 4.04
2.405 1.956 4.025
2.416 2.008 4.039
2.405 2.042 4.025
2.413 2.093 4.036
2.408 2.133 4.029
2.418 2.187 4.043
2.408 2.223 4.03
2.42 2.279 4.045
2.406 2.312 4.027
2.412 2.364 4.034
2.404 2.403 4.024
2.415 2.461 4.038
2.405 2.5 4.026
2.409 2.552 4.031
2.022 2.176 3.518
1.938 2.124 3.407
1.853 2.067 3.295
1.782 2.024 3.201
1.704 1.969 3.098
1.647 1.937 3.022
1.581 1.892 2.935
1.531 1.864 2.868
1.526 1.891 2.862
1.517 1.913 2.849
1.511 1.941 2.842
1.5 1.962 2.828
1.494 1.988 2.82
1.484 2.009 2.806
1.477 2.035 2.796
1.466 2.056 2.782
1.46 2.083 2.774
1.445 2.098 2.754
1.434 2.119 2.74
1.392 2.091 2.684
1.352 2.065 2.631
1.316 2.044 2.584
1.276 2.015 2.531
1.245 1.999 2.49
1.211 1.976 2.445
1.177 1.953 2.4
1.145 1.931 2.357
1.115 1.912 2.318
1.084 1.89 2.277
1.059 1.877 2.244
1.03 1.857 2.206
1.006 1.843 2.173
0.975 1.817 2.133
0.956 1.811 2.107
0.929 1.789 2.072
0.906 1.774 2.041
0.884 1.76 2.012
0.865 1.751 1.986
0.842 1.733 1.956
0.823 1.723 1.931
0.804 1.712 1.906
0.785 1.7 1.88
0.763 1.68 1.851
0.747 1.674 1.83
0.728 1.661 1.806
0.709 1.645 1.78
0.694 1.639 1.76
0.679 1.632 1.741
0.662 1.618 1.718
0.647 1.61 1.698
0.629 1.594 1.674
0.615 1.587 1.656
0.602 1.581 1.638
0.587 1.572 1.619
0.418 1.109 1.395
0.332 0.873 1.281
0.301 0.798 1.241
0.295 0.796 1.232
0.286 0.783 1.22
0.282 0.787 1.215
0.272 0.771 1.201
0.265 0.765 1.193
0.26 0.764 1.186
0.254 0.76 1.178
0.248 0.756 1.17
0.24 0.743 1.159
0.236 0.746 1.154
0.23 0.741 1.146
0.224 0.735 1.138
0.218 0.729 1.13
0.212 0.723 1.122
0.207 0.719 1.115
0.201 0.713 1.108
0.196 0.709 1.101
0.19 0.702 1.093
0.187 0.705 1.089
0.181 0.697 1.081
0.175 0.69 1.074
0.17 0.683 1.067
0.167 0.686 1.062
0.161 0.678 1.055
0.156 0.672 1.049
0.153 0.674 1.044
0.149 0.672 1.039
0.144 0.665 1.032
0.139 0.657 1.026
0.136 0.658 1.021
0.131 0.651 1.015
0.127 0.652 1.01
0.123 0.644 1.004
0.12 0.647 1
0.116 0.648 0.995
0.112 0.64 0.99
0.108 0.632 0.984
0.104 0.636 0.98
0.1 0.626 0.974
0.097 0.629 0.97
0.094 0.628 0.965
0.09 0.622 0.96
0.086 0.621 0.956
0.083 0.62 0.951
0.079 0.618 0.947
0.076 0.61 0.942
0.073 0.611 0.937
0.069 0.6 0.933
0.066 0.601 0.928
0.062 0.6 0.924
0.059 0.593 0.92
0.056 0.592 0.916
0.053 0.596 0.911
0.05 0.586 0.907
0.046 0.586 0.903
0.043 0.58 0.899
0.04 0.58 0.895
0.04 -0.407 0.895
0.042 -0.416 0.898
0.044 -0.42 0.901
0.047 -0.427 0.904
0.049 -0.438 0.907
0.052 -0.441 0.91
0.055 -0.485 0.915
0.059 -0.506 0.92
0.062 -0.519 0.924
0.065 -0.526 0.928
0.068 -0.535 0.932
0.071 -0.544 0.937
0.075 -0.554 0.942
0.079 -0.564 0.946
0.083 -0.581 0.952
0.086 -0.588 0.957
0.09 -0.599 0.962
0.094 -0.608 0.968
0.099 -0.626 0.974
0.104 -0.633 0.98
0.108 -0.648 0.986
0.113 -0.654 0.992
0.118 -0.671 0.999
0.124 -0.691 1.007
0.13 -0.707 1.015
0.136 -0.725 1.024
0.143 -0.747 1.033
0.15 -0.761 1.041
0.156 -0.775 1.05
0.164 -0.799 1.06
0.172 -0.821 1.071
0.181 -0.848 1.083
0.191 -0.88 1.097
0.201 -0.904 1.109
0.212 -0.939 1.125
0.223 -0.969 1.139
0.235 -1.003 1.156
0.249 -1.042 1.174
0.264 -1.083 1.193
0.271 -1.09 1.204
0.277 -1.086 1.211
0.283 -1.083 1.219
0.286 -1.071 1.224
0.292 -1.067 1.231
0.298 -1.063 1.239
0.303 -1.06 1.246
0.309 -1.057 1.254
0.315 -1.053 1.261
0.32 -1.05 1.269
0.326 -1.046 1.276
0.333 -1.05 1.287
0.339 -1.046 1.294
0.345 -1.042 1.302
0.35 -1.036 1.308
0.356 -1.033 1.316
0.361 -1.027 1.323
0.366 -1.022 1.33
0.371 -1.017 1.337
0.379 -1.021 1.348
0.384 -1.015 1.354
0.39 -1.011 1.362
0.395 -1.006 1.369
0.4 -0.999 1.376
0.405 -0.994 1.383
0.414 -0.997 1.394
0.419 -0.991 1.4
0.424 -0.985 1.407
0.429 -0.98 1.414
0.434 -0.974 1.421
0.442 -0.975 1.431
0.447 -0.969 1.438
0.455 -0.971 1.449
0.461 -0.965 1.456
0.465 -0.957 1.462
0.47 -0.952 1.469
0.478 -0.953 1.48
0.483 -0.946 1.486
0.492 -0.947 1.498
0.497 -0.94 1.504
0.502 -0.934 1.511
0.51 -0.934 1.522
0.515 -0.927 1.529
0.52 -0.92 1.535
0.528 -0.92 1.547
0.537 -0.921 1.558
0.54 -0.91 1.562
2.426 -4.266 4.078
2.417 -4.177 4.067
2.427 -4.121 4.08
2.416 -4.032 4.066
2.425 -3.977 4.077
2.418 -3.896 4.068
2.427 -3.844 4.08
2.417 -3.76 4.066
2.429 -3.715 4.083
2.422 -3.639 4.073
2.438 -3.6 4.094
2.427 -3.521 4.08
2.434 -3.471 4.09
2.426 -3.397 4.078
2.435 -3.351 4.091
2.429 -3.284 4.083
2.44 -3.241 4.098
2.434 -3.175 4.089
2.43 -3.113 4.084
2.426 -3.052 4.078
2.432 -3.005 4.087
2.427 -2.945 4.08
2.438 -2.905 4.095
2.425 -2.837 4.077
2.435 -2.797 4.091
2.427 -2.736 4.08
2.436 -2.695 4.092
2.427 -2.634 4.08
2.436 -2.594 4.091
2.425 -2.533 4.077
2.439 -2.499 4.095
2.422 -2.434 4.073
2.435 -2.4 4.091
2.427 -2.344 4.08
2.434 -2.304 4.089
2.422 -2.247 4.074
2.429 -2.208 4.083
2.423 -2.157 4.074
2.433 -2.122 4.089
2.418 -2.064 4.068
2.428 -2.029 4.081
2.419 -1.978 4.069
2.43 -1.943 4.083
2.418 -1.892 4.069
2.432 -1.86 4.087
2.42 -1.808 4.07
2.431 -1.775 4.085
2.419 -1.725 4.07
2.429 -1.691 4.083
2.424 -1.646 4.075
2.425 -1.607 4.078
2.416 -1.561 4.065
2.429 -1.529 4.083
2.418 -1.483 4.069
2.431 -1.451 4.086
2.419 -1.405 4.07
2.431 -1.373 4.086
2.419 -1.327 4.069
2.425 -1.292 4.078
2.417 -1.25 4.067
2.429 -1.218 4.082
2.422 -1.176 4.073
2.427 -1.141 4.08
2.416 -1.099 4.065
2.432 -1.069 4.087
2.418 -1.025 4.067
2.427 -0.992 4.08
2.419 -0.952 4.069
2.429 -0.92 4.082
2.418 -0.879 4.068
2.423 -0.845 4.074
2.416 -0.806 4.065
2.42 -0.771 4.071
2.413 -0.733 4.062
2.424 -0.701 4.076
2.416 -0.663 4.065
2.425 -0.63 4.077
2.413 -0.591 4.061
2.42 -0.558 4.071
2.412 -0.521 4.061
2.421 -0.487 4.072
2.408 -0.45 4.055
2.424 -0.418 4.076
2.41 -0.381 4.057
2.424 -0.348 4.076
2.415 -0.312 4.064
2.416 -0.277 4.065
2.411 -0.242 4.059
2.41 -0.207 4.058
2.404 -0.172 4.049
2.418 -0.138 4.067
2.412 -0.104 4.06
2.416 -0.069 4.066
2.405 -0.034 4.051
2.411 -0 4.059
2.406 0.034 4.052
2.416 0.069 4.066
2.404 0.103 4.05
2.41 0.138 4.058
2.404 0.172 4.049
2.41 0.207 4.058
2.401 0.241 4.045
2.411 0.276 4.058
2.397 0.309 4.04
2.408 0.345 4.054
2.395 0.378 4.037
2.403 0.414 4.048
2.396 0.448 4.039
2.398 0.483 4.042
2.392 0.516 4.033
2.4 0.553 4.043
2.391 0.586 4.031
2.399 0.623 4.042
2.39 0.656 4.031
2.397 0.693 4.04
2.388 0.726 4.028
2.401 0.765 4.045
2.386 0.796 4.025
2.399 0.836 4.042
2.384 0.866 4.022
2.4 0.909 4.044
2.384 0.938 4.023
2.396 0.979 4.038
2.386 1.012 4.025
2.396 1.053 4.039
2.385 1.084 4.023
2.396 1.126 4.038
2.383 1.157 4.022
2.398 1.202 4.041
2.387 1.234 4.027
2.393 1.275 4.034
2.383 1.307 4.021
2.394 1.351 4.036
2.386 1.385 4.025
2.39 1.426 4.031
2.387 1.463 4.027
2.395 1.507 4.037
2.382 1.539 4.021
2.393 1.585 4.034
2.385 1.62 4.024
2.391 1.664 4.031
2.382 1.698 4.02
2.387 1.742 4.027
2.378 1.777 4.015
2.388 1.826 4.028
2.378 1.86 4.015
2.384 1.906 4.022
2.374 1.941 4.009
2.383 1.991 4.021
2.378 2.03 4.015
2.386 2.08 4.026
2.376 2.115 4.012
2.384 2.167 4.023
2.374 2.202 4.009
2.388 2.261 4.028
2.375 2.294 4.011
2.387 2.351 4.026
2.375 2.386 4.01
2.385 2.443 4.024
2.371 2.476 4.006
2.294 2.441 3.903
1.997 2.16 3.507
1.918 2.113 3.401
1.835 2.057 3.29
1.764 2.013 3.195
1.691 1.964 3.098
1.629 1.925 3.015
1.565 1.882 2.93
1.528 1.869 2.88
1.524 1.898 2.874
1.514 1.92 2.861
1.508 1.947 2.853
1.497 1.968 2.84
1.49 1.993 2.83
1.48 2.014 2.816
1.474 2.042 2.808
1.463 2.063 2.794
1.456 2.089 2.785
1.447 2.112 2.772
1.424 2.115 2.742
1.38 2.084 2.683
1.341 2.058 2.631
1.305 2.037 2.583
1.266 2.01 2.531
1.235 1.993 2.49
1.201 1.969 2.444
1.167 1.947 2.399
1.138 1.93 2.361
1.106 1.906 2.317
1.078 1.89 2.281
1.054 1.878 2.248
1.025 1.856 2.209
0.997 1.835 2.172
0.971 1.817 2.137
0.951 1.81 2.11
0.924 1.789 2.075
0.902 1.775 2.045
0.88 1.76 2.015
0.86 1.751 1.99
0.838 1.733 1.959
0.819 1.723 1.934
0.796 1.704 1.904
0.781 1.7 1.883
0.759 1.68 1.854
0.743 1.675 1.834
0.724 1.661 1.808
0.709 1.653 1.787
0.69 1.639 1.763
0.672 1.624 1.739
0.658 1.618 1.72
0.64 1.601 1.696
0.626 1.595 1.677
0.612 1.587 1.658
0.599 1.581 1.64
0.583 1.569 1.62
0.383 1.01 1.352
0.319 0.841 1.268
0.3 0.798 1.242
0.294 0.796 1.233
0.284 0.783 1.221
0.277 0.777 1.212
0.27 0.771 1.202
0.264 0.765 1.194
0.258 0.764 1.186
0.253 0.762 1.179
0.247 0.756 1.171
0.239 0.744 1.16
0.234 0.746 1.154
0.226 0.732 1.144
0.221 0.728 1.136
0.217 0.73 1.131
0.209 0.715 1.121
0.204 0.71 1.113
0.2 0.714 1.109
0.195 0.709 1.101
0.189 0.701 1.094
0.185 0.703 1.089
0.18 0.697 1.082
0.174 0.69 1.074
0.169 0.683 1.067
0.166 0.686 1.063
0.161 0.679 1.056
0.155 0.671 1.049
0.151 0.67 1.044
0.147 0.664 1.037
0.143 0.665 1.033
0.138 0.656 1.026
0.135 0.658 1.021
0.13 0.651 1.015
0.127 0.652 1.011
0.122 0.644 1.004
0.119 0.647 1
0.114 0.639 0.994
0.111 0.639 0.99
0.107 0.632 0.984
0.104 0.635 0.98
0.099 0.625 0.974
0.096 0.629 0.97
0.093 0.629 0.966
0.089 0.62 0.96
0.086 0.621 0.956
0.082 0.62 0.952
0.078 0.609 0.946
0.075 0.61 0.942
0.072 0.611 0.938
0.069 0.611 0.933
0.065 0.601 0.929
0.062 0.592 0.924
0.059 0.601 0.92
0.055 0.591 0.916
0.052 0.585 0.911
0.049 0.586 0.907
0.046 0.586 0.903
0.043 0.58 0.899
0.04 0.58 0.895
0.039 -0.416 0.895
0.041 -0.415 0.898
0.044 -0.42 0.901
0.046 -0.425 0.904
0.048 -0.436 0.908
0.051 -0.44 0.911
0.055 -0.49 0.916
0.058 -0.506 0.92
0.061 -0.519 0.924
0.064 -0.526 0.929
0.067 -0.535 0.933
0.07 -0.544 0.937
0.074 -0.555 0.942
0.077 -0.564 0.947
0.082 -0.58 0.953
0.085 -0.588 0.958
0.089 -0.599 0.963
0.093 -0.607 0.968
0.098 -0.626 0.975
0.102 -0.632 0.98
0.106 -0.639 0.986
0.111 -0.653 0.993
0.117 -0.671 1
0.123 -0.692 1.009
0.129 -0.707 1.016
0.135 -0.725 1.025
0.14 -0.738 1.032
0.147 -0.753 1.041
0.154 -0.776 1.051
0.162 -0.799 1.061
0.17 -0.821 1.072
0.179 -0.848 1.085
0.188 -0.871 1.096
0.197 -0.896 1.109
0.208 -0.93 1.124
0.221 -0.97 1.141
0.233 -1.002 1.157
0.244 -1.031 1.173
0.26 -1.082 1.195
0.268 -1.089 1.205
0.274 -1.086 1.213
0.28 -1.083 1.221
0.285 -1.079 1.229
0.289 -1.066 1.233
0.297 -1.074 1.244
0.302 -1.069 1.252
0.308 -1.065 1.259
0.311 -1.052 1.263
0.316 -1.048 1.271
0.322 -1.045 1.278
0.33 -1.05 1.289
0.336 -1.046 1.297
0.341 -1.041 1.304
0.346 -1.036 1.311
0.351 -1.031 1.318
0.357 -1.027 1.326
0.362 -1.022 1.333
0.37 -1.026 1.343
0.375 -1.02 1.35
0.38 -1.015 1.357
0.386 -1.011 1.365
0.391 -1.006 1.372
0.399 -1.008 1.383
0.401 -0.994 1.385
0.409 -0.997 1.397
0.414 -0.991 1.403
0.419 -0.985 1.41
0.425 -0.981 1.418
0.432 -0.981 1.428
0.437 -0.975 1.434
0.442 -0.968 1.441
0.45 -0.97 1.452
0.456 -0.965 1.459
0.46 -0.958 1.466
0.468 -0.958 1.476
0.473 -0.953 1.484
0.478 -0.946 1.49
0.483 -0.939 1.496
0.491 -0.94 1.507
0.496 -0.933 1.514
0.505 -0.934 1.526
0.509 -0.927 1.532
0.515 -0.921 1.539
0.523 -0.92 1.551
0.528 -0.913 1.557
0.535 -0.911 1.567
2.386 -4.237 4.074
2.373 -4.141 4.057
2.383 -4.087 4.071
2.376 -4.004 4.061
2.385 -3.951 4.074
2.375 -3.865 4.06
2.386 -3.816 4.074
2.382 -3.743 4.069
2.392 -3.694 4.083
2.383 -3.616 4.071
2.392 -3.568 4.083
2.387 -3.497 4.076
2.395 -3.448 4.087
2.386 -3.375 4.074
2.393 -3.325 4.084
2.411 -3.292 4.109
2.405 -3.226 4.1
2.385 -3.142 4.074
2.392 -3.095 4.082
2.384 -3.03 4.072
2.393 -2.986 4.084
2.381 -2.918 4.068
2.394 -2.881 4.085
2.384 -2.816 4.071
2.394 -2.776 4.085
2.384 -2.714 4.072
2.394 -2.675 4.086
2.384 -2.613 4.072
2.392 -2.573 4.083
2.382 -2.513 4.069
2.392 -2.475 4.082
2.387 -2.422 4.076
2.39 -2.378 4.08
2.379 -2.321 4.065
2.392 -2.287 4.082
2.38 -2.23 4.067
2.386 -2.19 4.075
2.379 -2.139 4.065
2.386 -2.101 4.074
2.379 -2.051 4.065
2.39 -2.017 4.08
2.375 -1.961 4.059
2.391 -1.931 4.081
2.375 -1.876 4.059
2.389 -1.845 4.079
2.376 -1.793 4.061
2.39 -1.762 4.08
2.381 -1.715 4.068
2.386 -1.677 4.074
2.375 -1.629 4.06
2.387 -1.597 4.076
2.377 -1.551 4.063
2.387 -1.518 4.076
2.376 -1.471 4.06
2.388 -1.439 4.077
2.375 -1.393 4.059
2.388 -1.362 4.077
2.38 -1.319 4.067
2.387 -1.284 4.075
2.379 -1.242 4.065
2.385 -1.208 4.074
2.38 -1.167 4.066
2.387 -1.134 4.076
2.376 -1.091 4.061
2.387 -1.059 4.076
2.373 -1.016 4.057
2.383 -0.984 4.071
2.373 -0.944 4.057
2.383 -0.911 4.07
2.372 -0.871 4.056
2.383 -0.839 4.07
2.371 -0.799 4.054
2.381 -0.766 4.068
2.374 -0.729 4.058
2.378 -0.694 4.064
2.366 -0.656 4.047
2.379 -0.624 4.065
2.372 -0.587 4.055
2.381 -0.554 4.068
2.373 -0.517 4.057
2.383 -0.485 4.07
2.37 -0.447 4.053
2.378 -0.414 4.064
2.37 -0.378 4.052
2.378 -0.345 4.064
2.368 -0.309 4.051
2.375 -0.275 4.06
2.37 -0.24 4.053
2.377 -0.206 4.063
2.366 -0.171 4.048
2.373 -0.137 4.057
2.365 -0.103 4.046
2.378 -0.069 4.063
2.364 -0.034 4.045
2.374 -0 4.059
2.364 0.034 4.045
2.369 0.068 4.052
2.358 0.102 4.037
2.375 0.137 4.059
2.363 0.171 4.044
2.363 0.205 4.044
2.361 0.239 4.04
2.365 0.274 4.046
2.357 0.307 4.035
2.361 0.342 4.041
2.354 0.375 4.031
2.363 0.411 4.044
2.355 0.444 4.033
2.364 0.481 4.045
2.351 0.512 4.027
2.359 0.549 4.038
2.35 0.582 4.026
2.359 0.619 4.038
2.35 0.651 4.026
2.356 0.688 4.035
2.348 0.721 4.023
2.355 0.758 4.033
2.347 0.79 4.021
2.358 0.83 4.036
2.34 0.859 4.013
2.355 0.9 4.033
2.344 0.932 4.018
2.351 0.97 4.027
2.346 1.005 4.02
2.351 1.043 4.027
2.34 1.075 4.013
2.351 1.116 4.027
2.345 1.15 4.019
2.349 1.189 4.024
2.343 1.223 4.017
2.352 1.265 4.029
2.345 1.299 4.02
2.352 1.341 4.028
2.339 1.371 4.011
2.355 1.419 4.032
2.347 1.453 4.022
2.355 1.497 4.033
2.343 1.528 4.016
2.35 1.572 4.025
2.341 1.606 4.014
2.348 1.65 4.023
2.34 1.684 4.012
2.349 1.731 4.024
2.336 1.762 4.007
2.345 1.81 4.019
2.336 1.845 4.007
2.346 1.894 4.02
2.336 1.928 4.007
2.341 1.974 4.013
2.335 2.013 4.006
2.344 2.063 4.017
2.333 2.097 4.002
2.346 2.153 4.02
2.335 2.187 4.005
2.343 2.24 4.016
2.335 2.277 4.006
2.344 2.332 4.018
2.333 2.367 4.003
2.338 2.419 4.01
2.33 2.457 3.998
2.143 2.301 3.746
1.969 2.15 3.509
1.891 2.104 3.405
1.805 2.043 3.287
1.739 2.005 3.199
1.667 1.955 3.1
1.606 1.917 3.018
1.544 1.875 2.934
1.522 1.881 2.904
1.513 1.904 2.891
1.503 1.925 2.878
1.497 1.952 2.87
1.486 1.973 2.856
1.475 1.993 2.841
1.47 2.021 2.833
1.464 2.048 2.825
1.452 2.069 2.81
1.447 2.097 2.802
1.437 2.118 2.788
1.399 2.098 2.738
1.367 2.084 2.694
1.323 2.051 2.634
1.292 2.037 2.593
1.254 2.01 2.541
1.218 1.986 2.493
1.185 1.964 2.448
1.156 1.947 2.408
1.123 1.923 2.363
1.093 1.902 2.322
1.064 1.883 2.284
1.039 1.87 2.25
1.01 1.848 2.211
0.987 1.836 2.18
0.957 1.81 2.139
0.938 1.804 2.113
0.911 1.782 2.077
0.89 1.769 2.048
0.867 1.753 2.017
0.848 1.744 1.991
0.826 1.726 1.961
0.807 1.716 1.936
0.789 1.705 1.91
0.77 1.692 1.885
0.751 1.68 1.859
0.732 1.667 1.834
0.717 1.661 1.814
0.698 1.646 1.788
0.681 1.633 1.765
0.666 1.625 1.744
0.648 1.609 1.72
0.633 1.601 1.7
0.62 1.595 1.682
0.607 1.59 1.664
0.59 1.573 1.641
0.576 1.567 1.623
0.362 0.962 1.333
0.304 0.806 1.255
0.297 0.799 1.244
0.288 0.788 1.233
0.281 0.782 1.223
0.275 0.779 1.215
0.267 0.771 1.204
0.264 0.776 1.2
0.256 0.764 1.189
0.248 0.753 1.178
0.242 0.748 1.17
0.236 0.743 1.161
0.232 0.746 1.156
0.224 0.733 1.146
0.218 0.728 1.138
0.214 0.729 1.132
0.207 0.716 1.122
0.203 0.72 1.118
0.198 0.714 1.11
0.192 0.709 1.103
0.187 0.702 1.095
0.181 0.694 1.088
0.176 0.688 1.08
0.172 0.69 1.076
0.167 0.683 1.069
0.164 0.685 1.064
0.159 0.679 1.057
0.153 0.668 1.049
0.15 0.671 1.045
0.145 0.663 1.038
0.141 0.664 1.033
0.137 0.657 1.027
0.133 0.659 1.023
0.129 0.651 1.016
0.125 0.651 1.011
0.121 0.644 1.005
0.117 0.647 1.001
0.113 0.639 0.995
0.11 0.639 0.991
0.105 0.632 0.985
0.102 0.635 0.981
0.098 0.625 0.975
0.095 0.626 0.971
0.092 0.628 0.966
0.088 0.62 0.961
0.085 0.621 0.957
0.081 0.621 0.952
0.078 0.619 0.948
0.074 0.611 0.943
0.071 0.61 0.938
0.067 0.601 0.933
0.064 0.6 0.929
0.061 0.601 0.925
0.058 0.591 0.92
0.055 0.592 0.916
0.052 0.595 0.912
0.048 0.586 0.908
0.045 0.586 0.904
0.042 0.589 0.899
0.039 0.58 0.895
0.039 -0.407 0.896
0.041 -0.413 0.899
0.043 -0.418 0.901
0.045 -0.427 0.905
0.047 -0.436 0.908
0.05 -0.439 0.911
0.053 -0.476 0.916
0.057 -0.507 0.921
0.06 -0.517 0.925
0.063 -0.527 0.929
0.066 -0.536 0.934
0.069 -0.542 0.938
0.073 -0.554 0.943
0.076 -0.564 0.948
0.08 -0.58 0.953
0.084 -0.588 0.958
0.088 -0.598 0.964
0.092 -0.608 0.969
0.096 -0.617 0.975
0.101 -0.631 0.981
0.105 -0.64 0.987
0.11 -0.654 0.994
0.115 -0.671 1.001
0.12 -0.682 1.008
0.127 -0.707 1.017
0.131 -0.713 1.023
0.139 -0.741 1.034
0.145 -0.754 1.042
0.152 -0.777 1.052
0.159 -0.79 1.061
0.166 -0.811 1.071
0.177 -0.848 1.086
0.185 -0.87 1.097
0.194 -0.896 1.11
0.206 -0.93 1.126
